0.121784 0.252749 -0.0237963 0.231259 0.972258 0.0351127 2 
0.121907 0.252694 -0.023548 0.314092 0.947447 0.0607503 2 
0.121728 0.252565 -0.0232457 0.320705 0.947139 0.00873514 2 
0.121042 0.253371 -0.0224832 -0.199398 0.968687 -0.14794 2 
0.120848 0.252944 -0.022482 -0.1519 0.971394 -0.182535 2 
0.121128 0.253121 -0.0223398 -0.1519 0.971394 -0.182535 2 
0.120849 0.252827 -0.0222666 -0.1519 0.971394 -0.182535 2 
0.121119 0.252611 -0.0219661 -0.163959 0.972314 -0.166501 2 
0.121345 0.253444 -0.0225371 -0.199398 0.968687 -0.14794 2 
0.121772 0.253578 -0.0225581 -0.178286 0.976207 -0.123428 2 
0.121398 0.253139 -0.02247 -0.191267 0.969171 -0.155324 2 
0.121667 0.253157 -0.0226003 -0.0324965 0.991702 -0.124383 2 
0.121208 0.25285 -0.0224403 -0.199398 0.968687 -0.14794 2 
0.121323 0.252518 -0.0222491 0.236363 0.912101 -0.334969 2 
0.121502 0.25253 -0.0223359 0.242541 0.929031 -0.279419 2 
0.121762 0.252387 -0.0227386 0.454147 0.884242 -0.108939 2 
0.121455 0.252973 -0.0223744 -0.199398 0.968687 -0.14794 2 
0.121753 0.252907 -0.0224569 0.142305 0.978808 -0.147254 2 
0.121937 0.253174 -0.0227306 0.117573 0.986903 -0.110448 2 
0.121928 0.252897 -0.0227877 0.277241 0.959679 -0.0464158 2 
0.121743 0.253544 -0.0223905 -0.194093 0.979993 -0.044058 2 
0.121 0.252125 -0.0227401 0.194996 0.953464 -0.229961 2 
0.121739 0.252492 -0.0225425 0.3746 0.9177 -0.132294 2 
0.122691 0.245179 -0.0128091 0.31356 -0.530027 0.787878 2 
0.122246 0.245171 -0.0123481 0.251405 -0.725754 0.640372 2 
0.122398 0.245266 -0.0124827 0.257596 -0.734859 0.627396 2 
0.12271 0.245616 -0.0124796 0.3507 -0.614948 0.706293 2 
0.122796 0.245367 -0.0123361 0.3507 -0.614948 0.706293 2 
0.122464 0.24458 -0.0126689 0.276992 -0.565064 0.77716 2 
0.122337 0.24506 -0.0121761 0.251405 -0.725754 0.640372 2 
0.122394 0.244894 -0.0120805 0.27945 -0.697828 0.659503 2 
0.122475 0.244507 -0.0119657 0.282898 -0.704848 0.650506 2 
0.122787 0.244856 -0.0119625 0.3508 -0.618388 0.703232 2 
0.122574 0.244673 -0.0117366 0.282898 -0.704848 0.650506 2 
0.123124 0.244868 -0.0117247 0.361713 -0.617039 0.698875 2 
0.123109 0.244453 -0.0118103 0.361713 -0.617039 0.698875 2 
0.122836 0.244572 -0.0137419 0.291844 -0.205268 0.93418 2 
0.124243 0.244143 -0.0136516 0.383402 -0.27214 0.882577 2 
0.122927 0.245141 -0.0130158 0.301975 -0.322801 0.897001 2 
0.123311 0.24574 -0.0128313 0.445386 -0.353456 0.822618 2 
0.123155 0.24539 -0.0125099 0.353473 -0.591294 0.724864 2 
0.123638 0.245475 -0.0126506 0.340781 -0.34995 0.872584 2 
0.123746 0.245354 -0.0131341 0.35512 -0.146226 0.923313 2 
0.123974 0.246517 -0.0125047 0.226538 0.280007 0.932886 2 
0.123453 0.246238 -0.0124688 0.467328 -0.340595 0.815843 2 
0.123633 0.24625 -0.0125557 0.48887 -0.288949 0.823113 2 
0.123539 0.245989 -0.0123254 0.500459 -0.457515 0.734997 2 
0.123596 0.245823 -0.0122298 0.426364 -0.511966 0.745725 2 
0.124353 0.24618 -0.0126877 0.00414186 0.639228 0.769006 2 
0.124003 0.246434 -0.0124569 0.402075 -0.0831409 0.911824 2 
0.123842 0.246062 -0.0123793 0.378081 -0.299125 0.876116 2 
0.123988 0.246018 -0.0125425 0.261782 -0.159754 0.951813 2 
0.124074 0.245769 -0.0123991 0.168272 -0.0171706 0.985591 2 
0.123894 0.245757 -0.0123123 0.260532 -0.408116 0.874965 2 
0.124315 0.24587 -0.0125772 -0.0951535 0.762692 0.639724 2 
0.124367 0.245682 -0.0127255 -0.0951535 0.762692 0.639724 2 
0.123084 0.245024 -0.0124757 0.352087 -0.512857 0.782951 2 
0.123595 0.245143 -0.0127841 0.317414 -0.170489 0.932836 2 
0.123269 0.245058 -0.0123186 0.353473 -0.591294 0.724864 2 
0.123582 0.245408 -0.0123155 0.383268 -0.377011 0.84319 2 
0.12352 0.245319 -0.0122242 0.376586 -0.546131 0.748281 2 
0.123553 0.244577 -0.0124867 0.39201 -0.363898 0.84493 2 
0.123601 0.245048 -0.0123248 0.337085 -0.405434 0.849704 2 
0.123847 0.24517 -0.0122589 0.260532 -0.408116 0.874965 2 
0.124031 0.245437 -0.0125326 0.168272 -0.0171706 0.985591 2 
0.124329 0.245371 -0.012615 -0.0850166 0.805496 0.586471 2 
0.123923 0.244761 -0.012388 0.193451 -0.359676 0.912803 2 
0.124315 0.244956 -0.0127007 -0.0850166 0.805496 0.586471 2 
0.124396 0.244685 -0.0128012 -0.0618868 0.677876 0.732567 2 
0.124117 0.245188 -0.0123892 -0.0937184 0.961576 0.258047 2 
0.124226 0.244834 -0.0124419 -0.00346863 0.202337 0.97931 2 
0.123444 0.244134 -0.0127729 0.313152 -0.213964 0.925287 2 
0.12385 0.243948 -0.0133388 0.360497 -0.232061 0.903432 2 
0.12378 0.244262 -0.0127505 0.273206 -0.209412 0.938885 2 
0.123794 0.243764 -0.0127883 0.364269 -0.246287 0.898137 2 
0.123951 0.245591 -0.0122167 0.226932 -0.443343 0.86715 2 
0.126588 0.249608 -0.0149676 0.359459 -0.504532 0.785007 2 
0.126778 0.250577 -0.0144431 0.227037 -0.798491 0.557554 2 
0.126485 0.250547 -0.0139013 0.225621 -0.760886 0.608398 2 
0.126727 0.250531 -0.013864 0.225621 -0.760886 0.608398 2 
0.126471 0.250929 -0.0136481 0.225621 -0.760886 0.608398 2 
0.126926 0.250863 -0.0134059 0.225621 -0.760886 0.608398 2 
0.12701 0.250964 -0.0139086 0.225621 -0.760886 0.608398 2 
0.127096 0.250715 -0.0137652 0.225621 -0.760886 0.608398 2 
0.125809 0.249802 -0.0133286 0.195968 -0.745297 0.637283 2 
0.125989 0.249814 -0.0134154 0.208779 -0.768614 0.604685 2 
0.126316 0.249665 -0.0134501 0.225621 -0.760886 0.608398 2 
0.126627 0.250365 -0.0140931 0.227037 -0.798491 0.557554 2 
0.12597 0.250174 -0.0134062 0.225621 -0.760886 0.608398 2 
0.126244 0.25033 -0.0135078 0.225621 -0.760886 0.608398 2 
0.126093 0.250235 -0.0133732 0.225621 -0.760886 0.608398 2 
0.126325 0.249942 -0.013393 0.225621 -0.760886 0.608398 2 
0.12633 0.250081 -0.0133644 0.225621 -0.760886 0.608398 2 
0.126648 0.250336 -0.0129019 0.225621 -0.760886 0.608398 2 
0.126571 0.250298 -0.0137579 0.225621 -0.760886 0.608398 2 
0.126883 0.250531 -0.0135393 0.225621 -0.760886 0.608398 2 
0.12668 0.250624 -0.0132564 0.225621 -0.760886 0.608398 2 
0.127153 0.250549 -0.0136696 0.225621 -0.760886 0.608398 2 
0.126656 0.250049 -0.0136145 0.225621 -0.760886 0.608398 2 
0.126599 0.250098 -0.0134947 0.225621 -0.760886 0.608398 2 
0.126628 0.250015 -0.0134469 0.225621 -0.760886 0.608398 2 
0.126936 0.250227 -0.0134723 0.225621 -0.760886 0.608398 2 
0.127139 0.250134 -0.0137553 0.225621 -0.760886 0.608398 2 
0.126997 0.250199 -0.0133481 0.225621 -0.760886 0.608398 2 
0.127391 0.250161 -0.0132301 0.225621 -0.760886 0.608398 2 
0.127337 0.250816 -0.0139433 0.225621 -0.760886 0.608398 2 
0.127848 0.25002 -0.0143751 0.227037 -0.798491 0.557554 2 
0.127938 0.250026 -0.0144185 0.227037 -0.798491 0.557554 2 
0.127366 0.250733 -0.0138955 0.225621 -0.760886 0.608398 2 
0.127518 0.250594 -0.0135994 0.225621 -0.760886 0.608398 2 
0.127518 0.250594 -0.0135994 0.225621 -0.760886 0.608398 2 
0.127911 0.250673 -0.0136967 0.225621 -0.760886 0.608398 2 
0.127504 0.250179 -0.013685 0.225621 -0.760886 0.608398 2 
0.128298 0.25073 -0.014038 0.212441 -0.761378 0.612514 2 
0.128436 0.250293 -0.0140429 0.212441 -0.761378 0.612514 2 
0.128615 0.250305 -0.0141297 0.201711 -0.765269 0.611291 2 
0.127812 0.25107 -0.0131561 0.225621 -0.760886 0.608398 2 
0.128048 0.251033 -0.0133628 0.225621 -0.760886 0.608398 2 
0.127608 0.250483 -0.0134274 0.225621 -0.760886 0.608398 2 
0.127906 0.250418 -0.0135099 0.225621 -0.760886 0.608398 2 
0.127996 0.250424 -0.0135533 0.225621 -0.760886 0.608398 2 
0.128218 0.250884 -0.0137221 0.212441 -0.761378 0.612514 2 
0.12846 0.250868 -0.0136848 0.198754 -0.765741 0.611668 2 
0.128574 0.250653 -0.0137089 0.198754 -0.765741 0.611668 2 
0.127997 0.250987 -0.0127837 0.183302 -0.435526 0.881316 2 
0.126485 0.249517 -0.0138094 0.476524 -0.496448 0.725578 2 
0.126675 0.249689 -0.0136238 0.231101 -0.559915 0.795668 2 
0.127053 0.249469 -0.0140222 0.561078 -0.530749 0.635214 2 
0.126515 0.249997 -0.012992 0.225621 -0.760886 0.608398 2 
0.12713 0.249623 -0.0133816 0.225621 -0.760886 0.608398 2 
0.126941 0.250132 -0.013013 0.225621 -0.760886 0.608398 2 
0.127906 0.249621 -0.0138487 0.227037 -0.798491 0.557554 2 
0.127594 0.250068 -0.0135131 0.225621 -0.760886 0.608398 2 
0.127679 0.249819 -0.0133696 0.225621 -0.760886 0.608398 2 
0.128403 0.250121 -0.0139038 0.212441 -0.761378 0.612514 2 
0.127912 0.250323 -0.0130506 0.225621 -0.760886 0.608398 2 
0.12812 0.250368 -0.013305 0.225621 -0.760886 0.608398 2 
0.128049 0.250002 -0.0132709 0.225621 -0.760886 0.608398 2 
0.128433 0.250601 -0.0130864 0.174325 -0.4468 0.877485 2 
0.126639 0.244782 -0.0238033 -0.197225 -0.970858 0.136149 2 
0.126249 0.245947 -0.0223821 0.232257 -0.972648 0.0035369 2 
0.126391 0.245649 -0.0223584 0.232257 -0.972648 0.0035369 2 
0.125917 0.245044 -0.0224994 0.232257 -0.972648 0.0035369 2 
0.126049 0.244701 -0.0229637 0.232257 -0.972648 0.0035369 2 
0.126528 0.244414 -0.0227022 0.232257 -0.972648 0.0035369 2 
0.126296 0.244707 -0.0226824 0.232257 -0.972648 0.0035369 2 
0.126017 0.24521 -0.0222704 0.232257 -0.972648 0.0035369 2 
0.126231 0.245043 -0.0218501 -0.0909443 -0.99365 -0.0662434 2 
0.126386 0.245393 -0.0221716 -0.0909443 -0.99365 -0.0662434 2 
0.12651 0.245455 -0.0221387 -0.0909443 -0.99365 -0.0662434 2 
0.126779 0.245472 -0.022269 -0.0909443 -0.99365 -0.0662434 2 
0.126505 0.2452 -0.0219519 -0.0909443 -0.99365 -0.0662434 2 
0.126662 0.245316 -0.0218426 -0.0909443 -0.99365 -0.0662434 2 
0.126865 0.245223 -0.0221255 -0.0909443 -0.99365 -0.0662434 2 
0.126827 0.244913 -0.0220151 -0.0909443 -0.99365 -0.0662434 2 
0.126926 0.245429 -0.0224322 -0.0909443 -0.99365 -0.0662434 2 
0.127224 0.245363 -0.0225146 -0.0909443 -0.99365 -0.0662434 2 
0.127035 0.245075 -0.0224849 -0.0909443 -0.99365 -0.0662434 2 
0.12757 0.244855 -0.0225586 -0.0909443 -0.99365 -0.0662434 2 
0.12713 0.245102 -0.0222843 -0.0909443 -0.99365 -0.0662434 2 
0.126723 0.245288 -0.0217184 -0.0909443 -0.99365 -0.0662434 2 
0.12705 0.24514 -0.0217531 -0.0909443 -0.99365 -0.0662434 2 
0.126717 0.244586 -0.0225166 -0.0909443 -0.99365 -0.0662434 2 
0.126713 0.244331 -0.0223297 -0.0909443 -0.99365 -0.0662434 2 
0.12608 0.244832 -0.0215001 -0.0909443 -0.99365 -0.0662434 2 
0.126166 0.244583 -0.0213567 -0.0909443 -0.99365 -0.0662434 2 
0.126979 0.244891 -0.0219343 -0.0909443 -0.99365 -0.0662434 2 
0.127655 0.244722 -0.0226305 -0.0909443 -0.99365 -0.0662434 2 
0.127159 0.244902 -0.0220212 -0.0909443 -0.99365 -0.0662434 2 
0.127334 0.244659 -0.0219212 -0.0909443 -0.99365 -0.0662434 2 
0.126876 0.24515 -0.0214223 -0.0909443 -0.99365 -0.0662434 2 
0.126976 0.245199 -0.0209779 -0.159309 -0.979318 -0.12473 2 
0.126961 0.244901 -0.0212789 -0.0909443 -0.99365 -0.0662434 2 
0.127076 0.244452 -0.0208723 -0.159309 -0.979318 -0.12473 2 
0.127754 0.244497 -0.0201528 -0.548503 -0.822012 -0.153105 2 
0.128592 0.245403 -0.00401686 0.353909 -0.397563 0.846576 2 
0.12768 0.244579 -0.00302212 0.447922 -0.352956 0.821454 2 
0.127519 0.246948 -0.00257415 -0.0718989 0.0311204 0.996926 2 
0.126421 0.24576 -0.00293691 -0.0252123 -0.104138 0.994243 2 
0.126733 0.24611 -0.00293373 -0.0673943 -0.0673943 0.995448 2 
0.126937 0.245667 -0.00257055 0.439691 -0.462575 0.769868 2 
0.127046 0.246343 -0.00271516 -0.0890726 -0.0406875 0.995194 2 
0.12689 0.24611 -0.00260908 0.0792587 -0.240292 0.967459 2 
0.127472 0.246477 -0.00273616 0.0888937 -0.17657 0.980266 2 
0.127259 0.246293 -0.00251026 0.451495 -0.477764 0.753587 2 
0.127373 0.245961 -0.00231908 0.510774 -0.484154 0.710425 2 
0.127743 0.246145 -0.0022203 0.304864 -0.368567 0.87819 2 
0.126961 0.245445 -0.0025513 0.413561 -0.403981 0.815945 2 
0.127771 0.245148 -0.00229596 0.515963 -0.436838 0.736855 2 
0.127274 0.245678 -0.00233275 0.532654 -0.4859 0.692951 2 
0.127416 0.24538 -0.00230907 0.467437 -0.421834 0.776891 2 
0.127819 0.245619 -0.00213399 0.642604 -0.521167 0.561646 2 
0.127733 0.245868 -0.0022774 0.525453 -0.47541 0.705609 2 
0.128291 0.244863 -0.00310142 0.68499 -0.45166 0.571658 2 
0.127885 0.245049 -0.00253552 0.597952 -0.438054 0.671239 2 
0.128244 0.245073 -0.0027092 0.588802 -0.438683 0.678874 2 
0.128612 0.245606 -0.00325654 0.354961 -0.42753 0.831397 2 
0.128726 0.245274 -0.00306532 0.341162 -0.403474 0.84901 2 
0.127965 0.245575 -0.00229718 0.61119 -0.463834 0.641331 2 
0.128301 0.24582 -0.00249013 0.440766 -0.414934 0.795962 2 
0.128552 0.246081 -0.0023957 0.38485 -0.465363 0.797075 2 
0.128164 0.245344 -0.00260867 0.64067 -0.456665 0.617251 2 
0.128467 0.245417 -0.00266259 0.399149 -0.386528 0.83143 2 
0.128542 0.245921 -0.00266822 0.383449 -0.460459 0.80059 2 
0.128557 0.245422 -0.00270601 0.388064 -0.384922 0.837402 2 
0.12779 0.246615 -0.0020583 0.355082 -0.496472 0.792106 2 
0.128325 0.246396 -0.00213201 0.418674 -0.480579 0.770556 2 
0.128079 0.246156 -0.0019825 0.43282 -0.475285 0.76601 2 
0.127734 0.241808 -0.00535885 0.742386 -0.247462 0.622596 2 
0.127824 0.241697 -0.00518691 0.742386 -0.247462 0.622596 2 
0.127857 0.241869 -0.00532594 0.744119 -0.254359 0.617729 2 
0.128126 0.241887 -0.00545622 0.791119 -0.164251 0.589196 2 
0.12806 0.241659 -0.00539351 0.784992 -0.161217 0.598161 2 
0.128546 0.241552 -0.00670611 0.791606 0.15772 0.590325 2 
0.128693 0.241275 -0.00643856 0.790385 0.187317 0.58327 2 
0.128409 0.241756 -0.00627045 0.839534 0.0431601 0.54159 2 
0.128382 0.241489 -0.00567209 0.813416 -0.0179531 0.581406 2 
0.128466 0.24159 -0.00617484 0.839534 0.0431601 0.54159 2 
0.128552 0.241341 -0.00603143 0.839534 0.0431601 0.54159 2 
0.128353 0.241572 -0.00571989 0.813416 -0.0179531 0.581406 2 
0.128358 0.241594 -0.00547598 0.809655 -0.115665 0.575396 2 
0.127691 0.240562 -0.00561579 0.759099 0.0124898 0.650855 2 
0.127876 0.241392 -0.00511986 0.74453 -0.233547 0.625405 2 
0.127999 0.241454 -0.00508692 0.754008 -0.226358 0.616632 2 
0.127985 0.241038 -0.00517256 0.767644 -0.165036 0.619263 2 
0.128779 0.241026 -0.00629515 0.790385 0.187317 0.58327 2 
0.128637 0.241091 -0.00588802 0.839534 0.0431601 0.54159 2 
0.128907 0.241109 -0.00601827 0.830717 0.15901 0.533502 2 
0.128444 0.241345 -0.00533257 0.822323 -0.0434276 0.567361 2 
0.128647 0.241251 -0.00561553 0.842807 0.0261229 0.537582 2 
0.12843 0.240929 -0.0054182 0.839173 0.0205344 0.543477 2 
0.12842 0.240652 -0.00547532 0.833684 0.14956 0.531603 2 
0.12861 0.240824 -0.00528969 0.837737 0.0317429 0.54515 2 
0.12888 0.240842 -0.00541995 0.830768 0.0755244 0.551471 2 
0.12862 0.241101 -0.00523257 0.837627 0.00953396 0.54616 2 
0.128823 0.241008 -0.00551555 0.846328 0.0345158 0.531543 2 
0.128992 0.24086 -0.00587486 0.810263 0.17352 0.55979 2 
0.129784 0.246288 -0.00465404 0.163041 -0.338624 0.926688 1 
0.129341 0.246844 -0.00342337 0.343511 -0.460654 0.818412 1 
0.129785 0.246968 -0.00409978 0.277868 -0.443668 0.852026 1 
0.128921 0.247295 -0.00238884 0.367816 -0.526608 0.766417 1 
0.127919 0.247612 -0.00165799 0.702401 -0.329301 -0.631026 1 
0.128599 0.247582 -0.00232561 0.330719 -0.411457 0.84931 1 
0.128969 0.247766 -0.00222687 0.405539 -0.587617 0.700175 1 
0.129824 0.247609 -0.00300988 0.296319 -0.540346 0.787542 1 
0.1299 0.247199 -0.00313894 0.299214 -0.520855 0.799488 1 
0.130327 0.248131 -0.00282107 0.332657 -0.544786 0.769771 1 
0.130047 0.247836 -0.00274791 0.301444 -0.566204 0.767167 1 
0.132072 0.247756 -0.00409542 0.504627 -0.365975 -0.78193 1 
0.130091 0.251473 -0.00147443 0.668658 -0.431876 0.605293 1 
0.129832 0.251615 -0.00107166 0.706355 -0.437109 0.556774 1 
0.130708 0.251546 -0.000879012 0.652613 -0.384959 0.652613 1 
0.131304 0.251415 -0.00104396 0.599709 -0.354596 0.717363 1 
0.131432 0.250817 -0.00132136 0.604427 -0.380443 0.69995 1 
0.130992 0.250948 -0.000831746 0.635058 -0.409554 0.654955 1 
0.128606 0.248167 -0.00131209 0.46852 -0.623014 0.626373 1 
0.129505 0.248226 -0.00174632 0.37958 -0.583337 0.718079 1 
0.129179 0.248938 -0.000942051 0.52445 -0.595277 0.608767 1 
0.130947 0.248575 -0.00262789 0.356839 -0.484853 0.798488 1 
0.130007 0.248631 -0.0013421 0.461973 -0.558704 0.68879 1 
0.130243 0.248593 -0.00154874 0.389566 -0.523224 0.757941 1 
0.129023 0.249502 -0.000497065 0.456887 -0.536634 0.709421 1 
0.129266 0.250166 9.4451e-005 0.604892 -0.457439 0.651809 1 
0.12955 0.250599 4.98146e-005 0.60875 -0.431963 0.665456 1 
0.129753 0.250506 -0.000233106 0.435288 -0.464634 0.771129 1 
0.129796 0.249925 -0.000223152 0.742658 -0.44296 0.502241 1 
0.129593 0.250018 5.97835e-005 0.608134 -0.467409 0.64164 1 
0.129569 0.250239 4.0561e-005 0.607106 -0.446549 0.65728 1 
0.129838 0.250257 -8.97199e-005 0.449345 -0.459148 0.766337 1 
0.12998 0.249278 -0.000620306 0.547698 -0.524105 0.652182 1 
0.129781 0.249509 -0.000308804 0.575507 -0.488258 0.656045 1 
0.130061 0.249804 -0.000381969 0.611368 -0.45392 0.648218 1 
0.130689 0.250078 -0.00111669 0.549556 -0.436656 0.712264 1 
0.130684 0.24994 -0.00114523 0.537889 -0.438586 0.719943 1 
0.131289 0.250319 -0.00168382 0.572855 -0.367214 0.732797 1 
0.13041 0.250581 -0.000704668 0.636945 -0.414097 0.650249 1 
0.130496 0.250332 -0.000561252 0.61311 -0.439368 0.656546 1 
0.130832 0.250577 -0.00075417 0.593854 -0.408585 0.693106 1 
0.130932 0.250626 -0.000309765 0.635945 -0.432309 0.639283 1 
0.130302 0.249905 -0.000560038 0.594498 -0.457177 0.661484 1 
0.131248 0.250551 -0.00104767 0.637449 -0.373904 0.673687 1 
0.13087 0.25077 -0.000649288 0.625387 -0.428598 0.65207 1 
0.131049 0.250782 -0.000736132 0.623551 -0.424015 0.656807 1 
0.131068 0.250422 -0.000745416 0.581672 -0.412639 0.70099 1 
0.131252 0.250689 -0.00101911 0.617496 -0.383671 0.686655 1 
0.130249 0.249295 -0.000750549 0.551353 -0.494375 0.672014 1 
0.130367 0.249335 -0.000961579 0.541128 -0.487518 0.685206 1 
0.130457 0.249341 -0.00100499 0.521363 -0.481387 0.70459 1 
0.13023 0.249655 -0.000741288 0.576511 -0.452854 0.680116 1 
0.13041 0.249667 -0.000828154 0.558679 -0.451946 0.69543 1 
0.13033 0.249821 -0.000512227 0.594498 -0.457177 0.661484 1 
0.131178 0.250343 -0.00283149 0.508301 -0.366299 0.779394 1 
0.131056 0.250048 -0.00243367 0.509784 -0.395774 0.763861 1 
0.132367 0.25074 -0.00285105 0.447346 -0.364563 0.816685 1 
0.131957 0.251351 -0.00154403 0.560672 -0.352654 0.749188 1 
0.131933 0.250775 -0.00190212 0.534626 -0.347265 0.770443 1 
0.131905 0.250742 -0.00173456 0.554866 -0.341331 0.758694 1 
0.132425 0.251137 -0.00198581 0.495771 -0.351372 0.794197 1 
0.133173 0.250984 -0.00206999 0.460199 -0.355101 0.813708 1 
0.133443 0.251002 -0.00220027 0.429433 -0.366048 0.825588 1 
0.133778 0.251364 -0.00260857 0.454458 -0.343615 0.821825 1 
0.133934 0.25148 -0.0024993 0.468073 -0.308396 0.82813 1 
0.133561 0.251041 -0.00241128 0.449089 -0.353876 0.820421 1 
0.133864 0.251114 -0.00246516 0.272547 -0.386987 0.880885 1 
0.133622 0.251014 -0.00228713 0.449089 -0.353876 0.820421 1 
0.134356 0.251359 -0.00233348 0.442001 -0.33504 0.832095 1 
0.134228 0.25116 -0.00239496 0.444998 -0.378009 0.811841 1 
0.131349 0.248931 -0.00266814 0.458669 -0.445611 0.768801 1 
0.131572 0.248361 -0.00274504 0.42419 -0.408183 0.808362 1 
0.13179 0.24845 -0.00251158 0.439107 -0.403721 0.802617 1 
0.13206 0.248468 -0.00264185 0.526831 -0.411946 0.743472 1 
0.132273 0.248535 -0.00265236 0.569787 -0.436892 0.696037 1 
0.132509 0.248497 -0.00285896 0.667845 -0.473685 0.574113 1 
0.131535 0.248848 -0.0022957 0.464244 -0.42515 0.776998 1 
0.131861 0.248699 -0.00233035 0.470038 -0.440558 0.764835 1 
0.13155 0.248913 -0.00156391 0.417706 -0.433833 0.798318 1 
0.131984 0.248877 -0.00251281 0.470884 -0.402922 0.784807 1 
0.132557 0.248968 -0.00269696 0.800042 -0.518047 0.30259 1 
0.133388 0.249149 -0.00371467 -0.588229 0.306136 0.74851 1 
0.133266 0.249885 -0.00340874 0.281802 -0.305163 0.90965 1 
0.133153 0.248953 -0.00307731 0.696003 -0.525758 0.489038 1 
0.133163 0.249113 -0.00280484 0.726441 -0.569018 0.385358 1 
0.132884 0.248819 -0.00273161 0.691519 -0.500639 0.520732 1 
0.13312 0.248781 -0.00293826 0.664967 -0.46062 0.587918 1 
0.131947 0.250277 -0.00193997 0.530986 -0.346997 0.773077 1 
0.132198 0.250538 -0.00184559 0.519299 -0.36723 0.771668 1 
0.132851 0.250241 -0.00191491 0.48265 -0.401396 0.778415 1 
0.132568 0.250722 -0.0017468 0.499201 -0.369958 0.783536 1 
0.131659 0.249589 -0.00170853 0.526882 -0.38986 0.755252 1 
0.133616 0.250312 -0.00308528 0.30806 -0.27886 0.90958 1 
0.133192 0.250508 -0.00186393 0.474611 -0.374862 0.796381 1 
0.133362 0.250359 -0.00222324 0.38942 -0.342876 0.854862 1 
0.1335 0.250836 -0.00210465 0.420229 -0.382171 0.823015 1 
0.134119 0.250717 -0.00268111 0.418393 -0.349444 0.838353 1 
0.128977 0.246565 -0.00306283 0.319795 -0.467878 0.823906 1 
0.128855 0.246271 -0.00266499 0.330798 -0.470081 0.818289 1 
0.128924 0.246306 -0.00389951 0.321134 -0.452721 0.831815 1 
0.129227 0.246262 -0.00373804 0.315047 -0.456113 0.832289 1 
0.12918 0.246472 -0.00334582 0.318696 -0.45685 0.830494 1 
0.129539 0.246612 -0.00373486 0.340325 -0.45746 0.821529 1 
0.129586 0.246286 -0.00391173 0.330546 -0.43394 0.838114 1 
0.129805 0.246258 -0.00346296 0.303897 -0.489699 0.817215 1 
0.129795 0.246215 -0.00395078 0.305795 -0.404142 0.862067 1 
0.130203 0.246359 -0.00331635 0.307223 -0.48683 0.817686 1 
0.130568 0.24549 -0.00336958 0.188699 -0.42567 0.884984 1 
0.130611 0.245822 -0.00323611 0.25535 -0.463299 0.848617 1 
0.127805 0.247031 -0.00197267 0.445135 -0.477986 0.757222 1 
0.128582 0.246678 -0.00179367 0.416094 -0.521351 0.745022 1 
0.128783 0.246935 -0.00272278 0.33846 -0.514908 0.787601 1 
0.129053 0.246953 -0.00285302 0.329637 -0.504806 0.797816 1 
0.128869 0.246686 -0.00257937 0.340688 -0.507033 0.791739 1 
0.128751 0.24653 -0.00215299 0.33993 -0.489946 0.802746 1 
0.128766 0.246945 -0.00206738 0.360706 -0.519222 0.77479 1 
0.12851 0.247343 -0.00185145 0.435362 -0.531373 0.726707 1 
0.128553 0.247558 -0.00150263 0.449602 -0.586656 0.673568 1 
0.128577 0.247337 -0.00148335 0.4624 -0.549204 0.696104 1 
0.128563 0.246921 -0.00156902 0.411396 -0.509738 0.755593 1 
0.128596 0.247093 -0.00170805 0.411396 -0.509738 0.755593 1 
0.12887 0.24725 -0.00180976 0.408787 -0.533557 0.740413 1 
0.130255 0.246968 -0.00312579 0.294765 -0.50914 0.808634 1 
0.130298 0.2473 -0.00299236 0.295577 -0.520026 0.801378 1 
0.130274 0.246608 -0.0031351 0.320698 -0.484996 0.813592 1 
0.13018 0.246463 -0.00312024 0.319444 -0.5038 0.802584 1 
0.130573 0.246542 -0.00321758 0.268018 -0.491108 0.828842 1 
0.130601 0.247373 -0.00304629 0.281615 -0.533339 0.797648 1 
0.13063 0.246376 -0.00312195 0.262234 -0.5074 0.82084 1 
0.13132 0.245593 -0.00364062 -0.172218 -0.371479 0.912329 1 
0.13088 0.24584 -0.0033664 0.137761 -0.421806 0.896159 1 
0.131013 0.246975 -0.00293753 0.189917 -0.49498 0.847896 1 
0.13126 0.247098 -0.00287169 0.222663 -0.483194 0.846726 1 
0.131558 0.247032 -0.00295417 0.237774 -0.504694 0.829908 1 
0.132268 0.247483 -0.00280437 0.732798 -0.628338 0.261148 1 
0.130966 0.246505 -0.00309952 0.162579 -0.418676 0.893464 1 
0.130985 0.246145 -0.00310881 0.152335 -0.405753 0.901198 1 
0.131108 0.246322 -0.00329127 0.0594496 -0.365946 0.928735 1 
0.131245 0.246682 -0.00295732 0.156323 -0.468968 0.869271 1 
0.131444 0.246451 -0.00326883 0.0468651 -0.413752 0.909183 1 
0.131193 0.246073 -0.00314784 -0.00629205 -0.341029 0.940032 1 
0.131429 0.246035 -0.00335447 -0.130117 -0.343782 0.929991 1 
0.132018 0.247105 -0.00268339 0.677172 -0.627744 0.383896 1 
0.132107 0.247111 -0.00272683 0.6997 -0.617768 0.358863 1 
0.131106 0.244845 -0.00418434 0.262708 -0.905535 -0.333154 1 
0.130946 0.24527 -0.00376791 -0.0590564 -0.347777 0.935716 1 
0.132027 0.247382 -0.00262631 0.71002 -0.601795 0.365669 1 
0.131644 0.252828 -0.00130028 0.603978 -0.299586 0.738552 1 
0.132009 0.253787 -0.00110653 0.611747 -0.289102 0.736332 1 
0.131944 0.253327 -0.000613078 0.64719 -0.282846 0.707914 1 
0.132085 0.253261 -0.00102022 0.646462 -0.293555 0.704211 1 
0.132393 0.253473 -0.00104561 0.599348 -0.289285 0.746388 1 
0.13402 0.253972 -0.00198548 0.540122 -0.176029 0.822972 1 
0.132355 0.254192 -0.00102703 0.468404 -0.165924 0.867795 1 
0.132426 0.254558 -0.00106115 0.496507 -0.160591 0.853048 1 
0.132814 0.254382 -0.000971645 0.457 -0.162067 0.874577 1 
0.13298 0.254892 -0.00102067 0.20331 -0.0985369 0.974143 1 
0.132166 0.253787 -0.000781864 0.620255 -0.282224 0.731869 1 
0.132246 0.253516 -0.000882387 0.624332 -0.293709 0.72384 1 
0.132383 0.254109 -0.000979207 0.537903 -0.202666 0.818283 1 
0.132469 0.25386 -0.000835806 0.576853 -0.24231 0.780081 1 
0.132739 0.253878 -0.000966065 0.456781 -0.164908 0.87416 1 
0.132568 0.254143 -0.000822105 0.468404 -0.165924 0.867795 1 
0.132781 0.25421 -0.000832617 0.471745 -0.146604 0.869462 1 
0.132895 0.253994 -0.000856765 0.468404 -0.165924 0.867795 1 
0.132583 0.253645 -0.000859968 0.578325 -0.252332 0.775802 1 
0.132616 0.2537 -0.000783615 0.571775 -0.249075 0.781687 1 
0.132644 0.253617 -0.000735819 0.587663 -0.256807 0.76727 1 
0.132824 0.253629 -0.000822663 0.577961 -0.23835 0.780481 1 
0.133193 0.254843 -0.000815779 0.20331 -0.0985369 0.974143 1 
0.133236 0.254261 -0.00080581 0.331511 -0.129603 0.934507 1 
0.133416 0.254273 -0.000892654 0.810467 -0.508312 0.291139 1 
0.133212 0.253569 -0.000948511 0.542578 -0.244082 0.803762 1 
0.133392 0.253581 -0.00103538 0.611548 -0.171476 0.772402 1 
0.133435 0.253913 -0.000901945 0.733751 -0.374229 0.567064 1 
0.133728 0.253709 -0.00101294 0.589007 -0.18416 0.786865 1 
0.133212 0.254483 -0.000825092 0.301004 -0.121739 0.94582 1 
0.130398 0.252323 0.000657015 0.707568 -0.454509 0.541082 1 
0.130417 0.251963 0.000647739 0.69963 -0.443708 0.560036 1 
0.130912 0.252016 -0.000392392 0.623799 -0.34366 0.701978 1 
0.130709 0.252109 -0.000109434 0.646239 -0.366695 0.66926 1 
0.130955 0.252348 -0.000258945 0.63737 -0.343952 0.689533 1 
0.130573 0.252313 0.000326246 0.684909 -0.384539 0.618894 1 
0.130549 0.252418 0.000522375 0.700528 -0.393944 0.595037 1 
0.131055 0.252514 -2.98768e-005 0.639481 -0.315693 0.701001 1 
0.130898 0.251601 -0.000478014 0.626625 -0.358305 0.692069 1 
0.130723 0.251611 -0.000147253 0.627304 -0.361969 0.689543 1 
0.130984 0.251352 -0.000334613 0.629904 -0.376627 0.679244 1 
0.130842 0.251417 7.24941e-005 0.626507 -0.376562 0.682415 1 
0.131111 0.251785 -0.000703879 0.612913 -0.351403 0.70771 1 
0.130998 0.251767 -0.000248969 0.616944 -0.34347 0.708102 1 
0.130827 0.251352 -0.000659235 0.629744 -0.388424 0.672718 1 
0.131182 0.25112 -0.000646114 0.639275 -0.406811 0.652558 1 
0.130927 0.251518 -0.000430204 0.628045 -0.359117 0.690358 1 
0.131012 0.251269 -0.000286803 0.610089 -0.373289 0.698889 1 
0.130771 0.252082 1.47521e-005 0.652098 -0.369577 0.661953 1 
0.130828 0.251915 0.000110343 0.655397 -0.369585 0.658682 1 
0.130601 0.25223 0.000374071 0.691179 -0.384355 0.611999 1 
0.130578 0.252335 0.000570185 0.698378 -0.401196 0.592714 1 
0.130668 0.252341 0.000526771 0.694388 -0.394201 0.602023 1 
0.130725 0.252175 0.000622369 0.682397 -0.398202 0.613 1 
0.130644 0.251649 0.000384025 0.688701 -0.413221 0.595768 1 
0.130739 0.251676 0.000584558 0.689507 -0.42035 0.589819 1 
0.130856 0.251832 0.000158153 0.656013 -0.373221 0.656013 1 
0.130942 0.251583 0.000301555 0.818964 -0.471811 0.326639 1 
0.130687 0.251981 0.000517488 0.681088 -0.41263 0.60486 1 
0.131803 0.252245 0.000101306 0.623672 -0.31103 0.717142 1 
0.130952 0.252657 0.000697523 0.702133 -0.383131 0.600184 1 
0.131155 0.25268 0.000199154 0.641228 -0.3085 0.702605 1 
0.131462 0.252892 0.0001738 0.634489 -0.308365 0.708755 1 
0.130947 0.252518 0.000668965 0.684372 -0.38094 0.621707 1 
0.131036 0.251047 -0.000267535 0.653099 -0.420443 0.629833 1 
0.130899 0.251251 0.000168122 0.616874 -0.379994 0.689254 1 
0.131178 0.250865 -0.000459276 0.629166 -0.406717 0.662368 1 
0.130606 0.251338 0.000494488 0.721526 -0.472724 0.505898 1 
0.130909 0.251411 0.000440598 0.671131 -0.409307 0.618103 1 
0.132028 0.252514 -0.00123931 0.608734 -0.314862 0.72822 1 
0.132114 0.252264 -0.00109591 0.591294 -0.314175 0.742742 1 
0.132241 0.251784 -0.00158866 0.531069 -0.335328 0.778152 1 
0.13261 0.251967 -0.00148989 0.530554 -0.310685 0.788662 1 
0.132847 0.25193 -0.00169648 0.513596 -0.298676 0.80437 1 
0.132383 0.252282 -0.00122619 0.568908 -0.297999 0.766512 1 
0.132653 0.2523 -0.00135646 0.549943 -0.272608 0.78946 1 
0.132042 0.252929 -0.00115368 0.612617 -0.292712 0.73418 1 
0.131878 0.252983 -0.00033506 0.627078 -0.311121 0.714127 1 
0.132312 0.252947 -0.00128394 0.591778 -0.277644 0.756778 1 
0.132364 0.252642 -0.00121689 0.585367 -0.288696 0.757628 1 
0.132454 0.252648 -0.00126031 0.579199 -0.291993 0.761097 1 
0.132682 0.25313 -0.00118516 0.555667 -0.286541 0.780467 1 
0.132857 0.252887 -0.00108517 0.540095 -0.261437 0.799967 1 
0.132809 0.252416 -0.00124717 0.538328 -0.268379 0.798859 1 
0.13209 0.251689 -0.001454 0.563535 -0.349164 0.748674 1 
0.1322 0.251665 -0.000306353 0.596057 -0.310078 0.740653 1 
0.133184 0.252738 -0.00111981 0.573424 -0.210614 0.791724 1 
0.134247 0.25183 -0.00249616 0.480576 -0.316707 0.817767 1 
0.134304 0.251664 -0.00240052 0.482082 -0.324022 0.814007 1 
0.131978 0.253149 -0.000106014 0.63692 -0.268427 0.722689 1 
0.132129 0.25336 -0.000456013 0.642082 -0.275633 0.715372 1 
0.13221 0.252856 -0.000125811 0.635387 -0.275493 0.721379 1 
0.132871 0.253302 -0.000999525 0.56326 -0.269797 0.780991 1 
0.133226 0.253071 -0.000986375 0.58252 -0.180992 0.792409 1 
0.134398 0.251011 -0.00275426 0.381692 -0.344604 0.857647 1 
0.134639 0.251112 -0.00293234 0.412231 -0.377483 0.8292 1 
0.134521 0.251072 -0.00272131 0.442269 -0.400455 0.802517 1 
0.134488 0.251931 -0.0026742 0.24966 -0.437283 0.863975 1 
0.13488 0.252126 -0.00298695 0.56687 -0.248298 0.785497 1 
0.134493 0.251952 -0.00243027 0.116859 -0.509272 0.852635 1 
0.134696 0.251859 -0.00271324 0.525142 -0.324024 0.786915 1 
0.134602 0.251598 -0.00248299 0.494339 -0.325851 0.805885 1 
0.140025 0.241701 -0.00618338 0.460512 -0.424713 0.779454 1 
0.13965 0.241379 -0.00631074 0.338886 -0.478895 0.809825 1 
0.139882 0.241202 -0.00654591 0.363523 -0.478826 0.79911 1 
0.140318 0.241497 -0.00629438 0.442258 -0.432538 0.785696 1 
0.139743 0.239249 -0.00755755 0.339729 -0.496037 0.799082 1 
0.139802 0.24056 -0.00656883 0.348714 -0.476098 0.807297 1 
0.139537 0.240681 -0.00641003 0.368175 -0.480718 0.795837 1 
0.139423 0.240099 -0.00672472 0.357392 -0.4824 0.799726 1 
0.139636 0.240963 -0.00639637 0.363893 -0.482519 0.796717 1 
0.139963 0.240815 -0.00643103 0.359984 -0.471979 0.804765 1 
0.140331 0.241232 -0.00676303 0.440486 -0.446988 0.778572 1 
0.140629 0.241283 -0.00706083 0.464634 -0.435288 0.771129 1 
0.14072 0.241172 -0.00688888 0.454451 -0.44142 0.773707 1 
0.140531 0.241681 -0.00652026 0.462534 -0.420338 0.780627 1 
0.140772 0.241665 -0.00648296 0.478889 -0.407462 0.777586 1 
0.14151 0.241585 -0.00727041 0.477014 -0.367799 0.798236 1 
0.14123 0.24129 -0.00719723 0.472815 -0.39213 0.789101 1 
0.141567 0.241419 -0.0071748 0.477014 -0.367799 0.798236 1 
0.14246 0.242369 -0.00772946 0.377143 -0.117425 0.918681 1 
0.142545 0.242237 -0.00780143 0.37296 -0.126169 0.919229 1 
0.141732 0.241929 -0.00722378 0.491531 -0.353838 0.795736 1 
0.142304 0.242136 -0.00762337 0.445754 -0.226629 0.865993 1 
0.142125 0.242008 -0.00732114 0.465344 -0.259549 0.84622 1 
0.142418 0.241804 -0.00743214 0.445754 -0.226629 0.865993 1 
0.141865 0.241353 -0.00725726 0.472411 -0.348343 0.80962 1 
0.141818 0.24168 -0.00708037 0.491531 -0.353838 0.795736 1 
0.142111 0.241592 -0.00740676 0.462614 -0.283138 0.840132 1 
0.14229 0.241604 -0.0074936 0.449234 -0.251267 0.857353 1 
0.142238 0.242025 -0.00777604 0.413388 -0.194278 0.889588 1 
0.142598 0.241816 -0.00751897 0.411705 -0.187668 0.891785 1 
0.142716 0.241972 -0.00794534 0.318155 -0.0884497 0.943904 1 
0.142844 0.242171 -0.00788388 0.299927 -0.044293 0.952933 1 
0.143071 0.24174 -0.00793221 0.213591 0.00350149 0.976917 1 
0.142854 0.241418 -0.00773492 0.305829 -0.101943 0.946613 1 
0.142627 0.241732 -0.00747116 0.411705 -0.187668 0.891785 1 
0.142801 0.241722 -0.00780193 0.308616 -0.090615 0.946861 1 
0.14308 0.242017 -0.00787511 0.15034 0.054775 0.987116 1 
0.143128 0.241691 -0.00805204 0.125076 0.0608168 0.990281 1 
0.140108 0.23941 -0.00770267 0.340597 -0.497303 0.797924 1 
0.140761 0.240027 -0.00764853 0.395231 -0.436835 0.808064 1 
0.140941 0.240039 -0.00773536 0.402205 -0.434253 0.806012 1 
0.141239 0.239973 -0.00781784 0.41942 -0.41942 0.805093 1 
0.139734 0.239088 -0.00783002 0.371687 -0.487537 0.790036 1 
0.140036 0.239161 -0.00788393 0.366234 -0.49853 0.78571 1 
0.140547 0.23928 -0.00819228 0.347666 -0.495063 0.796267 1 
0.140544 0.239705 -0.0074512 0.367416 -0.473309 0.800615 1 
0.140927 0.239624 -0.00782099 0.362765 -0.471434 0.803835 1 
0.141509 0.239991 -0.0079481 0.423064 -0.394328 0.815796 1 
0.140605 0.240591 -0.00720356 0.428924 -0.435399 0.791487 1 
0.140781 0.240464 -0.00731897 0.428924 -0.435399 0.791487 1 
0.140336 0.240573 -0.00707329 0.409129 -0.460876 0.787532 1 
0.140795 0.240879 -0.00723334 0.45242 -0.426475 0.783221 1 
0.140591 0.240175 -0.00728921 0.404959 -0.456588 0.792171 1 
0.141055 0.24062 -0.00742069 0.45399 -0.411984 0.79004 1 
0.141377 0.240333 -0.0074839 0.436205 -0.385075 0.813291 1 
0.140175 0.240999 -0.00665691 0.455598 -0.442535 0.772394 1 
0.142319 0.240724 -0.00778468 0.398849 -0.266401 0.877468 1 
0.142106 0.24054 -0.0075588 0.437851 -0.337412 0.83333 1 
0.142376 0.240558 -0.00768906 0.398849 -0.266401 0.877468 1 
0.142522 0.240631 -0.00806763 0.339682 -0.197556 0.919558 1 
0.143071 0.240826 -0.00805572 0.222977 -0.0499565 0.973543 1 
0.141884 0.240993 -0.00726655 0.460654 -0.343511 0.818412 1 
0.142163 0.241288 -0.00733975 0.458979 -0.282805 0.842235 1 
0.142366 0.241195 -0.0076227 0.426033 -0.242372 0.871637 1 
0.142153 0.241011 -0.00739682 0.447293 -0.307027 0.840038 1 
0.141936 0.240689 -0.0071995 0.447922 -0.352956 0.821454 1 
0.140447 0.24329 -0.00555523 0.413777 -0.505364 0.757229 1 
0.139983 0.242846 -0.00542377 0.0459297 -0.533063 0.844828 1 
0.140253 0.242863 -0.00555402 0.437236 -0.473263 0.764753 1 
0.140361 0.241829 -0.00616097 0.44921 -0.429749 0.783279 1 
0.13984 0.242347 -0.00578625 0.45023 -0.466602 0.761298 1 
0.139955 0.242015 -0.00559503 0.41703 -0.465711 0.780512 1 
0.14011 0.242365 -0.00591649 0.493836 -0.434773 0.753059 1 
0.14048 0.242549 -0.00581773 0.45962 -0.453077 0.763852 1 
0.140277 0.243439 -0.00519592 0.382137 -0.512226 0.769152 1 
0.140599 0.243152 -0.00525913 0.414461 -0.502923 0.758479 1 
0.140455 0.24209 -0.0063912 0.467437 -0.421834 0.776891 1 
0.143085 0.243069 -0.00772312 0.215698 0.0297926 0.976005 1 
0.142901 0.242919 -0.00766484 0.182889 0.0585724 0.981387 1 
0.142673 0.242553 -0.00795533 0.304785 -0.028848 0.951984 1 
0.143066 0.242515 -0.0078373 0.182889 0.0585724 0.981387 1 
0.142886 0.242504 -0.00775048 0.285858 -0.0134954 0.958177 1 
0.143648 0.243796 -0.00784091 0.0120929 0.11983 0.992721 1 
0.1437 0.243608 -0.00798924 0.0324965 0.124383 0.991702 1 
0.143767 0.243602 -0.00762117 0.126706 0.0732335 0.989233 1 
0.143951 0.243869 -0.00789486 -0.0490101 0.128794 0.99046 1 
0.14388 0.24362 -0.00807609 0.0120929 0.11983 0.992721 1 
0.143383 0.243004 -0.00780559 0.188621 0.043893 0.981068 1 
0.143752 0.243304 -0.00792217 0.17855 0.0508454 0.982616 1 
0.143691 0.243215 -0.00783093 0.17855 0.0508454 0.982616 1 
0.143095 0.242432 -0.0077895 0.182889 0.0585724 0.981387 1 
0.143369 0.242588 -0.00789122 0.182889 0.0585724 0.981387 1 
0.143739 0.242772 -0.00779242 0.188621 0.043893 0.981068 1 
0.143734 0.242633 -0.00782097 0.16391 0.0601397 0.98464 1 
0.143951 0.242956 -0.00801831 0.17855 0.0508454 0.982616 1 
0.143393 0.24328 -0.00774848 0.206037 0.0518106 0.977172 1 
0.143421 0.242284 -0.00782414 0.182889 0.0585724 0.981387 1 
0.117392 0.250928 0.00117978 0.3758 -0.223726 0.899289 1 
0.118001 0.250648 0.000330858 0.240571 -0.224075 0.944413 1 
0.118058 0.250482 0.000426441 0.238437 -0.189942 0.952402 1 
0.117776 0.249699 0.00111723 0.289423 -0.156261 0.944361 1 
0.118209 0.248983 -0.00038588 0.209162 -0.177591 0.96162 1 
0.11812 0.250571 0.000335254 0.233578 -0.198474 0.951866 1 
0.118181 0.250544 0.000459418 0.238437 -0.189942 0.952402 1 
0.118413 0.250251 0.000439607 0.19685 -0.19685 0.960469 1 
0.118418 0.250506 0.000252776 0.202643 -0.192047 0.960236 1 
0.118773 0.250274 0.000265926 0.191276 -0.196552 0.961655 1 
0.11831 0.250627 0.000736259 0.233578 -0.198474 0.951866 1 
0.118333 0.250405 0.000755507 0.182485 -0.222446 0.957715 1 
0.118613 0.250583 0.000897702 0.182485 -0.222446 0.957715 1 
0.118687 0.24961 -9.38773e-007 0.169407 -0.211431 0.9626 1 
0.118678 0.249333 -5.80251e-005 0.162093 -0.225349 0.960699 1 
0.118508 0.249481 0.000301272 0.185243 -0.195753 0.962998 1 
0.118806 0.249416 0.000218801 0.162093 -0.225349 0.960699 1 
0.118901 0.249677 -1.14739e-005 0.162093 -0.225349 0.960699 1 
0.118914 0.249295 -0.00026466 0.151625 -0.241282 0.958537 1 
0.119184 0.249196 -0.000179544 0.0452254 -0.339837 0.939396 1 
0.119384 0.249645 6.31735e-005 0.0481417 -0.350003 0.935511 1 
0.119412 0.249562 0.000110969 0.0349356 -0.358413 0.932909 1 
0.11856 0.25009 0.000491798 0.19685 -0.19685 0.960469 1 
0.118802 0.250191 0.000313714 0.191276 -0.196552 0.961655 1 
0.11884 0.250268 0.000634022 0.191276 -0.196552 0.961655 1 
0.118438 0.249796 0.000889625 0.222186 -0.164339 0.961055 1 
0.119006 0.249748 0.000676923 0.15943 -0.227945 0.960533 1 
0.118954 0.249936 0.000825245 0.161464 -0.219224 0.962222 1 
0.118981 0.250203 0.00022687 0.15943 -0.227945 0.960533 1 
0.119241 0.249944 3.95402e-005 0.0742166 -0.313793 0.946587 1 
0.11954 0.249878 -4.29451e-005 -0.00128341 -0.391439 0.920203 1 
0.119522 0.249888 0.000612512 0.0090598 -0.397337 0.917628 1 
0.119744 0.249552 0.000104867 0.0193896 -0.381328 0.924236 1 
0.11987 0.245766 -0.00152794 0.0298979 -0.11184 0.993276 1 
0.1205 0.246488 -0.00127762 0.304553 -0.203503 0.930502 1 
0.120239 0.24595 -0.00142917 0.00790972 -0.163844 0.986455 1 
0.120462 0.246294 -0.00138255 0.189851 -0.260874 0.946521 1 
0.120855 0.246256 -0.0012645 0.227253 -0.260713 0.938288 1 
0.120784 0.246007 -0.0014458 0.0785851 -0.287286 0.954616 1 
0.120803 0.245647 -0.00145508 0.0576051 -0.303387 0.951125 1 
0.12132 0.245321 -0.000657916 0.066727 -0.260613 0.963135 1 
0.118664 0.248918 -0.000143655 0.152532 -0.220324 0.963427 1 
0.119554 0.248466 -0.000204243 0.0490475 -0.385752 0.921298 1 
0.118376 0.24891 0.000642002 0.182975 -0.201405 0.962266 1 
0.119119 0.248852 9.85041e-005 0.0633766 -0.311709 0.948062 1 
0.119299 0.248864 1.16602e-005 0.0321564 -0.346003 0.937682 1 
0.119568 0.248881 -0.000118598 0.0298247 -0.366974 0.929753 1 
0.11928 0.249224 2.09436e-005 0.0452254 -0.339837 0.939396 1 
0.119582 0.249297 -3.29763e-005 0.0142456 -0.389812 0.920784 1 
0.119649 0.249407 0.000119738 0.0193896 -0.381328 0.924236 1 
0.119356 0.248698 0.000107266 0.0321564 -0.346003 0.937682 1 
0.119711 0.248466 0.000120416 0.0302488 -0.398496 0.916671 1 
0.119658 0.248887 -0.00016202 0.0169214 -0.397002 0.917661 1 
0.119904 0.24901 -9.61721e-005 0.0169938 -0.411772 0.911128 1 
0.120004 0.249176 0.000132866 0.0169938 -0.411772 0.911128 1 
0.120174 0.249027 -0.000226431 0.00914488 -0.424583 0.905343 1 
0.120544 0.249211 -0.000127666 0.0172282 -0.441307 0.897191 1 
0.119715 0.248721 -6.64145e-005 0.0196232 -0.404239 0.914443 1 
0.119923 0.24865 -0.000105463 0.0169938 -0.411772 0.911128 1 
0.120051 0.248849 -4.39808e-005 0.00652395 -0.421447 0.906829 1 
0.119947 0.248428 -8.62107e-005 0.0250115 -0.414665 0.90963 1 
0.120037 0.248434 -0.000129618 0.0277088 -0.415631 0.909111 1 
0.12026 0.248778 -8.30293e-005 0.011872 -0.444542 0.895679 1 
0.12035 0.248784 -0.000126451 0.0118716 -0.43925 0.898286 1 
0.120359 0.248944 0.000146009 0.0145441 -0.445579 0.895124 1 
0.120713 0.249063 -0.000486955 0.0226885 -0.449766 0.892858 1 
0.120529 0.248796 -0.000213295 0.0280567 -0.447572 0.893808 1 
0.120899 0.248979 -0.000114508 0.0280231 -0.444367 0.895406 1 
0.120889 0.248819 -0.000386998 0.0307244 -0.436821 0.899023 1 
0.121102 0.248886 -0.000397481 0.030726 -0.442187 0.896397 1 
0.119801 0.249386 0.000200458 0.0193896 -0.381328 0.924236 1 
0.120018 0.249591 0.000218503 0.00906253 -0.402635 0.915316 1 
0.120307 0.249249 7.89389e-005 0.00914338 -0.419289 0.907807 1 
0.121292 0.249058 -0.000211857 0.0254449 -0.459347 0.887892 1 
0.120369 0.248424 -0.000135742 0.0333102 -0.430367 0.902039 1 
0.120705 0.248552 -0.000113301 0.0360128 -0.428153 0.902989 1 
0.120885 0.248564 -0.000200137 0.0386642 -0.417307 0.907943 1 
0.121088 0.248471 -0.00048314 0.0410515 -0.401245 0.91505 1 
0.121074 0.248736 -1.45361e-005 0.0224977 -0.432751 0.901233 1 
0.121601 0.24892 0.000408925 0.0333519 -0.433574 0.9005 1 
0.121473 0.24872 0.000347435 0.0333519 -0.433574 0.9005 1 
0.120869 0.246672 -0.00117889 0.0384591 -0.404484 0.913736 1 
0.120993 0.245469 -0.000623286 0.0576051 -0.303387 0.951125 1 
0.121458 0.245564 -0.000108629 0.0621666 -0.280384 0.957873 1 
0.121158 0.246329 -0.00131842 0.0808235 -0.340519 0.936758 1 
0.12111 0.245859 -0.00148045 0.0674786 -0.27628 0.958705 1 
0.121072 0.245665 -0.00158533 0.0672436 -0.270243 0.960441 1 
0.121413 0.245932 -0.00153433 0.173787 -0.351812 0.919797 1 
0.122142 0.246139 -0.00160924 0.141851 -0.340167 0.929605 1 
0.12218 0.245419 -0.00162784 0.145387 -0.347544 0.926324 1 
0.122133 0.245745 -0.00145097 0.145154 -0.344221 0.9276 1 
0.12236 0.245431 -0.00171468 0.145387 -0.347544 0.926324 1 
0.123627 0.246023 -0.00269624 0.388636 -0.173524 0.904904 1 
0.123713 0.245774 -0.00255285 0.28624 -0.358175 0.888694 1 
0.123642 0.245408 -0.00251871 0.283172 -0.420931 0.86176 1 
0.121802 0.245522 -0.00101409 0.169213 -0.334231 0.927177 1 
0.122166 0.245004 -0.00171346 0.168495 -0.330028 0.928812 1 
0.122446 0.245181 -0.00157128 0.147999 -0.341642 0.928104 1 
0.122748 0.245371 -0.00184058 0.205496 -0.386216 0.899227 1 
0.122961 0.245438 -0.00185105 0.252085 -0.361175 0.897778 1 
0.122805 0.245205 -0.00174496 0.230378 -0.371246 0.899501 1 
0.123018 0.245272 -0.00175542 0.252085 -0.361175 0.897778 1 
0.123118 0.245555 -0.00174177 0.265033 -0.356833 0.895783 1 
0.123288 0.24529 -0.00188571 0.278331 -0.377627 0.883136 1 
0.124526 0.245168 -0.00325395 0.216562 -0.640337 0.736933 1 
0.121528 0.248904 -0.00020308 0.0362353 -0.438849 0.89783 1 
0.121424 0.248599 -0.000460692 0.0492027 -0.397611 0.916234 1 
0.12202 0.248468 -0.000625618 0.0861554 -0.400691 0.912153 1 
0.121614 0.248771 -0.000275068 0.0494708 -0.410474 0.910529 1 
0.121836 0.248202 -0.000351921 0.0995076 -0.372131 0.922831 1 
0.122034 0.24797 -0.000663452 -0.166301 -0.55284 0.816525 1 
0.122124 0.247976 -0.000706866 0.171068 -0.324056 0.930443 1 
0.122409 0.248292 -0.000536144 0.114627 -0.385314 0.915638 1 
0.122745 0.24842 -0.000513688 0.0662441 -0.409632 0.909842 1 
0.12195 0.248783 -3.72604e-005 0.0581096 -0.417579 0.906781 1 
0.122096 0.248856 -0.000415817 0.0666739 -0.420454 0.904861 1 
0.121813 0.249103 0.000183068 0.0307244 -0.436821 0.899023 1 
0.122093 0.249281 0.000325255 0.0390094 -0.439865 0.897216 1 
0.122489 0.248818 -0.000297807 0.0886191 -0.394014 0.914822 1 
0.122679 0.24899 -0.000112131 0.0675193 -0.453344 0.888775 1 
0.122859 0.249002 -0.000198998 0.0732691 -0.457586 0.886141 1 
0.122943 0.248189 -0.000825197 -0.0224092 -0.417866 0.908232 1 
0.123062 0.248909 -0.000481963 -0.0147096 -0.477394 0.878566 1 
0.121698 0.247045 -0.0010247 0.115329 -0.343273 0.932128 1 
0.121494 0.246458 -0.001296 0.265628 -0.262788 0.927569 1 
0.121797 0.246531 -0.00134993 0.240788 -0.29493 0.924682 1 
0.12157 0.246845 -0.00108622 0.109691 -0.342615 0.93305 1 
0.122176 0.246991 -0.00119404 0.131279 -0.357909 0.924482 1 
0.122266 0.246997 -0.00123747 0.155584 -0.357424 0.920892 1 
0.122133 0.246659 -0.0013275 0.141983 -0.337727 0.930473 1 
0.122256 0.24672 -0.00129457 0.0407102 -0.382151 0.923203 1 
0.122592 0.246848 -0.00127211 0.0681096 -0.3726 0.925489 1 
0.121584 0.24726 -0.00100056 0.11265 -0.343379 0.932417 1 
0.122025 0.247693 -0.000720516 -0.165895 -0.542522 0.823498 1 
0.12228 0.247412 -0.00115183 0.128434 -0.360444 0.923897 1 
0.122223 0.247462 -0.00103208 0.107754 -0.361455 0.926142 1 
0.122649 0.247596 -0.00105304 0.108138 -0.373693 0.921227 1 
0.121726 0.246281 -0.00153117 0.160435 -0.344587 0.924944 1 
0.121873 0.246121 -0.00147896 0.141851 -0.340167 0.929605 1 
0.122389 0.246261 -0.00154339 0.149097 -0.352538 0.923844 1 
0.12211 0.245733 -0.00103945 0.149097 -0.352538 0.923844 1 
0.122224 0.246315 -0.000724755 0.113364 -0.356482 0.927399 1 
0.122929 0.245946 -0.00115778 0.173336 -0.3509 0.920231 1 
0.122522 0.246249 -0.000807226 0.15358 -0.33068 0.931163 1 
0.12299 0.247182 -0.00155631 0.166723 -0.346055 0.923282 1 
0.122848 0.247248 -0.00114918 0.153247 -0.372572 0.915262 1 
0.122796 0.245842 -0.00167857 0.212678 -0.363144 0.907136 1 
0.123037 0.245942 -0.00185663 0.238316 -0.352356 0.905014 1 
0.123658 0.246154 -0.0012327 0.301458 -0.319278 0.898434 1 
0.12369 0.246559 -0.00180247 0.368226 -0.252878 0.894686 1 
0.123785 0.246587 -0.00160195 0.28203 -0.326328 0.902202 1 
0.123459 0.246618 -0.00135194 0.287506 -0.316994 0.903801 1 
0.123706 0.246624 -0.00107072 0.320781 -0.273909 0.906683 1 
0.12405 0.246349 -0.00154543 0.308483 -0.320405 0.895644 1 
0.122664 0.247894 -0.000752017 0.01166 -0.395143 0.918546 1 
0.122821 0.248011 -0.000642724 0.01166 -0.395143 0.918546 1 
0.122732 0.246742 -7.6659e-005 0.161369 -0.352205 0.921907 1 
0.122277 0.249548 5.15804e-005 0.0398296 -0.506798 0.861144 1 
0.122107 0.249696 0.000410877 0.0313753 -0.503368 0.863502 1 
0.122448 0.249963 0.000461876 0.0317378 -0.536784 0.843123 1 
0.122486 0.24936 0.000227928 0.0310181 -0.462574 0.886038 1 
0.122049 0.245644 -0.000948213 0.14631 -0.360898 0.921057 1 
0.122499 0.245557 -0.000949986 0.157309 -0.343851 0.925754 1 
0.122588 0.24568 -0.00120877 0.160175 -0.341242 0.926228 1 
0.122835 0.245685 -0.00092753 0.160175 -0.341242 0.926228 1 
0.123677 0.245794 -0.00124196 0.293952 -0.338716 0.893792 1 
0.124369 0.246487 -0.000867553 0.318991 -0.304155 0.897627 1 
0.124732 0.245289 -0.00212117 0.244269 -0.115026 0.962861 1 
0.124888 0.245405 -0.00201188 0.232116 -0.133564 0.963474 1 
0.120504 0.239942 -0.00491638 -0.2872 -0.694736 0.659438 1 
0.123168 0.239946 -0.00608005 0.705621 -0.680916 0.196092 1 
0.124029 0.239694 -0.00640377 0.263773 -0.925344 -0.272328 1 
0.118839 0.242107 -0.00392639 0.162485 -0.0502651 0.98543 1 
0.1189 0.241282 -0.00414106 0.350699 -0.0401169 0.935629 1 
0.118626 0.241923 -0.00370049 0.162485 -0.0502651 0.98543 1 
0.118896 0.24194 -0.00383077 0.275483 -0.0183655 0.96113 1 
0.119076 0.241719 -0.00348683 0.0286089 -0.154488 0.98758 1 
0.119133 0.241553 -0.00339127 0.098298 -0.202817 0.97427 1 
0.119194 0.241875 -0.00391325 0.098298 -0.202817 0.97427 1 
0.119549 0.241643 -0.00390008 -0.267449 -0.483881 0.833265 1 
0.119346 0.241736 -0.00361711 -0.267449 -0.483881 0.833265 1 
0.119403 0.24157 -0.00352149 -0.267449 -0.483881 0.833265 1 
0.119673 0.241588 -0.00365178 -0.409244 -0.588185 0.697537 1 
0.118821 0.240289 -0.0035179 0.098298 -0.202817 0.97427 1 
0.119582 0.240902 -0.0041626 -0.374352 -0.507239 0.776254 1 
0.119578 0.240647 -0.00397574 -0.416243 -0.534699 0.735417 1 
0.119606 0.240564 -0.00392795 -0.406263 -0.494368 0.768473 1 
0.119555 0.241548 -0.00344077 -0.452792 -0.35429 0.818204 1 
0.119489 0.241321 -0.00337808 -0.0980535 0.639543 0.762476 1 
0.119758 0.241339 -0.00350835 -0.0125265 0.705658 0.708442 1 
0.119904 0.241412 -0.00388692 -0.0125265 0.705658 0.708442 1 
0.12009 0.241329 -0.00351444 -0.0725179 0.831823 0.550283 1 
0.119777 0.240979 -0.00351766 -0.0210005 0.749018 0.662216 1 
0.120047 0.240996 -0.00364793 -0.0499501 0.663623 0.746398 1 
0.119053 0.240113 -0.00375306 0.098298 -0.202817 0.97427 1 
0.119214 0.240368 -0.00361525 -0.11839 -0.29398 0.948451 1 
0.119692 0.240314 -0.00378452 -0.454248 -0.800953 0.390043 1 
0.11999 0.240249 -0.00386699 -0.408446 -0.696178 0.590346 1 
0.119493 0.240546 -0.00347303 -0.0125265 0.705658 0.708442 1 
0.120146 0.241512 -0.004065 0.0181997 0.70699 0.70699 1 
0.120732 0.240308 -0.00462588 -0.325066 -0.722908 0.609701 1 
0.120221 0.241103 -0.00419408 -0.348866 -0.810835 0.469934 1 
0.120174 0.241429 -0.00401719 -0.3657 -0.683843 0.631366 1 
0.12026 0.24118 -0.00387377 -0.38294 -0.721506 0.576876 1 
0.120543 0.240816 -0.00425727 -0.3397 -0.713533 0.61276 1 
0.120407 0.24102 -0.00382163 -0.360365 -0.802412 0.475681 1 
0.120345 0.240931 -0.00373037 -0.370542 -0.745981 0.553364 1 
0.120492 0.240771 -0.00367821 -0.357508 -0.765165 0.535454 1 
