0.12236 0.24594 -0.0344316 -0.18361 0.121157 -0.975504 1 
0.121491 0.24603 -0.0342147 -0.262336 0.133145 -0.955747 1 
0.121346 0.245895 -0.034189 -0.270633 0.125416 -0.954478 1 
0.121135 0.245667 -0.0342463 -0.29338 0.129945 -0.947123 1 
0.122859 0.24584 -0.0344672 -0.215398 0.102031 -0.971181 1 
0.122572 0.245707 -0.0344533 -0.20575 0.0960166 -0.973883 1 
0.122128 0.24533 -0.03428 -0.190593 0.110868 -0.975388 1 
0.121801 0.246083 -0.0345167 -0.220663 0.118622 -0.96811 1 
0.121573 0.245608 -0.0344027 -0.216133 0.12661 -0.96812 1 
0.120917 0.245465 -0.0342077 -0.309568 0.14592 -0.939614 1 
0.121278 0.246726 -0.0341139 -0.292033 0.109678 -0.950099 1 
0.121208 0.246495 -0.0341593 -0.292033 0.109678 -0.950099 1 
0.121496 0.246928 -0.0341525 -0.25913 0.101847 -0.960458 1 
0.12098 0.246783 -0.0339456 -0.319512 0.0967817 -0.942627 1 
0.121505 0.246439 -0.0343276 -0.259704 0.104657 -0.96 1 
0.120914 0.246389 -0.0340494 -0.322381 0.108352 -0.940389 1 
0.120787 0.246038 -0.0342741 -0.321966 0.143857 -0.935758 1 
0.121358 0.247528 -0.0341229 -0.302794 0.0766731 -0.949967 1 
0.119839 0.245625 -0.0340274 -0.358161 0.271964 -0.893172 1 
0.120073 0.245773 -0.0342581 -0.355507 0.189889 -0.915181 1 
0.119854 0.245571 -0.0342194 -0.358161 0.271964 -0.893172 1 
0.119757 0.245285 -0.0339392 -0.353434 0.368868 -0.859663 1 
0.119188 0.245155 -0.033949 -0.325869 0.540974 -0.775343 1 
0.119995 0.246331 -0.0341078 -0.369126 0.162642 -0.915037 1 
0.119625 0.246321 -0.0339266 -0.401574 0.216232 -0.889934 1 
0.119543 0.245981 -0.0338384 -0.393844 0.276143 -0.876717 1 
0.119777 0.246129 -0.0340691 -0.372064 0.207024 -0.904826 1 
0.120087 0.246182 -0.0343711 -0.353707 0.167694 -0.920201 1 
0.119831 0.24946 -0.0334323 -0.237306 0.0504121 -0.970126 1 
0.120423 0.249509 -0.0337105 0.0773562 0.259968 -0.962514 1 
0.120205 0.249307 -0.0336719 -0.274984 0.0646275 -0.959274 1 
0.120714 0.248255 -0.0339618 -0.306163 0.0932943 -0.947397 1 
0.120847 0.249042 -0.033754 -0.283451 0.0597408 -0.957124 1 
0.120878 0.248935 -0.0341381 -0.261721 0.0855381 -0.961346 1 
0.120629 0.24884 -0.0337153 -0.33517 0.0504696 -0.940805 1 
0.120206 0.248845 -0.0337509 -0.305472 0.0657346 -0.949929 1 
0.119845 0.249868 -0.0335453 -0.206927 0.069792 -0.975864 1 
0.119718 0.249517 -0.0337699 -0.240741 0.0530865 -0.969137 1 
0.120545 0.248201 -0.0336479 -0.330049 0.0888083 -0.939777 1 
0.118034 0.246644 -0.032688 -0.365394 0.594789 -0.71604 1 
0.118256 0.246683 -0.0327851 -0.34819 0.629358 -0.694746 1 
0.118677 0.246379 -0.0327702 -0.409696 0.501102 -0.762263 1 
0.118338 0.246261 -0.0329731 -0.34819 0.629358 -0.694746 1 
0.118483 0.246396 -0.0329988 -0.398002 0.525756 -0.751782 1 
0.117218 0.246719 -0.0322544 -0.233458 0.747378 -0.622032 1 
0.117289 0.246487 -0.032288 -0.251004 0.740382 -0.623563 1 
0.117173 0.246707 -0.0325672 -0.304527 0.668671 -0.678338 1 
0.116931 0.246586 -0.0322405 -0.184917 0.777874 -0.600598 1 
0.117143 0.246352 -0.0322622 -0.233458 0.747378 -0.622032 1 
0.117823 0.246415 -0.0327454 -0.34347 0.616944 -0.708102 1 
0.11738 0.246338 -0.0325513 -0.340088 0.626479 -0.70133 1 
0.117461 0.246378 -0.0326602 -0.340088 0.626479 -0.70133 1 
0.118345 0.246235 -0.0330691 -0.34819 0.629358 -0.694746 1 
0.118051 0.246128 -0.0329592 -0.34819 0.629358 -0.694746 1 
0.117628 0.246133 -0.0329948 -0.34347 0.616944 -0.708102 1 
0.117704 0.246037 -0.033066 -0.336659 0.635912 -0.694461 1 
0.117394 0.245985 -0.0327641 -0.340088 0.626479 -0.70133 1 
0.117672 0.246607 -0.0326029 -0.365288 0.614273 -0.699452 1 
0.118143 0.245979 -0.0332225 -0.34819 0.629358 -0.694746 1 
0.134807 0.268853 -0.0275293 -0.364125 0.324513 -0.872986 1 
0.13456 0.267834 -0.0272647 -0.254943 0.414848 -0.873444 1 
0.134576 0.26778 -0.0274568 -0.271104 0.445714 -0.853136 1 
0.135083 0.267943 -0.0283983 -0.329259 0.429129 -0.841093 1 
0.135308 0.266305 -0.0279227 -0.252784 0.467267 -0.847208 1 
0.134495 0.26774 -0.0273479 -0.267225 0.441303 -0.856646 1 
0.134435 0.267782 -0.0274687 -0.271104 0.445714 -0.853136 1 
0.134381 0.267498 -0.0277062 -0.231478 0.464468 -0.854803 1 
0.134284 0.267511 -0.0274052 -0.241964 0.461101 -0.853721 1 
0.134089 0.267228 -0.0276546 -0.231749 0.468043 -0.852777 1 
0.134238 0.267962 -0.0276389 -0.267225 0.441303 -0.856646 1 
0.134322 0.267839 -0.0278063 -0.207511 0.452344 -0.867366 1 
0.133972 0.267911 -0.0278547 -0.207511 0.452344 -0.867366 1 
0.134529 0.266708 -0.0278901 -0.204587 0.464428 -0.861656 1 
0.134681 0.266516 -0.0280327 -0.19138 0.458421 -0.867885 1 
0.134695 0.266925 -0.0281456 -0.221656 0.468947 -0.854961 1 
0.134485 0.266696 -0.028203 -0.19138 0.458421 -0.867885 1 
0.134316 0.266642 -0.0278891 -0.19138 0.458421 -0.867885 1 
0.134531 0.266246 -0.0279693 -0.17474 0.459609 -0.870761 1 
0.134333 0.266126 -0.0281603 -0.0279877 0.435808 -0.899604 1 
0.133904 0.266457 -0.0280792 -0.0278511 0.428376 -0.903171 1 
0.133912 0.26643 -0.0281751 -0.0144379 0.426574 -0.904337 1 
0.134323 0.267377 -0.0278853 -0.231478 0.464468 -0.854803 1 
0.134097 0.267202 -0.0277506 -0.231749 0.468043 -0.852777 1 
0.133973 0.267449 -0.0279338 -0.231749 0.468043 -0.852777 1 
0.134505 0.267541 -0.0283328 -0.269814 0.470248 -0.840278 1 
0.134076 0.26711 -0.0283516 -0.184891 0.465926 -0.865291 1 
0.134005 0.267342 -0.0283179 -0.18871 0.468061 -0.863312 1 
0.133952 0.267067 -0.0277248 -0.184891 0.465926 -0.865291 1 
0.133885 0.266674 -0.0278287 -0.0701777 0.444459 -0.893046 1 
0.133674 0.266445 -0.0278861 0.0357806 0.41214 -0.910418 1 
0.133576 0.266911 -0.0283366 0.0302578 0.403876 -0.914313 1 
0.133633 0.26627 -0.0282573 0.0143987 0.414943 -0.909733 1 
0.135631 0.262949 -0.0296675 -0.135545 0.612186 -0.77901 1 
0.134699 0.263244 -0.029513 -0.32072 0.38824 -0.863949 1 
0.135208 0.262954 -0.029703 -0.0941856 0.586849 -0.8042 1 
0.134843 0.263079 -0.0295595 -0.191993 0.420626 -0.886686 1 
0.134503 0.262962 -0.0297624 -0.222351 0.396108 -0.890875 1 
0.134716 0.262728 -0.0297841 -0.0911876 0.46155 -0.882415 1 
0.134875 0.26251 -0.0300227 -0.0617236 0.456755 -0.887449 1 
0.134456 0.262642 -0.0309266 -0.0920142 0.488383 -0.867765 1 
0.134909 0.266229 -0.0282464 -0.182201 0.4755 -0.860641 1 
0.134373 0.26553 -0.0287195 -0.0142699 0.398259 -0.917162 1 
0.135028 0.266897 -0.0287357 -0.218786 0.469258 -0.855529 1 
0.134509 0.266154 -0.0285701 -0.0589201 0.453548 -0.889282 1 
0.134364 0.266019 -0.0285443 -0.0172073 0.438124 -0.89875 1 
0.134145 0.265817 -0.0285057 -0.00389598 0.419467 -0.907762 1 
0.134204 0.266237 -0.0283058 -0.0279877 0.435808 -0.899604 1 
0.133918 0.266104 -0.0282919 0.0222918 0.405186 -0.913963 1 
0.133781 0.266242 -0.0283414 0.0143987 0.414943 -0.909733 1 
0.134379 0.265965 -0.0287364 -0.0172073 0.438124 -0.89875 1 
0.134184 0.265683 -0.0289859 0.00902611 0.393281 -0.919374 1 
0.134073 0.26575 -0.0284928 0.0275625 0.402937 -0.914812 1 
0.133791 0.265753 -0.0285165 0.0353929 0.3867 -0.921526 1 
0.133586 0.265959 -0.0285909 0.0353929 0.3867 -0.921526 1 
0.133572 0.265551 -0.0284779 0.0433753 0.379863 -0.924025 1 
0.13315 0.265555 -0.0285135 0.0538362 0.361097 -0.930973 1 
0.134088 0.265696 -0.0286849 0.0275165 0.394403 -0.918526 1 
0.13395 0.265534 -0.0287551 0.0353929 0.3867 -0.921526 1 
0.133734 0.265632 -0.0286957 0.046289 0.38486 -0.921813 1 
0.134034 0.265412 -0.0289224 0.0299674 0.381758 -0.923776 1 
0.133961 0.265345 -0.0289095 0.0246647 0.377759 -0.925575 1 
0.133596 0.26547 -0.028766 0.0567314 0.362817 -0.930132 1 
0.133523 0.265403 -0.0287531 0.0539966 0.36744 -0.928478 1 
0.133391 0.265677 -0.0288402 0.0538362 0.361097 -0.930973 1 
0.133136 0.265147 -0.0284005 0.0483326 0.354003 -0.933994 1 
0.133377 0.265268 -0.0287273 0.040275 0.35468 -0.93412 1 
0.132955 0.265273 -0.0287629 0.040275 0.35468 -0.93412 1 
0.133086 0.264999 -0.0286757 0.0349356 0.358413 -0.932909 1 
0.132872 0.264933 -0.0286747 0.0348835 0.355295 -0.934103 1 
0.133648 0.266217 -0.0284493 0.0143987 0.414943 -0.909733 1 
0.133359 0.266246 -0.028377 0.0329559 0.399425 -0.916173 1 
0.1333 0.265826 -0.0285769 0.0409245 0.389443 -0.920141 1 
0.132595 0.265073 -0.0287361 0.0534288 0.345332 -0.936958 1 
0.133683 0.265185 -0.0289916 0.027128 0.362999 -0.931395 1 
0.133328 0.265121 -0.0290025 0.027128 0.362999 -0.931395 1 
0.133182 0.264986 -0.0289767 0.0141463 0.374234 -0.927226 1 
0.1331 0.264646 -0.0288885 0.00900148 0.387064 -0.922009 1 
0.132905 0.265125 -0.029038 0.0431877 0.370367 -0.927881 1 
0.132294 0.265283 -0.02934 0.0297811 0.363847 -0.930982 1 
0.132511 0.265186 -0.0293994 0.0297811 0.363847 -0.930982 1 
0.134276 0.263249 -0.0295486 0.00900148 0.387064 -0.922009 1 
0.134659 0.262897 -0.0307732 -0.0617236 0.456755 -0.887449 1 
0.134128 0.263095 -0.031184 -0.0768322 0.47636 -0.875887 1 
0.134217 0.262829 -0.0297485 -0.0637339 0.421729 -0.904479 1 
0.134513 0.262472 -0.0299375 -0.085574 0.478373 -0.873977 1 
0.134657 0.262308 -0.029984 -0.0826766 0.480645 -0.873009 1 
0.134226 0.262339 -0.0299236 -0.131149 0.360315 -0.923565 1 
0.133512 0.262075 -0.0299076 -0.1119 0.385435 -0.915925 1 
0.133832 0.261638 -0.0303848 -0.111123 0.374524 -0.920534 1 
0.133684 0.261966 -0.0302799 -0.114579 0.37963 -0.918015 1 
0.133686 0.261504 -0.0303589 -0.111123 0.374524 -0.920534 1 
0.132474 0.260587 -0.0295766 -0.40106 0.348002 -0.847376 1 
0.132498 0.260507 -0.0298647 -0.219857 0.281473 -0.934043 1 
0.13273 0.260356 -0.0301161 -0.185895 0.226016 -0.956222 1 
0.134004 0.262291 -0.0306572 -0.14078 0.369374 -0.918555 1 
0.134059 0.261351 -0.0305985 -0.138527 0.382 -0.913721 1 
0.133709 0.261423 -0.030647 -0.114579 0.37963 -0.918015 1 
0.133403 0.261207 -0.0304035 -0.1395 0.307442 -0.941286 1 
0.133189 0.261142 -0.0304024 -0.190701 0.30206 -0.93402 1 
0.133418 0.261154 -0.0305954 -0.166931 0.307649 -0.936742 1 
0.133204 0.261088 -0.0305945 -0.190701 0.30206 -0.93402 1 
0.13298 0.261212 -0.030439 -0.202954 0.295333 -0.933589 1 
0.132986 0.260886 -0.0305558 -0.20622 0.272653 -0.939752 1 
0.13221 0.259313 -0.0299713 -0.00102645 0.0502959 -0.998734 1 
0.132465 0.264884 -0.0289024 0.0322726 0.357581 -0.933324 1 
0.132746 0.264582 -0.0288993 -0.00641454 0.386156 -0.922411 1 
0.132324 0.264124 -0.0290141 -0.0297811 0.363847 -0.930982 1 
0.132468 0.264721 -0.0289607 0.00382737 0.373806 -0.927499 1 
0.132566 0.264246 -0.0293408 -0.0573155 0.385213 -0.921046 1 
0.13256 0.26381 -0.0293238 0.275577 0.328629 -0.903361 1 
0.132487 0.263743 -0.029311 -0.144905 0.381255 -0.913043 1 
0.132061 0.263911 -0.0292882 -0.0622014 0.361297 -0.930374 1 
0.131707 0.263846 -0.0292991 -0.00893437 0.366309 -0.93045 1 
0.132134 0.26474 -0.0292013 0.00126618 0.365926 -0.930643 1 
0.132036 0.264453 -0.0289211 -0.00126369 0.357624 -0.933865 1 
0.13206 0.265135 -0.0291093 0.0349356 0.358413 -0.932909 1 
0.13171 0.265207 -0.0291578 0.0270077 0.353672 -0.93498 1 
0.131697 0.264336 -0.029124 -0.0352265 0.371835 -0.92763 1 
0.13142 0.264475 -0.0291854 0.0163877 0.329014 -0.944183 1 
0.131275 0.26434 -0.0291596 0.00874878 0.323705 -0.946118 1 
0.1317 0.263411 -0.0292821 0.0660637 0.403123 -0.912758 1 
0.131192 0.264 -0.0290714 0.0982879 0.346027 -0.933062 1 
0.133357 0.263191 -0.029607 -0.0861554 0.400691 -0.912153 1 
0.133862 0.262764 -0.0297594 -0.256718 0.372463 -0.891834 1 
0.133576 0.262631 -0.0297454 -0.218648 0.357656 -0.907896 1 
0.133574 0.263094 -0.0296663 -0.0860608 0.402983 -0.911152 1 
0.133001 0.262827 -0.0296385 -0.0908922 0.378491 -0.921131 1 
0.132928 0.26276 -0.0296256 -0.116419 0.362954 -0.924506 1 
0.133221 0.262567 -0.0297563 -0.112064 0.388765 -0.914496 1 
0.13308 0.262569 -0.0297681 -0.00647337 0.402643 -0.915334 1 
0.132726 0.262504 -0.029779 -0.0354916 0.393036 -0.918838 1 
0.133347 0.263381 -0.0294526 -0.0861554 0.400691 -0.912153 1 
0.132712 0.263619 -0.0294664 0.270039 0.337917 -0.901605 1 
0.132701 0.263047 -0.0294118 -0.0849551 0.373533 -0.923718 1 
0.132706 0.263183 -0.0294495 -0.0739288 0.383086 -0.92075 1 
0.132278 0.263052 -0.0294474 -0.0680417 0.374896 -0.924566 1 
0.133788 0.262398 -0.0297671 -0.125848 0.372012 -0.919657 1 
0.133731 0.262277 -0.0299464 -0.1119 0.385435 -0.915925 1 
0.133231 0.262078 -0.0299314 -0.111237 0.372162 -0.921478 1 
0.133641 0.262254 -0.030572 -0.111237 0.372162 -0.921478 1 
0.133209 0.262748 -0.0304325 -0.0770933 0.388172 -0.918357 1 
0.132855 0.261922 -0.0305431 -0.134546 0.362027 -0.922406 1 
0.132999 0.262519 -0.0304898 -0.126924 0.386352 -0.913577 1 
0.13227 0.262317 -0.0294512 -0.1287 0.369495 -0.920277 1 
0.132292 0.262699 -0.0296602 -0.104467 0.354104 -0.929353 1 
0.133107 0.261564 -0.0302144 -0.156683 0.331392 -0.930392 1 
0.132881 0.261388 -0.0300797 -0.185974 0.317415 -0.929872 1 
0.132141 0.261657 -0.0305272 -0.255498 0.307464 -0.916617 1 
0.132012 0.261478 -0.0298629 -0.341118 0.308058 -0.88811 1 
0.131883 0.261589 -0.0300084 -0.233339 0.313504 -0.920472 1 
0.132106 0.261927 -0.0300847 -0.246708 0.315959 -0.916136 1 
0.131845 0.262013 -0.0303381 -0.295476 0.325172 -0.898308 1 
0.131761 0.261374 -0.0302707 -0.26041 0.294939 -0.919346 1 
0.132071 0.263422 -0.0294634 0.0249726 0.406134 -0.913472 1 
0.131862 0.263492 -0.0295 0.0249726 0.406134 -0.913472 1 
0.132458 0.263206 -0.0307255 -0.119422 0.363757 -0.923807 1 
0.131468 0.265085 -0.0288312 0.062532 0.287137 -0.955846 1 
0.131482 0.265494 -0.028944 0.0709761 0.300681 -0.95108 1 
0.131052 0.265525 -0.0288836 0.0884462 0.265339 -0.96009 1 
0.13135 0.265006 -0.029131 0.0505485 0.338286 -0.939685 1 
0.133722 0.262294 -0.0306809 -0.104953 0.363928 -0.925495 1 
0.133378 0.26204 -0.0308461 -0.117425 0.377143 -0.918681 1 
0.133285 0.26189 -0.0306036 -0.126359 0.376301 -0.91784 1 
0.133024 0.261976 -0.030857 -0.126359 0.376301 -0.91784 1 
0.1323 0.261439 -0.0307658 -0.237047 0.290986 -0.926896 1 
0.131308 0.261776 -0.0307321 -0.27911 0.305414 -0.910396 1 
0.131786 0.26007 -0.0307377 -0.313718 0.48713 -0.815037 1 
0.131577 0.26014 -0.0307743 -0.295554 0.483207 -0.824111 1 
0.138473 0.257035 -0.0313265 0.469656 0.198299 -0.860291 1 
0.136377 0.255028 -0.0311447 -0.306019 -0.571984 -0.761043 1 
0.135813 0.254273 -0.031292 0.268426 -0.830102 -0.488752 1 
0.138689 0.259694 -0.0301767 -0.277694 0.579191 -0.766436 1 
0.139072 0.259052 -0.0305914 -0.435719 0.468358 -0.768629 1 
0.138923 0.259842 -0.0304075 -0.277694 0.579191 -0.766436 1 
0.138705 0.25964 -0.0303687 -0.387088 0.52755 -0.75621 1 
0.1386 0.259671 -0.0308024 -0.112926 0.582227 -0.805145 1 
0.138615 0.259617 -0.0309944 -0.148863 0.514387 -0.844539 1 
0.138494 0.259411 -0.0304261 -0.148863 0.514387 -0.844539 1 
0.138299 0.259129 -0.0306756 0.328833 0.425457 -0.843122 1 
0.138381 0.259469 -0.0307637 0.328833 0.425457 -0.843122 1 
0.138397 0.259415 -0.0309557 0.328833 0.425457 -0.843122 1 
0.138178 0.259213 -0.0309171 0.521469 0.335345 -0.784611 1 
0.139517 0.258958 -0.0316745 -0.148863 0.514387 -0.844539 1 
0.138674 0.258514 -0.0309942 0.437569 0.418193 -0.79602 1 
0.13877 0.258501 -0.0312951 0.492577 0.395037 -0.775444 1 
0.138778 0.258474 -0.0313912 0.462071 0.435947 -0.772296 1 
0.138264 0.25939 -0.0310637 0.425784 0.568265 -0.704118 1 
0.13842 0.259335 -0.0312438 -0.352578 0.931717 -0.087139 1 
0.138202 0.259133 -0.0312052 -0.449737 0.892801 -0.0253561 1 
0.138104 0.258847 -0.030925 -0.449737 0.892801 -0.0253561 1 
0.137923 0.258973 -0.0312873 -0.432909 0.881961 0.186371 1 
0.138361 0.258915 -0.0314437 -0.455997 0.888992 0.0419464 1 
0.138143 0.258713 -0.031405 -0.405042 0.911684 -0.0690875 1 
0.139442 0.258591 -0.0316823 -0.148863 0.514387 -0.844539 1 
0.139157 0.258757 -0.0316477 0.0872523 0.54497 -0.833904 1 
0.138801 0.258394 -0.0316792 0.715236 0.0266984 -0.698373 1 
0.138591 0.258165 -0.0317365 0.58893 0.201436 -0.782678 1 
0.138808 0.258829 -0.0316961 -0.449737 0.892801 -0.0253561 1 
0.137878 0.258671 -0.0307903 -0.474354 0.879785 -0.031083 1 
0.138052 0.257339 -0.0313414 0.526855 0.15583 -0.835548 1 
0.138033 0.258317 -0.0309911 0.615119 0.0237121 -0.788078 1 
0.137886 0.258645 -0.0308863 0.538382 0.216273 -0.814476 1 
0.137909 0.258564 -0.0311743 0.589485 0.161317 -0.791508 1 
0.137906 0.257966 -0.0312158 0.535323 0.175442 -0.826226 1 
0.137852 0.258443 -0.0313534 0.614145 0.0351342 -0.788411 1 
0.137932 0.258484 -0.0314624 0.584768 0.128797 -0.80091 1 
0.137875 0.258363 -0.0316416 0.588055 0.0972832 -0.802949 1 
0.138572 0.25762 -0.0315859 0.529314 0.185486 -0.827902 1 
0.138134 0.257678 -0.0314296 0.58269 0.141574 -0.800268 1 
0.137948 0.25843 -0.0316545 0.588363 0.158 -0.79301 1 
0.137034 0.255934 -0.0312401 0.490735 0.0453621 -0.870127 1 
0.137171 0.25866 -0.0325108 0.526188 0.0898371 -0.845609 1 
0.136612 0.258803 -0.0325959 0.507186 0.0541924 -0.860131 1 
0.135969 0.257255 -0.0319035 0.313934 -0.0162595 -0.949306 1 
0.135562 0.257206 -0.0321312 0.119634 -0.195192 -0.973441 1 
0.135234 0.25766 -0.0323887 0.0214362 -0.143284 -0.989449 1 
0.134147 0.256215 -0.0297826 -0.728661 -0.671804 0.133164 1 
0.131253 0.259679 -0.0303594 -0.294707 0.562334 -0.772611 1 
0.131019 0.25953 -0.0301287 -0.398655 0.656706 -0.640165 1 
0.131329 0.259583 -0.0304306 -0.217716 0.503944 -0.835847 1 
0.133806 0.257131 -0.0323568 -0.0958326 -0.202866 -0.974506 1 
0.133684 0.257677 -0.0325193 -0.0958326 -0.202866 -0.974506 1 
0.133296 0.256659 -0.0322666 -0.105789 -0.328079 -0.938708 1 
0.133338 0.257885 -0.0326054 -0.143336 -0.18139 -0.972909 1 
0.132729 0.256828 -0.0322557 -0.289885 -0.0896952 -0.952849 1 
0.132486 0.256408 -0.0319496 -0.332118 -0.135307 -0.933483 1 
0.131983 0.256372 -0.0318763 -0.382979 -0.138882 -0.913257 1 
0.132059 0.256276 -0.0319477 -0.380341 -0.132353 -0.915327 1 
0.132074 0.256222 -0.0321397 -0.377978 -0.120454 -0.917945 1 
0.132516 0.256763 -0.0322546 -0.315117 -0.131186 -0.939942 1 
0.131829 0.256264 -0.0317546 -0.407139 -0.121722 -0.905219 1 
0.131414 0.257003 -0.0317864 -0.410126 -0.140493 -0.901143 1 
0.131356 0.256583 -0.0319863 -0.405839 -0.137165 -0.903593 1 
0.131356 0.256583 -0.0319863 -0.405839 -0.137165 -0.903593 1 
0.131878 0.256402 -0.03231 -0.377978 -0.120454 -0.917945 1 
0.131772 0.256143 -0.0319337 -0.414837 -0.0895828 -0.905475 1 
0.131583 0.256296 -0.0322001 -0.411285 -0.110141 -0.904828 1 
0.131583 0.256296 -0.0322001 -0.411285 -0.110141 -0.904828 1 
0.131233 0.256368 -0.0322486 -0.428478 -0.123028 -0.895137 1 
0.132507 0.258303 -0.0327896 -0.300306 -0.0819017 -0.95032 1 
0.132145 0.258266 -0.0327045 -0.323187 -0.0745816 -0.943392 1 
0.131926 0.258064 -0.0326658 -0.342082 -0.0320302 -0.939124 1 
0.130553 0.257066 -0.0316655 -0.517957 -0.174643 -0.837389 1 
0.130816 0.258032 -0.0321221 -0.559203 -0.363563 -0.74506 1 
0.130558 0.257964 -0.0316034 -0.508239 -0.0598747 -0.859132 1 
0.129894 0.257847 -0.0313122 -0.346055 0.166723 -0.923282 1 
0.130783 0.25784 -0.0317588 -0.553194 -0.137192 -0.821678 1 
0.130718 0.257746 -0.0318419 -0.429988 0.117013 -0.89522 1 
0.13056 0.257502 -0.0316825 -0.424697 0.0926863 -0.900579 1 
0.131813 0.257831 -0.0321935 -0.411974 0.159335 -0.897156 1 
0.131743 0.257601 -0.0322389 -0.396246 -0.0329108 -0.917554 1 
0.130773 0.256806 -0.0317833 -0.454081 -0.133216 -0.880945 1 
0.131086 0.257457 -0.0320439 -0.500032 -0.183594 -0.846322 1 
0.130924 0.257077 -0.0318467 -0.455479 -0.148934 -0.8777 1 
0.131401 0.256885 -0.0324833 -0.400694 -0.130753 -0.906834 1 
0.131319 0.258068 -0.0321955 -0.330675 0.358104 -0.873164 1 
0.13096 0.257868 -0.0321687 -0.535218 -0.369284 -0.759717 1 
0.130834 0.258577 -0.0322728 -0.506079 -0.014845 -0.862359 1 
0.13127 0.254593 -0.0312295 -0.688902 -0.0499204 -0.723133 1 
0.131059 0.254364 -0.0312868 -0.700712 -0.044061 -0.712082 1 
0.131595 0.254592 -0.0317235 -0.609203 -0.0379872 -0.792104 1 
0.130879 0.253738 -0.0309184 -0.831357 -0.0122861 -0.555603 1 
0.130893 0.254147 -0.0310314 -0.719354 -0.0295625 -0.694015 1 
0.130865 0.25333 -0.0308054 -0.788962 0.0152523 -0.614253 1 
0.130909 0.254093 -0.0312233 -0.734343 -0.0153278 -0.678605 1 
0.130128 0.254669 -0.0303018 -0.872846 -0.264728 0.40995 1 
0.129289 0.256927 -0.0310001 -0.419787 -0.0304578 -0.907111 1 
0.129149 0.256928 -0.0310121 -0.434409 -0.0416925 -0.89975 1 
0.130793 0.254786 -0.0305929 -0.999463 -0.0314552 -0.00913215 1 
0.130839 0.254625 -0.0311691 -0.688302 -0.0617891 -0.722788 1 
0.130838 0.255087 -0.03109 -0.403194 -0.0633783 -0.912917 1 
0.13029 0.255801 -0.0312296 -0.454733 -0.093745 -0.88568 1 
0.130511 0.25584 -0.0313267 -0.475036 -0.0854785 -0.875805 1 
0.130285 0.255665 -0.031192 -0.443065 -0.078675 -0.893031 1 
0.131622 0.25511 -0.0319701 -0.554923 -0.0519801 -0.830276 1 
0.131138 0.254867 -0.0313166 -0.661924 -0.0528967 -0.747702 1 
0.130897 0.255797 -0.0316999 -0.542954 -0.0873883 -0.835203 1 
0.130992 0.256246 -0.0319218 -0.50356 -0.119758 -0.85562 1 
0.131001 0.256519 -0.0319971 -0.468968 -0.156323 -0.869271 1 
0.131365 0.256094 -0.0321614 -0.446052 -0.087543 -0.890715 1 
0.131219 0.255959 -0.0321355 -0.508524 -0.0835735 -0.856983 1 
0.130981 0.255675 -0.0318672 -0.555535 -0.0724611 -0.82833 1 
0.129986 0.254371 -0.0303343 -0.682199 -0.301587 0.666071 1 
0.130288 0.256264 -0.0311505 -0.464851 -0.146261 -0.873225 1 
0.130316 0.257081 -0.0313765 -0.346977 0.0563019 -0.936182 1 
0.12994 0.256635 -0.0311784 -0.52942 -0.178473 -0.829374 1 
0.130544 0.256794 -0.0315902 -0.484905 -0.134615 -0.864145 1 
0.129785 0.256228 -0.0310772 -0.519019 -0.201252 -0.830733 1 
0.129858 0.256295 -0.0310902 -0.519019 -0.201252 -0.830733 1 
0.129886 0.257112 -0.031316 -0.398867 0.0222319 -0.916739 1 
0.130764 0.256534 -0.031708 -0.466512 -0.137209 -0.873808 1 
0.130889 0.260104 -0.0301951 -0.478703 0.802107 -0.357026 1 
0.138132 0.255094 -0.0317497 0.695895 -0.458923 -0.552377 1 
0.138183 0.255831 -0.0322637 0.571313 0.0262832 -0.820311 1 
0.137995 0.255984 -0.0325301 0.553028 0.0178396 -0.832972 1 
0.13747 0.255567 -0.0322478 0.510486 -0.110725 -0.852727 1 
0.137704 0.255715 -0.0324785 0.507824 -0.132413 -0.851224 1 
0.137877 0.255906 -0.03283 0.588951 -0.0207865 -0.807902 1 
0.137117 0.257615 -0.0328482 0.47343 0.106628 -0.874354 1 
0.136921 0.256281 -0.0323875 0.403876 -0.0302578 -0.914313 1 
0.137265 0.255773 -0.032322 0.415717 -0.0749654 -0.906399 1 
0.137134 0.256047 -0.0324092 0.396226 -0.0546978 -0.916522 1 
0.136722 0.255862 -0.0325992 0.191944 -0.205181 -0.959718 1 
0.136847 0.256676 -0.0322955 0.482012 0.0395988 -0.875269 1 
0.136959 0.256609 -0.0327885 0.429405 -0.027918 -0.902681 1 
0.136871 0.256595 -0.0325835 0.437266 -0.00130527 -0.899331 1 
0.136739 0.256869 -0.0326707 0.414926 -0.0170159 -0.909696 1 
0.136682 0.256749 -0.0328499 0.35641 -0.0591825 -0.932453 1 
0.136939 0.255765 -0.0326586 0.227139 -0.176664 -0.957704 1 
0.136949 0.255575 -0.032813 0.122506 -0.270041 -0.955024 1 
0.136584 0.255701 -0.0326695 0.00123331 -0.30956 -0.950879 1 
0.136607 0.25562 -0.0329576 -0.115127 -0.395314 -0.911303 1 
0.136982 0.256529 -0.0330765 0.398582 -0.0493229 -0.915805 1 
0.136282 0.256673 -0.0331736 0.108194 -0.187785 -0.976233 1 
0.136905 0.257848 -0.0328264 0.459905 0.106132 -0.881603 1 
0.136781 0.258096 -0.0330096 0.439466 0.129422 -0.888887 1 
0.136577 0.259064 -0.032984 0.52793 0.00405061 -0.849278 1 
0.136509 0.259133 -0.0330089 0.533509 -0.00950271 -0.845741 1 
0.136473 0.258342 -0.0326869 0.421413 0.0695537 -0.904198 1 
0.135919 0.258621 -0.0328097 0.280737 -0.100543 -0.954504 1 
0.136441 0.25844 -0.0331334 0.371225 -0.0459112 -0.927407 1 
0.136374 0.258047 -0.0332372 0.331307 0.0266569 -0.943146 1 
0.136165 0.258117 -0.0332739 0.184073 -0.0685761 -0.980518 1 
0.135877 0.258446 -0.0331809 0.100321 -0.155921 -0.982662 1 
0.136191 0.258635 -0.0335205 0.154665 -0.134868 -0.978718 1 
0.136307 0.257363 -0.0325313 0.319143 0.0264901 -0.947336 1 
0.13655 0.257023 -0.0329371 0.329014 -0.0163877 -0.944183 1 
0.136273 0.257162 -0.0329985 0.223119 -0.065333 -0.972599 1 
0.13585 0.257167 -0.0330341 0.0600233 -0.161239 -0.985088 1 
0.135973 0.258143 -0.032672 0.297785 -0.00367635 -0.954626 1 
0.135754 0.257941 -0.0326333 0.164626 -0.0651398 -0.984203 1 
0.135681 0.257874 -0.0326204 0.164626 -0.0651398 -0.984203 1 
0.135607 0.257507 -0.0326283 0.0697978 -0.154975 -0.98545 1 
0.135694 0.257983 -0.0327541 0.142656 -0.0766333 -0.986801 1 
0.135723 0.258338 -0.0330591 0.0974999 -0.15287 -0.983425 1 
0.135475 0.257781 -0.0327154 0.0281731 -0.134104 -0.990567 1 
0.135951 0.258051 -0.0332729 0.104581 -0.111631 -0.988231 1 
0.135513 0.25811 -0.0331165 0.054348 -0.139917 -0.988671 1 
0.135363 0.257839 -0.033053 0.0328864 -0.137216 -0.989995 1 
0.135381 0.257332 -0.0324936 0.04819 -0.172779 -0.983781 1 
0.135054 0.257324 -0.0328302 0.0214362 -0.143284 -0.989449 1 
0.134754 0.257544 -0.0326034 0.00571055 -0.181595 -0.983357 1 
0.13528 0.257499 -0.0329648 0.0325596 -0.12687 -0.991385 1 
0.134785 0.257436 -0.0329876 0.0100404 -0.143913 -0.989539 1 
0.135005 0.257176 -0.0331054 0.0122985 -0.144228 -0.989468 1 
0.135999 0.257138 -0.0331183 0.0697978 -0.154975 -0.98545 1 
0.136001 0.256676 -0.0331973 0.0717176 -0.193273 -0.97852 1 
0.134291 0.256911 -0.0330893 -0.052003 -0.21164 -0.975963 1 
0.133781 0.25644 -0.0329991 -0.0928105 -0.245376 -0.964975 1 
0.133805 0.25636 -0.0332872 -0.0894071 -0.232962 -0.968367 1 
0.133594 0.255079 -0.0326345 -0.24447 -0.166988 -0.95517 1 
0.136227 0.259136 -0.0330326 0.352424 -0.101271 -0.930345 1 
0.13625 0.259056 -0.0333207 0.286693 -0.0732803 -0.955216 1 
0.136102 0.259084 -0.0332365 0.252205 -0.161464 -0.954108 1 
0.135728 0.259236 -0.0329969 0.0529421 -0.165885 -0.984723 1 
0.135736 0.25921 -0.033093 0.0529421 -0.165885 -0.984723 1 
0.13551 0.259034 -0.0329582 0.0453903 -0.161776 -0.985783 1 
0.135964 0.258922 -0.0333067 0.154665 -0.134868 -0.978718 1 
0.135609 0.258858 -0.0333177 0.0450577 -0.149037 -0.987804 1 
0.13525 0.258658 -0.0332908 0.0453903 -0.161776 -0.985783 1 
0.134509 0.257875 -0.0330282 -0.00556592 -0.143601 -0.98962 1 
0.134435 0.257508 -0.0330361 -0.00340618 -0.175986 -0.984387 1 
0.134231 0.257715 -0.0331103 -0.0424066 -0.140973 -0.989105 1 
0.134458 0.257428 -0.0333242 -0.0103102 -0.177565 -0.984055 1 
0.134254 0.257345 -0.0325885 -0.058796 -0.188387 -0.980333 1 
0.133749 0.25701 -0.0325359 -0.0826513 -0.258126 -0.962569 1 
0.134127 0.257755 -0.0327133 -0.0540633 -0.195829 -0.979147 1 
0.133922 0.257962 -0.0327876 -0.0428967 -0.241447 -0.969465 1 
0.134134 0.257728 -0.0328093 -0.0507487 -0.17585 -0.983108 1 
0.134362 0.257441 -0.0330232 -0.0170999 -0.165299 -0.986095 1 
0.133867 0.257378 -0.0330458 -0.0751239 -0.213056 -0.974147 1 
0.133954 0.257854 -0.0331718 -0.0453198 -0.156876 -0.986578 1 
0.134173 0.257594 -0.0332895 -0.0497019 -0.144482 -0.988258 1 
0.133823 0.257666 -0.033338 -0.0544424 -0.209301 -0.976335 1 
0.133794 0.257311 -0.033033 -0.0687018 -0.241081 -0.96807 1 
0.133664 0.257123 -0.0331993 -0.0945101 -0.228084 -0.969044 1 
0.13318 0.25688 -0.0325458 -0.183985 -0.165972 -0.968815 1 
0.133439 0.257247 -0.0330439 -0.127255 -0.187733 -0.973942 1 
0.133654 0.257612 -0.0330241 -0.09238 -0.193382 -0.976765 1 
0.133227 0.25748 -0.0330221 -0.136243 -0.168741 -0.976199 1 
0.133216 0.25767 -0.0328677 -0.151282 -0.153782 -0.976455 1 
0.13359 0.257518 -0.0331073 -0.113604 -0.191004 -0.974993 1 
0.132999 0.257767 -0.0328084 -0.208399 -0.114935 -0.971267 1 
0.132713 0.257634 -0.0327944 -0.271976 -0.0645153 -0.960139 1 
0.132804 0.257485 -0.0330578 -0.239997 -0.0926973 -0.966338 1 
0.133105 0.257265 -0.0332844 -0.173819 -0.150982 -0.973135 1 
0.132746 0.257065 -0.0332576 -0.263925 -0.110511 -0.958191 1 
0.132526 0.257325 -0.0331399 -0.294167 -0.0790493 -0.952479 1 
0.13222 0.255595 -0.0322653 -0.41158 -0.0692759 -0.908737 1 
0.132321 0.25648 -0.032504 -0.336473 -0.126688 -0.933133 1 
0.131901 0.256322 -0.0325981 -0.362971 -0.125591 -0.923298 1 
0.131388 0.256014 -0.0324495 -0.439081 -0.0670248 -0.895944 1 
0.131402 0.256422 -0.0325624 -0.403051 -0.130605 -0.90581 1 
0.132086 0.257846 -0.0329043 -0.327293 -0.0638938 -0.94276 1 
0.13098 0.256427 -0.032598 -0.449204 -0.117615 -0.885654 1 
0.131777 0.254756 -0.032171 -0.563056 -0.029052 -0.825908 1 
0.131823 0.254305 -0.0319373 -0.661331 -0.00693219 -0.750063 1 
0.131797 0.2556 -0.0323008 -0.451065 -0.0703495 -0.889714 1 
0.131579 0.255398 -0.0322622 -0.519226 -0.0629788 -0.852314 1 
0.139838 0.258061 -0.0221296 -0.148455 0.30372 -0.941124 1 
0.139669 0.258007 -0.0218158 -0.148455 0.30372 -0.941124 1 
0.139457 0.258241 -0.021794 -0.135876 0.336258 -0.931916 1 
0.139488 0.258133 -0.0221782 -0.173181 0.308955 -0.935177 1 
0.139042 0.258218 -0.0219257 -0.135876 0.336258 -0.931916 1 
0.139113 0.257987 -0.0219593 -0.0620485 0.36041 -0.930728 1 
0.139129 0.257933 -0.0221514 -0.129816 0.334789 -0.933308 1 
0.138629 0.257734 -0.0221365 0.053642 0.349327 -0.935464 1 
0.140282 0.255102 -0.0218924 -0.0569114 -0.204639 -0.977182 1 
0.13965 0.254416 -0.0220645 0.0938026 -0.216371 -0.971794 1 
0.139909 0.254021 -0.0226624 0.180768 -0.360113 -0.915228 1 
0.141006 0.255929 -0.0227936 -0.450552 0.0446493 -0.891633 1 
0.141029 0.255849 -0.0230816 -0.10031 -0.33303 -0.937566 1 
0.140597 0.256343 -0.0229421 0.27621 0.267623 -0.923085 1 
0.140721 0.256095 -0.0227589 -0.123172 0.145123 -0.981717 1 
0.140744 0.256015 -0.023047 -0.177959 0.118225 -0.97691 1 
0.140524 0.256275 -0.0229293 0.27621 0.267623 -0.923085 1 
0.140538 0.255922 -0.023142 -0.177959 0.118225 -0.97691 1 
0.140176 0.255885 -0.0230569 -0.0913481 0.17417 -0.980469 1 
0.14023 0.256169 -0.0228193 -0.097778 0.191843 -0.976543 1 
0.139604 0.254867 -0.0222982 0.0223493 -0.0713049 -0.997204 1 
0.139657 0.255903 -0.0227915 -0.0954642 0.197127 -0.975719 1 
0.139014 0.256168 -0.0227093 0.029088 0.180345 -0.983173 1 
0.139228 0.255472 -0.0228101 0.0301399 0.119443 -0.992383 1 
0.139195 0.25528 -0.0224468 0.0245286 0.071453 -0.997142 1 
0.137973 0.254843 -0.0223199 0.202423 -0.0931394 -0.974859 1 
0.138838 0.253856 -0.0225989 0.17608 -0.218445 -0.959832 1 
0.137889 0.254956 -0.0229832 0.249757 -0.082407 -0.964796 1 
0.137868 0.254112 -0.0228533 0.224303 -0.0424357 -0.973595 1 
0.137912 0.254876 -0.0232713 0.253463 -0.0718774 -0.964671 1 
0.139423 0.258039 -0.0222613 -0.129816 0.334789 -0.933308 1 
0.139002 0.257582 -0.022376 -0.00886139 0.35319 -0.93551 1 
0.138637 0.257707 -0.0222325 0.053642 0.349327 -0.935464 1 
0.138716 0.257448 -0.0223621 0.0272591 0.377734 -0.925513 1 
0.138638 0.257245 -0.0223116 0.0135049 0.283603 -0.958847 1 
0.138361 0.256623 -0.0224728 0.10983 0.174001 -0.978602 1 
0.137748 0.254958 -0.0229951 0.253463 -0.0718774 -0.964671 1 
0.137083 0.254841 -0.022704 0.279629 -0.19147 -0.940822 1 
0.137159 0.254745 -0.0227752 0.279629 -0.19147 -0.940822 1 
0.136752 0.254696 -0.0230029 0.279827 -0.229205 -0.932288 1 
0.136974 0.256259 -0.0229003 0.355943 -0.0244148 -0.934189 1 
0.13702 0.256098 -0.0234765 0.358759 -0.0165974 -0.933283 1 
0.136524 0.254984 -0.0227891 0.227938 -0.269889 -0.935523 1 
0.136043 0.254568 -0.0230246 0.0985369 -0.20331 -0.974143 1 
0.136184 0.254566 -0.0230127 0.150854 -0.229561 -0.961533 1 
0.135905 0.255168 -0.022995 0.164159 -0.280835 -0.945613 1 
0.136703 0.256072 -0.0230784 0.338072 -0.130028 -0.932094 1 
0.136393 0.256309 -0.0235863 0.387039 -0.144964 -0.910597 1 
0.136379 0.255901 -0.0234734 0.354032 -0.183414 -0.917072 1 
0.137771 0.254878 -0.0232832 0.249266 -0.10978 -0.962193 1 
0.13627 0.254281 -0.0232384 0.123675 -0.150614 -0.980826 1 
0.136074 0.254461 -0.0234087 0.134599 -0.177368 -0.974897 1 
0.13602 0.254177 -0.0236462 0.0993526 -0.140051 -0.985147 1 
0.135774 0.254209 -0.0240917 0.0676106 -0.113448 -0.991241 1 
0.135972 0.255852 -0.0237011 0.33693 -0.246498 -0.90869 1 
0.13554 0.255584 -0.0236614 0.139527 -0.269752 -0.952768 1 
0.135761 0.255623 -0.0237584 0.196195 -0.290814 -0.936448 1 
0.135715 0.256073 -0.0239922 0.336885 -0.184652 -0.923262 1 
0.135345 0.256063 -0.0238109 0.365976 -0.290672 -0.884065 1 
0.135018 0.256055 -0.0241475 0.342417 -0.280159 -0.896806 1 
0.134863 0.255647 -0.0240465 -0.0420645 -0.133015 -0.990221 1 
0.129015 0.263368 -0.0260516 0.0694773 0.334278 -0.93991 1 
0.128515 0.263169 -0.0260367 0.10297 0.324958 -0.940106 1 
0.129317 0.261163 -0.026557 -0.145055 0.338461 -0.929733 1 
0.129611 0.262793 -0.0264673 0.0912958 0.318874 -0.94339 1 
0.129635 0.262712 -0.0267554 0.154108 0.380322 -0.911924 1 
0.12948 0.262305 -0.0266543 -0.0680417 0.374896 -0.924566 1 
0.128742 0.262883 -0.0262505 0.106055 0.328906 -0.938389 1 
0.128602 0.262884 -0.0262623 0.106055 0.328906 -0.938389 1 
0.128617 0.26283 -0.0264544 0.0884497 0.318155 -0.943904 1 
0.129336 0.261708 -0.0267076 -0.0681412 0.378117 -0.923247 1 
0.129568 0.262319 -0.0268592 -0.0434372 0.383037 -0.922711 1 
0.128665 0.261917 -0.0262997 0.0947628 0.402398 -0.910547 1 
0.128045 0.26105 -0.0257956 0.218522 0.351661 -0.910265 1 
0.128526 0.262218 -0.0262909 0.0451943 0.334438 -0.941333 1 
0.12818 0.262426 -0.026377 0.062532 0.287137 -0.955846 1 
0.129323 0.261599 -0.026574 -0.0546788 0.390753 -0.91887 1 
0.12906 0.261385 -0.0268481 -0.129816 0.334789 -0.933308 1 
0.128914 0.26125 -0.0268223 -0.232866 0.255176 -0.938434 1 
0.128558 0.261649 -0.026754 -0.0786802 0.353394 -0.93216 1 
0.127998 0.26073 -0.0269597 -0.273767 0.125642 -0.953554 1 
0.127934 0.260935 -0.0270221 -0.209456 0.220266 -0.952686 1 
0.12806 0.261749 -0.0267184 0.184379 0.410861 -0.892859 1 
0.128151 0.2616 -0.0269817 0.0542342 0.376994 -0.924627 1 
0.127778 0.260991 -0.026842 0.0889664 0.398296 -0.912932 1 
0.127714 0.261196 -0.0269044 0.196484 0.400246 -0.895096 1 
0.127646 0.262026 -0.0268294 0.0565608 0.356465 -0.932595 1 
0.127721 0.261631 -0.0269213 0.21592 0.398057 -0.891588 1 
0.128264 0.263537 -0.0255347 0.100886 0.340323 -0.934881 1 
0.128219 0.263526 -0.0258477 0.108983 0.329641 -0.937795 1 
0.12801 0.263596 -0.0258843 0.103476 0.334616 -0.936656 1 
0.128592 0.263373 -0.0260872 0.116273 0.306053 -0.944887 1 
0.12831 0.263376 -0.026111 0.103476 0.334616 -0.936656 1 
0.128454 0.263973 -0.0260576 0.0550581 0.406893 -0.911815 1 
0.128396 0.263553 -0.0262575 0.0970241 0.320313 -0.94233 1 
0.128183 0.263787 -0.0262358 0.0822767 0.373617 -0.923927 1 
0.128169 0.263378 -0.0261228 0.103476 0.334616 -0.936656 1 
0.128177 0.263351 -0.0262189 0.103476 0.334616 -0.936656 1 
0.128241 0.264669 -0.0259569 -0.0343279 0.512172 -0.858197 1 
0.12825 0.26418 -0.0261319 0.0420475 0.457097 -0.888422 1 
0.128036 0.264114 -0.0261309 0.0527419 0.434106 -0.899316 1 
0.128047 0.263924 -0.0262853 0.0803446 0.404446 -0.911026 1 
0.12748 0.263804 -0.0254645 0.0700918 0.446663 -0.891952 1 
0.128019 0.263107 -0.0260594 0.10297 0.324958 -0.940106 1 
0.127663 0.262743 -0.026091 0.0677126 0.282349 -0.956919 1 
0.127092 0.262776 -0.0260425 0.0523718 0.302735 -0.951635 1 
0.127503 0.263723 -0.0257526 0.0720756 0.414775 -0.907065 1 
0.127231 0.263237 -0.0259514 0.0982879 0.346027 -0.933062 1 
0.128397 0.263091 -0.0263366 0.106055 0.328906 -0.938389 1 
0.128115 0.263094 -0.0263604 0.106055 0.328906 -0.938389 1 
0.128179 0.262889 -0.026298 0.106055 0.328906 -0.938389 1 
0.12796 0.262687 -0.0262593 0.0677126 0.282349 -0.956919 1 
0.127482 0.26287 -0.0264533 0.0682399 0.299998 -0.951496 1 
0.127653 0.262462 -0.0268463 0.062532 0.287137 -0.955846 1 
0.127634 0.262678 -0.0265959 0.0677126 0.282349 -0.956919 1 
0.127242 0.262286 -0.0262057 0.0677126 0.282349 -0.956919 1 
0.12698 0.262372 -0.0264591 0.0922502 0.281948 -0.954984 1 
0.127352 0.26192 -0.0267194 0.064301 0.339877 -0.938269 1 
0.127205 0.262247 -0.0266145 0.0736568 0.295919 -0.952369 1 
0.127052 0.262901 -0.0263929 0.0864549 0.336509 -0.937703 1 
0.127067 0.262848 -0.0265849 0.0523718 0.302735 -0.951635 1 
0.126994 0.26278 -0.0265721 0.0419728 0.309073 -0.950112 1 
0.126807 0.262471 -0.0269175 0.167354 0.278923 -0.945619 1 
0.127834 0.262625 -0.0272938 0.105881 0.325686 -0.939531 1 
0.127479 0.262561 -0.0273047 0.0677126 0.282349 -0.956919 1 
0.128136 0.262705 -0.0274998 0.122158 0.307409 -0.943704 1 
0.128062 0.262338 -0.0275076 0.0565608 0.356465 -0.932595 1 
0.127282 0.261689 -0.0267649 0.438753 0.323209 -0.83847 1 
0.12731 0.262507 -0.0269908 0.0677126 0.282349 -0.956919 1 
0.127238 0.262439 -0.0269779 0.0677126 0.282349 -0.956919 1 
0.126897 0.262022 -0.0272015 0.249514 0.263611 -0.9318 1 
0.126677 0.262283 -0.0270837 0.188326 0.279052 -0.941628 1 
0.127348 0.26027 -0.0260508 0.028964 0.308529 -0.950774 1 
0.128052 0.260253 -0.0268221 -0.27578 0.0919267 -0.956815 1 
0.127618 0.261209 -0.0266034 0.30902 0.379044 -0.872257 1 
0.127202 0.261649 -0.026656 0.417174 0.31792 -0.851406 1 
0.126361 0.262556 -0.026665 0.224019 0.260196 -0.939209 1 
0.126384 0.262476 -0.0269531 0.234631 0.268351 -0.93431 1 
0.130254 0.260533 -0.0276588 0.41235 -0.490583 0.767656 1 
0.130491 0.260518 -0.0279479 0.438639 -0.632107 0.638778 1 
0.13047 0.260136 -0.0277389 0.30879 -0.670932 0.674165 1 
0.129963 0.260263 -0.0276072 0.086954 -0.531702 0.842456 1 
0.129206 0.260287 -0.0278834 0.336659 -0.635912 0.694461 1 
0.128822 0.259867 -0.0275892 -0.597313 -0.800653 -0.0465989 1 
0.128851 0.260222 -0.0278943 -0.0668773 -0.812488 0.579129 1 
0.128633 0.26002 -0.0278556 -0.193082 -0.848663 0.492434 1 
0.130191 0.259976 -0.027821 0.180505 -0.802412 0.568817 1 
0.129632 0.260119 -0.0279062 0.403095 -0.661872 0.632013 1 
0.128444 0.260645 -0.0272123 -0.339815 0.0753676 -0.937467 1 
0.128521 0.260087 -0.0273625 -0.42663 -0.0754491 -0.901274 1 
0.128681 0.259869 -0.0276011 -0.661842 -0.720741 -0.206148 1 
0.13716 0.246563 -0.00112103 0.0841165 -0.953752 -0.288584 0 
0.135565 0.241613 0.0121076 0.998516 -0.0451485 0.030449 0 
0.135407 0.241369 0.0122671 0.998516 -0.0451485 0.030449 0 
0.136348 0.240964 0.00693691 -0.926106 -0.359772 0.11354 0 
0.135423 0.242367 0.0113649 0.997923 -0.0349962 -0.0540851 0 
0.135378 0.242355 0.0110521 0.787896 0.590543 0.174582 0 
0.135468 0.242668 0.0108678 0.742612 0.637189 0.206195 0 
0.135409 0.241958 0.0114779 0.997923 -0.0349962 -0.0540851 0 
0.135219 0.241812 0.0111908 0.997923 -0.0349962 -0.0540851 0 
0.13562 0.242477 0.0107254 0.697515 0.688236 0.199511 0 
0.135651 0.242369 0.0103412 0.669513 0.721603 0.176188 0 
0.135493 0.242125 0.0105007 0.67287 0.707216 0.217005 0 
0.135242 0.241731 0.0109028 0.838192 0.514311 0.181433 0 
0.135492 0.241826 0.01048 0.689615 0.698872 0.18976 0 
0.135383 0.242781 0.0102045 0.983446 0.163709 0.0776719 0 
0.136628 0.242367 0.00885913 -0.603877 -0.789007 -0.113135 0 
0.135667 0.242316 0.0101492 0.983446 0.163709 0.0776719 0 
0.135408 0.242239 0.0098374 0.773591 -0.632167 -0.0438415 0 
0.135543 0.242563 0.00996598 0.769772 -0.637004 -0.0409603 0 
0.13543 0.24262 0.00962842 -0.234614 -0.960739 -0.148109 0 
0.135385 0.242609 0.00931558 -0.240819 -0.961976 -0.128871 0 
0.135031 0.242545 0.00930474 -0.206581 -0.968749 -0.137293 0 
0.135204 0.242735 0.00895324 -0.317841 -0.942883 -0.0997408 0 
0.135121 0.243148 0.00831062 0.796927 -0.602279 0.0465462 0 
0.134791 0.243012 0.00884229 -0.204819 -0.970663 -0.125945 0 
0.134887 0.242999 0.00854135 -0.337 -0.935812 -0.103382 0 
0.136192 0.243875 0.00496613 -0.958206 -0.285867 0.0110421 0 
0.136946 0.242682 0.00765128 -0.700649 -0.709352 -0.0768828 0 
0.136591 0.242618 0.00764043 -0.723507 -0.685658 -0.0800662 0 
0.136651 0.242286 0.00857112 -0.733524 -0.671536 -0.104789 0 
0.136757 0.242546 0.00819485 -0.757681 -0.642027 -0.117137 0 
0.136324 0.242278 0.00823446 -0.816969 -0.565594 -0.112534 0 
0.136131 0.242295 0.00800582 -0.798915 -0.590757 -0.112874 0 
0.135516 0.242615 0.00776223 -0.765514 -0.637686 -0.0857027 0 
0.136615 0.242538 0.00735234 -0.755923 -0.647725 -0.0950387 0 
0.136622 0.242511 0.00725632 -0.774843 -0.627116 -0.0796567 0 
0.136564 0.242091 0.00705643 -0.808379 -0.587785 -0.0321118 0 
0.136387 0.242825 0.00756611 -0.743832 -0.661996 -0.0920656 0 
0.136415 0.242881 0.00724036 -0.806249 -0.580088 -0.116018 0 
0.136434 0.242664 0.00698994 -0.844758 -0.528508 -0.0840484 0 
0.136448 0.243073 0.00687703 -0.845571 -0.529364 -0.0691702 0 
0.136214 0.241882 0.0086484 -0.608561 -0.789835 -0.07625 0 
0.135868 0.242081 0.00773165 -0.744305 -0.663055 -0.0797988 0 
0.135332 0.242143 0.00735843 -0.755923 -0.647725 -0.0950387 0 
0.13536 0.242199 0.00703272 -0.77995 -0.623105 -0.0584606 0 
0.135396 0.2427 0.00752063 -0.771561 -0.628083 -0.10102 0 
0.135554 0.242944 0.00736122 -0.811193 -0.574412 -0.109621 0 
0.135419 0.242619 0.00723257 -0.755412 -0.651417 -0.0707747 0 
0.135432 0.24349 0.00719878 -0.80273 -0.585538 -0.112999 0 
0.135238 0.242746 0.00687025 -0.83493 -0.544767 -0.0782303 0 
0.135587 0.243136 0.00699784 -0.819594 -0.565188 -0.093957 0 
0.13526 0.243127 0.00666126 -0.851533 -0.519365 -0.0717821 0 
0.134911 0.242919 0.00825325 -0.716915 -0.687229 -0.117259 0 
0.13507 0.242701 0.00801469 -0.792861 -0.599409 -0.109916 0 
0.135089 0.242484 0.00776426 -0.765535 -0.637217 -0.0889478 0 
0.134875 0.242418 0.00776533 -0.758601 -0.644592 -0.0950078 0 
0.136246 0.241593 0.00654474 -0.845741 -0.533509 0.00950271 0 
0.136476 0.243129 0.00655129 -0.864687 -0.501327 -0.0314183 0 
0.136333 0.242831 0.0065187 -0.864687 -0.501327 -0.0314183 0 
0.136313 0.241987 0.00664861 -0.832868 -0.552001 -0.0403225 0 
0.135921 0.241884 0.00622889 -0.894164 -0.447738 -0.00131302 0 
0.136095 0.242075 0.00587733 -0.937563 -0.347293 0.019082 0 
0.136551 0.24122 0.00709032 -0.862278 -0.50288 0.0598998 0 
0.136347 0.241426 0.00701598 -0.777495 -0.628876 -0.00412829 0 
0.135835 0.241408 0.00635471 -0.866524 -0.498826 0.0175738 0 
0.135384 0.242119 0.00674467 -0.80094 -0.593875 -0.0762115 0 
0.135613 0.242131 0.0065516 -0.837041 -0.543441 -0.0635191 0 
0.135961 0.241759 0.00657932 -0.820301 -0.571891 -0.00682447 0 
0.135539 0.241764 0.00654374 -0.808153 -0.58838 -0.0264284 0 
0.13553 0.241782 0.00580915 -0.935193 -0.354028 0.00888243 0 
0.136417 0.24347 0.00645125 -0.871557 -0.488455 -0.0424149 0 
0.13644 0.24339 0.00616316 -0.912055 -0.409306 -0.0250058 0 
0.136086 0.243325 0.00615228 -0.903928 -0.425928 -0.0387207 0 
0.136245 0.243107 0.00591375 -0.925729 -0.378186 0.00127335 0 
0.135262 0.242665 0.00658216 -0.84342 -0.531567 -0.0779632 0 
0.13542 0.242909 0.00642271 -0.844165 -0.532344 -0.063207 0 
0.135511 0.24276 0.00615942 -0.886038 -0.462574 -0.0310181 0 
0.135731 0.2425 0.00604166 -0.90287 -0.42975 -0.011828 0 
0.135434 0.243318 0.00630975 -0.867154 -0.492923 -0.0712155 0 
0.135449 0.243264 0.00611769 -0.891576 -0.451821 -0.0308364 0 
0.135892 0.242581 0.00582379 -0.912583 -0.408639 -0.0143611 0 
0.135628 0.242829 0.00562875 -0.929435 -0.368984 -0.00126799 0 
0.135491 0.242967 0.00557921 -0.934689 -0.35541 -0.00632401 0 
0.135719 0.24268 0.00536538 -0.942486 -0.334188 0.0062582 0 
0.135871 0.242489 0.00522292 -0.949414 -0.313118 0.0238925 0 
0.135735 0.242627 0.0051734 -0.956643 -0.289854 0.0286122 0 
0.135366 0.243677 0.00547514 -0.96173 -0.273205 -0.0208273 0 
0.135755 0.243471 0.00504347 -0.961991 -0.272948 0.00849173 0 
0.135324 0.243502 0.00510391 -0.964763 -0.263117 0.00120145 0 
0.13534 0.243449 0.00491185 -0.962562 -0.271059 -0.00120471 0 
0.135276 0.243364 0.00565932 -0.933243 -0.356329 -0.0456832 0 
0.136215 0.243794 0.00467809 -0.950151 -0.311788 0.00123236 0 
0.135869 0.243993 0.00376134 -0.932199 -0.357933 -0.0537555 0 
0.135931 0.243779 0.00299315 -0.912061 -0.383656 -0.144749 0 
0.136257 0.241684 0.00474982 -0.973162 -0.218314 0.0727713 0 
0.136411 0.242082 0.00381818 -0.962514 -0.259968 -0.0773562 0 
0.136576 0.242009 0.00437253 -0.982594 -0.184454 0.0220417 0 
0.135998 0.24313 0.00463765 -0.965974 -0.258159 0.0157562 0 
0.135561 0.242726 0.00471498 -0.955321 -0.295548 -0.00367903 0 
0.135599 0.243054 0.00431398 -0.962777 -0.269675 -0.0183038 0 
0.13543 0.243 0.00462782 -0.962008 -0.272953 -0.00606563 0 
0.135147 0.242704 0.00458335 -0.959249 -0.28256 0.0012127 0 
0.135502 0.242296 0.00368451 -0.931609 -0.354199 -0.0815325 0 
0.135855 0.243585 0.00387428 -0.952305 -0.305084 -0.00617578 0 
0.135492 0.242786 0.00385962 -0.943146 -0.331307 -0.0266569 0 
0.135756 0.244812 0.00352354 -0.975648 -0.208806 -0.0671598 0 
0.136211 0.244238 0.00309595 -0.906424 -0.385194 -0.173266 0 
0.136111 0.244115 0.00343452 -0.913509 -0.380278 -0.144534 0 
0.135703 0.244066 0.00320689 -0.921478 -0.364434 -0.134411 0 
0.135271 0.24456 0.00334641 -0.975648 -0.208806 -0.0671598 0 
0.135227 0.244548 0.00303359 -0.966344 -0.243797 -0.0821077 0 
0.135959 0.244596 0.00276721 0.330105 -0.864413 -0.379236 0 
0.136046 0.244311 0.0025415 -0.925428 -0.332817 -0.181154 0 
0.135046 0.244675 0.00267119 0.357574 -0.844749 -0.398172 0 
0.134933 0.244732 0.00233362 0.398108 -0.853531 -0.336146 0 
0.135568 0.244494 0.00234751 0.423577 -0.842464 -0.332922 0 
0.136016 0.244998 0.00130587 0.743932 -0.646567 -0.168868 0 
0.135825 0.244562 0.0018287 -0.614183 -0.711931 -0.340489 0 
0.134799 0.244697 0.00139514 0.706205 -0.675026 -0.213576 0 
0.135031 0.245308 0.00124346 0.678758 -0.709541 -0.189313 0 
0.13537 0.243804 0.00460688 -0.950104 -0.311733 -0.0111777 0 
0.135167 0.243548 0.00445346 -0.947842 -0.318445 -0.0137368 0 
0.135073 0.24415 0.00396524 -0.919544 -0.388371 -0.0600573 0 
0.135432 0.243589 0.00383868 -0.929919 -0.364905 -0.0457766 0 
0.135096 0.24407 0.00367718 -0.909358 -0.404313 -0.0979734 0 
0.134878 0.243868 0.00371588 -0.909358 -0.404313 -0.0979734 0 
0.134828 0.24372 0.00344068 -0.905605 -0.410374 -0.107115 0 
0.135019 0.243105 0.00362794 -0.926737 -0.36393 -0.0933501 0 
0.135037 0.244411 0.00357711 -0.969675 -0.239653 -0.0479307 0 
0.134993 0.2444 0.00326427 -0.975648 -0.208806 -0.0671598 0 
0.134734 0.244323 0.00295246 -0.960561 -0.268448 -0.0725191 0 
0.13488 0.244457 0.00292667 -0.960561 -0.268448 -0.0725191 0 
0.13475 0.244269 0.00276044 -0.962931 -0.265336 -0.0485826 0 
0.134903 0.244377 0.00263868 -0.953024 -0.27813 -0.119952 0 
0.135063 0.244159 0.00240006 -0.944898 -0.28143 -0.167227 0 
0.135772 0.243525 0.00232194 -0.937372 -0.29215 -0.18969 0 
0.136309 0.245095 0.000365306 -0.0996566 -0.921482 -0.375419 0 
0.136415 0.245354 -1.09449e-005 0.0294889 -0.937233 -0.347456 0 
0.13694 0.24501 -0.000393018 0.942524 0.290532 0.165044 0 
0.135971 0.244986 0.00099308 0.757211 -0.629232 -0.17521 0 
0.136354 0.245106 0.000678159 0.986788 -0.160852 0.0193935 0 
0.136077 0.245246 0.000616759 -0.0705574 -0.927897 -0.3661 0 
0.135713 0.244909 0.000681259 0.778245 -0.605973 -0.164716 0 
0.136388 0.244075 0.000135846 0.878495 -0.458658 -0.133715 0 
0.136323 0.245504 0.000252385 -0.0242685 -0.938806 -0.34359 0 
0.136346 0.245423 -3.56622e-005 0.946031 0.280959 0.161517 0 
0.136311 0.245684 -0.000423867 0.986767 0.152617 0.0547557 0 
0.136327 0.245631 -0.000615902 -0.0835935 -0.95811 -0.273929 0 
0.136122 0.245837 -0.000690181 0.946588 0.318945 0.0473934 0 
0.1357 0.245842 -0.000725765 0.053716 -0.96314 -0.263583 0 
0.134897 0.245274 0.000304967 -0.1216 -0.930443 -0.345671 0 
0.135109 0.24504 0.000283238 0.882872 -0.452133 -0.12694 0 
0.135115 0.245476 0.000266306 -0.136318 -0.929443 -0.342861 0 
0.134858 0.245408 0.000785109 0.838024 -0.52579 -0.145807 0 
0.134873 0.245354 0.000593074 0.880714 -0.462269 -0.103198 0 
0.135902 0.245046 0.000137683 -0.0681096 -0.925489 -0.3726 0 
0.135394 0.245925 -0.000461467 0.116723 -0.956081 -0.268857 0 
0.13507 0.245464 -4.65065e-005 0.991535 0.110933 0.0674747 0 
0.134958 0.245521 -0.000384122 0.99268 -0.0898301 -0.0807334 0 
0.135418 0.245845 -0.000749554 0.18143 -0.952844 -0.243251 0 
0.135199 0.245643 -0.000710845 0.190671 -0.95065 -0.244762 0 
0.134899 0.245101 -0.000583969 0.970636 -0.192597 -0.144129 0 
0.136606 0.24608 -0.00134368 0.165469 -0.942218 -0.291281 0 
0.135995 0.245486 -0.000914805 0.17917 -0.95243 -0.246527 0 
0.135814 0.245612 -0.00127718 -0.0059803 -0.967613 -0.252369 0 
0.135901 0.246088 -0.001403 0.0802682 -0.961944 -0.26119 0 
0.13607 0.246142 -0.00171685 0.205073 -0.942783 -0.262878 0 
0.136347 0.246003 -0.00165549 0.174156 -0.942087 -0.286603 0 
0.136159 0.246156 -0.00192181 0.189006 -0.94775 -0.256994 0 
0.136122 0.246118 -0.00233068 0.158721 -0.961506 -0.224308 0 
0.135646 0.245848 -0.00177317 0.162785 -0.951146 -0.262339 0 
0.135979 0.24582 -0.00236322 0.15637 -0.960557 -0.229955 0 
0.135353 0.245751 -0.000832669 0.147099 -0.955482 -0.255767 0 
0.135082 0.245564 -0.00101081 0.11896 -0.958214 -0.260143 0 
0.135472 0.245657 -0.0014217 0.119825 -0.954646 -0.272568 0 
0.134901 0.24569 -0.00137318 0.116723 -0.956081 -0.268857 0 
