0.114995 0.25909 -0.00166157 -0.464661 0.0392862 0.884617 1 
0.114251 0.256723 -0.00251855 -0.453344 0.0675193 0.888775 1 
0.113696 0.25592 -0.00161485 -0.410923 0.171578 0.895379 1 
0.113942 0.256153 -0.00100222 -0.400474 0.193684 0.895605 1 
0.114416 0.256307 -0.00237733 -0.402173 0.127518 0.90664 1 
0.114255 0.255834 -0.00237718 -0.394307 0.196426 0.897741 1 
0.114186 0.255625 -0.00241701 -0.394081 0.199222 0.897224 1 
0.11456 0.255815 -0.00229593 -0.32205 0.0914464 0.942296 1 
0.115286 0.25582 -0.00206652 -0.345874 0.109866 0.931826 1 
0.11505 0.255182 -0.00182693 -0.343466 0.103713 0.933421 1 
0.115071 0.255556 -0.00181422 -0.344234 0.106645 0.932807 1 
0.115239 0.255118 -0.00181265 -0.343466 0.103713 0.933421 1 
0.116898 0.254932 -0.00217736 -0.0617978 0.199934 0.977859 1 
0.116823 0.254767 -0.00193791 -0.213975 0.0495648 0.975581 1 
0.116611 0.25448 -0.00182524 -0.229875 -0.0154838 0.973097 1 
0.114546 0.255629 -0.00155063 -0.319886 0.11109 0.940921 1 
0.11491 0.254786 -0.00176693 -0.318893 0.117062 0.940534 1 
0.115164 0.254953 -0.0015732 -0.341751 0.109414 0.933399 1 
0.115591 0.254934 -0.00170429 -0.297587 0.0468541 0.953544 1 
0.115802 0.254947 -0.00163017 -0.247681 0.0584974 0.967074 1 
0.115542 0.254824 -0.00154465 -0.270168 0.0540336 0.961296 1 
0.115753 0.254837 -0.00147054 -0.247681 0.0584974 0.967074 1 
0.11594 0.255069 -0.00150341 -0.236548 0.0606851 0.969723 1 
0.116036 0.25474 -0.00144914 -0.226862 0.0300082 0.973465 1 
0.117537 0.253762 -0.0019062 -0.326918 -0.251363 0.911011 1 
0.115312 0.258982 -0.00213887 -0.460409 0.0337544 0.887065 1 
0.1152 0.258618 -0.00229834 -0.441073 0.0728251 0.894512 1 
0.115716 0.258315 -0.00209588 -0.409704 0.0635514 0.910002 1 
0.115359 0.258817 -0.00211175 -0.443637 0.0614267 0.894099 1 
0.115359 0.258247 -0.00187784 -0.391707 0.0887142 0.915803 1 
0.115552 0.257864 -0.00195609 -0.647039 -0.0677302 0.759442 1 
0.115646 0.257832 -0.00194895 -0.316269 0.12247 0.940731 1 
0.115947 0.258131 -0.00177522 -0.380788 0.0740048 0.921696 1 
0.116274 0.258188 -0.00163417 -0.430623 0.0584125 0.90064 1 
0.115564 0.258874 -0.00175838 -0.436358 0.0499853 0.898384 1 
0.115853 0.258733 -0.00201623 -0.429926 0.0471705 0.901631 1 
0.11549 0.25928 -0.00175281 -0.465759 0.0337507 0.884268 1 
0.115744 0.259447 -0.00155908 -0.461471 0.0309441 0.886616 1 
0.11613 0.258681 -0.00171557 -0.405967 0.0719607 0.91105 1 
0.11629 0.25888 -0.00152895 -0.438224 0.00921191 0.898819 1 
0.116479 0.258816 -0.00151467 -0.433025 0.0039247 0.901373 1 
0.116467 0.257805 -0.0017124 -0.507207 0.0656715 0.859318 1 
0.116719 0.258565 -0.00161292 -0.510941 -0.00134105 0.859615 1 
0.115043 0.25696 -0.00210966 -0.370498 0.117072 0.921426 1 
0.114743 0.256365 -0.00223628 -0.209227 0.154646 0.965561 1 
0.115048 0.256345 -0.00215505 -0.241342 0.13176 0.961454 1 
0.11488 0.256783 -0.00215663 -0.376188 0.117128 0.91911 1 
0.11549 0.256744 -0.00199418 -0.35733 0.0957375 0.929058 1 
0.115584 0.256712 -0.00198704 -0.33719 0.0919609 0.936934 1 
0.115375 0.256403 -0.00201401 -0.343273 0.115329 0.932128 1 
0.115491 0.256448 -0.00194705 -0.444701 0.0934011 0.890796 1 
0.115818 0.256505 -0.00180599 -0.420036 0.0956517 0.902453 1 
0.11502 0.257179 -0.00221662 -0.37299 0.114237 0.920776 1 
0.115459 0.2576 -0.00191608 -0.646703 -0.0528212 0.760911 1 
0.115724 0.257108 -0.00204702 -0.36393 0.0933501 0.926737 1 
0.115652 0.257217 -0.00199436 -0.381152 0.0969957 0.91941 1 
0.116073 0.257242 -0.00184615 -0.384266 0.0855433 0.919251 1 
0.114958 0.256059 -0.00225469 -0.330558 0.103049 0.938143 1 
0.115003 0.255917 -0.00208792 -0.345874 0.109866 0.931826 1 
0.115518 0.25591 -0.00193261 -0.34202 0.0952291 0.934855 1 
0.114898 0.255742 -0.00148939 -0.34202 0.0952291 0.934855 1 
0.115103 0.256369 -0.00136991 -0.376261 0.102617 0.920814 1 
0.115718 0.255715 -0.00125284 -0.321971 0.0940739 0.942064 1 
0.115361 0.256218 -0.0012687 -0.331847 0.11784 0.935944 1 
0.116386 0.256586 -0.00194995 -0.323419 0.0998207 0.940976 1 
0.116144 0.256859 -0.00171208 -0.343 0.0754865 0.936297 1 
0.115753 0.255407 -0.00170444 -0.288448 0.0679454 0.955082 1 
0.116061 0.255366 -0.00176285 -0.258219 0.0692784 0.963599 1 
0.116444 0.255721 -0.00102343 -0.19212 0.084435 0.977732 1 
0.116833 0.2558 -0.00160055 -0.106093 0.129934 0.98583 1 
0.116851 0.255899 -0.0014011 -0.209186 0.0854074 0.974139 1 
0.116496 0.256105 -0.00136983 -0.202423 0.0931394 0.974859 1 
0.116606 0.256194 -0.00102361 -0.159309 0.12473 0.979318 1 
0.116966 0.25567 -0.00114737 -0.183748 0.0815308 0.979586 1 
0.11609 0.257638 -0.00169381 -0.472862 0.0855922 0.87697 1 
0.116228 0.25776 -0.00156704 -0.471701 0.085382 0.877615 1 
0.115463 0.256944 -0.000737458 -0.329165 0.0946183 0.93952 1 
0.116102 0.259515 -0.00177711 -0.471173 -0.0450687 0.880889 1 
0.115884 0.259843 -0.00161907 -0.479767 -0.0366961 0.876628 1 
0.116258 0.260033 -0.001498 -0.483012 -0.0770019 0.872221 1 
0.116144 0.259395 -0.0014707 -0.470922 0.00663271 0.88215 1 
0.114778 0.255719 -0.00141671 -0.346916 0.0897428 0.933593 1 
0.115128 0.255557 -0.00116873 -0.332132 0.106229 0.937232 1 
0.115345 0.255526 -0.0013739 -0.328906 0.106055 0.938389 1 
0.115455 0.255615 -0.00102767 -0.328906 0.106055 0.938389 1 
0.116326 0.255402 -0.000903621 -0.203607 0.0694947 0.976583 1 
0.117044 0.256045 -0.000489175 -0.171768 0.0938024 0.980661 1 
0.117348 0.254356 -0.000930324 -0.184846 0.301591 0.935348 1 
0.117486 0.254478 -0.000803545 -0.202063 0.291249 0.935064 1 
0.112722 0.249235 -0.00350912 -0.749658 -0.236322 0.618194 1 
0.11541 0.24819 -0.00314255 0.27184 -0.631114 0.726497 1 
0.116163 0.247658 -0.00289869 -0.0321901 -0.976433 0.213408 1 
0.111775 0.251883 -0.00423679 -0.23799 0.38581 0.891354 1 
0.111589 0.251059 -0.00410967 -0.0531801 0.335943 0.94038 1 
0.111442 0.25187 -0.00409855 -0.23799 0.38581 0.891354 1 
0.111725 0.251773 -0.00407715 -0.120328 0.380347 0.916983 1 
0.11167 0.251708 -0.00363824 -0.392919 0.322039 0.861339 1 
0.11162 0.251598 -0.00347862 -0.346536 0.261008 0.900993 1 
0.111984 0.251622 -0.00397593 -0.346536 0.261008 0.900993 1 
0.112192 0.25136 -0.00371505 -0.713929 0.0210392 0.699902 1 
0.111953 0.251611 -0.00361682 -0.713929 0.0210392 0.699902 1 
0.111903 0.251501 -0.0034572 -0.713929 0.0210392 0.699902 1 
0.112186 0.251405 -0.00343579 -0.824916 -0.105833 0.55526 1 
0.110917 0.250507 -0.00332007 -0.346536 0.261008 0.900993 1 
0.112032 0.250591 -0.00366777 -0.793167 -0.0068732 0.608965 1 
0.111863 0.250458 -0.00343546 -0.82552 -0.0405077 0.562918 1 
0.111838 0.250403 -0.00335564 -0.812787 0.00685318 0.58252 1 
0.111995 0.251491 -0.00331041 -0.815968 0.160199 0.555457 1 
0.111829 0.251337 -0.00321776 -0.116354 0.926724 0.357275 1 
0.112112 0.25124 -0.00319634 0.00374613 0.942776 0.333406 1 
0.112401 0.251099 -0.00345419 0.00374613 0.942776 0.333406 1 
0.112392 0.251165 -0.00303528 0.0566716 0.988861 0.137631 1 
0.111994 0.250921 -0.00307654 0.028489 0.959956 0.278697 1 
0.112277 0.250824 -0.00305513 -0.059272 0.931229 0.359583 1 
0.111132 0.250201 -0.00333849 -0.346536 0.261008 0.900993 1 
0.111317 0.250455 -0.0032317 -0.557429 0.210379 0.803127 1 
0.111764 0.250239 -0.00311619 -0.833482 -0.423831 0.354506 1 
0.112022 0.250087 -0.00301498 -0.827409 -0.248069 0.503841 1 
0.111571 0.250622 -0.00303797 0.00374613 0.942776 0.333406 1 
0.112709 0.251057 -0.00351262 0.0294889 0.937233 0.347456 1 
0.11295 0.249643 -0.00328271 -0.773112 -0.276676 0.570743 1 
0.112664 0.250629 -0.00344551 -0.776627 -0.415178 0.473791 1 
0.112684 0.251002 -0.0034328 -0.800976 -0.226866 0.554047 1 
0.11261 0.250837 -0.00319335 -0.811127 -0.280835 0.513034 1 
0.112851 0.25029 -0.00324446 -0.784092 -0.265554 0.560964 1 
0.112655 0.250695 -0.00302659 -0.783559 -0.403947 0.472082 1 
0.112536 0.250673 -0.0029539 -0.799672 -0.316371 0.510327 1 
0.11258 0.250531 -0.00278714 -0.790955 -0.34494 0.505377 1 
0.112313 0.24965 -0.00322571 -0.783683 -0.251842 0.567818 1 
0.112711 0.249894 -0.00318448 -0.803017 -0.305685 0.511587 1 
0.112486 0.250563 -0.00279428 -0.810467 -0.291139 0.508312 1 
0.11444 0.248754 -0.00318122 -0.701624 -0.379567 0.603036 1 
0.112792 0.250776 -0.00167577 -0.744782 -0.342372 0.572784 1 
0.113184 0.251065 -0.00135523 -0.72006 -0.372332 0.585562 1 
0.114594 0.250097 -0.00195909 -0.551259 -0.399869 0.732269 1 
0.114893 0.250122 -0.0015986 -0.318631 -0.502517 0.803711 1 
0.114905 0.250561 -0.00116697 -0.259159 -0.428901 0.865379 1 
0.117236 0.250399 -0.00331146 0.943573 -0.323249 0.0719785 1 
0.118083 0.254295 -0.00111982 -0.220364 0.375057 0.900429 1 
0.118416 0.254308 -0.00125805 -0.127332 0.534209 0.835708 1 
0.118037 0.254163 -0.00109982 -0.277243 0.27437 0.920792 1 
0.116357 0.250573 -0.000708133 -0.132382 -0.437003 0.889665 1 
0.116183 0.251055 -0.00043045 -0.129416 -0.433756 0.891688 1 
0.117018 0.250347 -0.000658184 -0.0574717 -0.531263 0.845255 1 
0.116365 0.251331 -0.000184014 -0.100818 -0.40189 0.910121 1 
0.117435 0.250691 -0.000417501 -0.0036127 -0.263727 0.964591 1 
0.117913 0.250485 -0.00066109 0.0622733 -0.283407 0.956976 1 
0.118381 0.250643 -0.00053291 0.107941 -0.264 0.958464 1 
0.118334 0.250511 -0.000512898 0.0992279 -0.261601 0.960062 1 
0.118285 0.250401 -0.000353277 0.08787 -0.250875 0.964023 1 
0.117646 0.250704 -0.000343427 0.0363267 -0.291867 0.955769 1 
0.118594 0.250633 -0.000598446 0.119974 -0.238658 0.963664 1 
0.11863 0.251424 -0.000293776 0.135827 -0.259786 0.956066 1 
0.118795 0.251009 -0.000152558 0.130076 -0.256209 0.957829 1 
0.118795 0.251009 -0.000152558 0.130076 -0.256209 0.957829 1 
0.118325 0.250577 -9.39965e-005 0.0934875 -0.257411 0.961769 1 
0.118639 0.250491 -0.000431672 0.117716 -0.20885 0.970837 1 
0.118655 0.250613 -9.2566e-005 0.119596 -0.23019 0.965769 1 
0.118655 0.250613 -9.2566e-005 0.119596 -0.23019 0.965769 1 
0.118909 0.250779 0.000101149 0.147916 -0.229073 0.962105 1 
0.116844 0.251929 0.000375777 -0.0011926 -0.254023 0.967197 1 
0.117196 0.252041 0.000436991 0.0203767 -0.233732 0.972087 1 
0.117479 0.251944 0.000458404 0.0221641 -0.192477 0.981051 1 
0.119377 0.251803 -5.16623e-005 0.26435 -0.233579 0.935714 1 
0.118608 0.252446 0.000402644 0.398775 -0.361243 0.842901 1 
0.119015 0.252624 2.49892e-005 0.197293 -0.13365 0.971192 1 
0.119722 0.252827 7.83801e-006 -0.057136 -0.00934954 0.998323 1 
0.118828 0.252392 5.78314e-005 0.275227 -0.184854 0.94344 1 
0.118897 0.252305 0.000144795 0.0445085 -0.0175964 0.998854 1 
0.119184 0.252186 2.65688e-005 0.0499477 -0.041446 0.997891 1 
0.117818 0.251913 4.09186e-005 0.0110748 0.0191293 0.999756 1 
0.11796 0.251716 7.51615e-005 0.0705918 -0.173488 0.982303 1 
0.119262 0.251462 -7.15107e-005 0.177007 -0.230242 0.9569 1 
0.118641 0.251864 0.000137836 0.247148 -0.247148 0.936929 1 
0.119 0.251636 -3.30806e-005 0.184147 -0.240601 0.952996 1 
0.118478 0.251117 0.000324756 0.121172 -0.251464 0.960252 1 
0.118141 0.252289 0.000274479 -0.136576 0.169154 0.976081 1 
0.11854 0.252237 0.000362828 0.384281 -0.378007 0.842282 1 
0.118318 0.252884 0.000613406 0.172511 -0.0991021 0.98001 1 
0.119933 0.249478 -0.00110246 0.388993 -0.030124 0.920748 1 
0.120192 0.249327 -0.00100124 0.397002 -0.0169214 0.917661 1 
0.119504 0.249223 -0.000784621 0.293906 -0.0654551 0.95359 1 
0.12072 0.248935 -0.00135733 0.546557 0.105832 0.830708 1 
0.120503 0.249263 -0.00119928 0.419278 0.0117554 0.907782 1 
0.120938 0.248607 -0.0015154 0.482732 0.0948477 0.870617 1 
0.120453 0.249153 -0.00103964 0.425186 0.0278159 0.904679 1 
0.121162 0.2502 -0.00147748 0.983496 0.16965 -0.0628773 1 
0.120719 0.252296 -0.000172973 0.0950793 -0.155256 0.983288 1 
0.120835 0.252341 -0.000105992 0.116767 -0.163474 0.979613 1 
0.120455 0.249997 -0.0014603 0.865747 0.304927 0.396865 1 
0.120307 0.249668 -0.000981405 0.39395 -0.0382092 0.918338 1 
0.120138 0.250106 -0.000982985 0.0898936 -0.195796 0.976516 1 
0.120265 0.250887 -0.000531554 0.158221 -0.191666 0.968623 1 
0.12003 0.250819 -0.000525817 0.17113 -0.17885 0.968879 1 
0.120338 0.250777 -0.00058423 0.137956 -0.18352 0.973287 1 
0.119189 0.249606 -0.000494048 0.242665 -0.106567 0.964239 1 
0.119904 0.249742 -0.00093013 0.357109 -0.0510155 0.932669 1 
0.119604 0.250542 -0.000347599 0.242299 -0.14014 0.960027 1 
0.119267 0.250847 -0.000116885 0.220594 -0.193855 0.955907 1 
0.119122 0.251066 -1.15186e-005 0.193773 -0.245265 0.949893 1 
0.118938 0.250516 -7.11679e-005 0.14986 -0.193409 0.969606 1 
0.119127 0.250451 -5.68926e-005 0.212242 -0.15495 0.964854 1 
0.119532 0.250355 -0.000247806 0.254457 -0.123966 0.959106 1 
0.121398 0.249971 -0.00143605 0.913373 0.153876 -0.376925 1 
0.120097 0.251325 -0.000533134 0.195375 -0.233103 0.952623 1 
0.119662 0.251981 -0.000217021 -0.0141851 -0.108025 0.994047 1 
0.120231 0.251765 -0.000313833 0.275958 -0.225529 0.934336 1 
0.119522 0.251585 -0.000157028 0.208091 -0.213461 0.954533 1 
0.120565 0.251482 -0.000404939 0.2736 -0.250918 0.928538 1 
0.12047 0.251514 -0.000412077 0.2736 -0.250918 0.928538 1 
0.120035 0.25217 -9.59784e-005 0.0533902 -0.117004 0.991695 1 
0.119407 0.251243 -0.000176877 0.191166 -0.22325 0.955832 1 
0.118267 0.254845 -0.00106017 -0.0323091 0.768396 0.639159 1 
0.113697 0.247486 -0.00328195 -0.577973 -0.801994 0.150841 1 
0.113187 0.247978 -0.00272641 -0.748666 -0.407917 0.522592 1 
0.113203 0.248099 -0.0023873 -0.736423 -0.413517 0.53543 1 
0.113913 0.247983 -0.00249697 -0.648966 -0.520859 0.554571 1 
0.113581 0.24797 -0.00235876 -0.64286 -0.538247 0.544997 1 
0.113245 0.247979 -0.0020809 -0.73893 -0.457905 0.494273 1 
0.113173 0.249758 -0.00150584 -0.717687 -0.322392 0.617243 1 
0.11404 0.248764 -0.00204556 -0.613798 -0.427496 0.663701 1 
0.113979 0.248215 -0.00231752 -0.599829 -0.475495 0.643514 1 
0.11395 0.248478 -0.0021452 -0.59366 -0.449843 0.66724 1 
0.114321 0.248394 -0.00183739 -0.368098 -0.530255 0.763762 1 
0.113966 0.24917 -0.00204 -0.694796 -0.387832 0.605677 1 
0.113748 0.248928 -0.00164807 -0.63303 -0.435939 0.639711 1 
0.113892 0.249005 -0.00180055 -0.64838 -0.40959 0.641747 1 
0.113863 0.249269 -0.00162822 -0.624429 -0.421281 0.657732 1 
0.113908 0.249127 -0.00146146 -0.564083 -0.447606 0.693872 1 
0.114159 0.248217 -0.00188434 -0.411343 -0.519505 0.74894 1 
0.114182 0.247998 -0.0017774 -0.287128 -0.566325 0.77255 1 
0.114485 0.248274 -0.00174329 -0.166559 -0.559697 0.811786 1 
0.114411 0.248109 -0.00150384 -0.0123548 -0.580674 0.814042 1 
0.113673 0.248763 -0.00140862 -0.599745 -0.442709 0.666569 1 
0.114182 0.249097 -0.00102113 -0.310707 -0.493662 0.812255 1 
0.113263 0.250044 -0.00140621 -0.709495 -0.311919 0.63192 1 
0.11321 0.250253 -0.00115407 -0.701783 -0.29067 0.650394 1 
0.112986 0.251196 -0.000950605 -0.714027 -0.422452 0.5583 1 
0.113008 0.251273 -0.000890791 -0.708288 -0.43957 0.552365 1 
0.113469 0.250672 -0.00128673 -0.668598 -0.344925 0.65879 1 
0.113788 0.25107 -0.000913531 -0.491467 -0.46499 0.736373 1 
0.113319 0.250638 -0.000854939 -0.578691 -0.44194 0.685424 1 
0.113509 0.250278 -0.000793561 -0.579278 -0.363884 0.729401 1 
0.113647 0.2504 -0.000666767 -0.428456 -0.412409 0.803956 1 
0.113783 0.250818 -0.000587121 -0.323094 -0.46494 0.824283 1 
0.113332 0.250782 -0.000376225 -0.376423 -0.462921 0.802502 1 
0.114068 0.249896 -0.00150873 -0.575702 -0.357163 0.735528 1 
0.113879 0.24939 -0.00128913 -0.559663 -0.407778 0.721453 1 
0.114039 0.249589 -0.00110254 -0.463708 -0.421405 0.779354 1 
0.114387 0.249724 -0.000901669 -0.28894 -0.449634 0.845188 1 
0.113984 0.250665 -0.00113139 -0.544453 -0.387493 0.743922 1 
0.114267 0.250568 -0.00110999 -0.412486 -0.40293 0.817008 1 
0.114362 0.250536 -0.00110285 -0.412486 -0.40293 0.817008 1 
0.114577 0.25023 -0.00112127 -0.29365 -0.455235 0.840554 1 
0.114264 0.25059 -0.000970349 -0.391276 -0.407117 0.825323 1 
0.113997 0.250808 -0.000652671 -0.318605 -0.462998 0.827118 1 
0.114548 0.250493 -0.000948936 -0.272521 -0.418677 0.866281 1 
0.113857 0.250412 -0.000592679 -0.343456 -0.428144 0.835901 1 
0.114255 0.250657 -0.000551432 -0.287494 -0.435085 0.853258 1 
0.114517 0.250483 -0.000589848 -0.2729 -0.428408 0.86139 1 
0.114884 0.250188 -0.00117968 -0.272427 -0.460201 0.844984 1 
0.115064 0.25019 -0.000746489 -0.259495 -0.426422 0.866502 1 
0.115299 0.250554 -0.000799343 -0.230958 -0.451349 0.861941 1 
0.114756 0.250232 -0.000688076 -0.278877 -0.419077 0.864061 1 
0.115199 0.250334 -0.000480071 -0.251825 -0.42373 0.870079 1 
0.115084 0.249993 -0.000499904 -0.252163 -0.427317 0.868225 1 
0.114246 0.249624 -0.000888795 -0.292885 -0.454049 0.841462 1 
0.114414 0.249186 -0.000887215 -0.275293 -0.486817 0.828989 1 
0.115811 0.249999 -0.000270501 -0.16553 -0.461433 0.871596 1 
0.116471 0.249773 -0.000220552 -0.115623 -0.47534 0.872171 1 
0.116397 0.249609 1.88947e-005 -0.1216 -0.464941 0.876951 1 
0.117313 0.248725 -0.000680447 -0.0114132 -0.348737 0.937151 1 
0.113241 0.251363 -0.000756875 -0.542751 -0.479291 0.689711 1 
0.113166 0.251198 -0.000517428 -0.502732 -0.44669 0.740087 1 
0.113307 0.251298 -0.000530288 -0.439915 -0.509115 0.739782 1 
0.113636 0.251629 -0.000576019 -0.27605 -0.454942 0.846655 1 
0.113611 0.251574 -0.000496194 -0.27605 -0.454942 0.846655 1 
0.113919 0.251532 -0.000554606 -0.271814 -0.446881 0.852299 1 
0.113471 0.251178 -0.000436202 -0.373258 -0.459764 0.805789 1 
0.113798 0.251236 -0.000295147 -0.285034 -0.439107 0.852021 1 
0.114198 0.251184 -0.000206783 -0.271814 -0.446881 0.852299 1 
0.115239 0.250807 -0.000267923 -0.235132 -0.420842 0.876131 1 
0.115454 0.250501 -0.000286341 -0.223478 -0.448456 0.865416 1 
0.115519 0.250733 -0.000106886 -0.203706 -0.408877 0.889564 1 
0.115379 0.250337 -4.6894e-005 -0.220348 -0.445192 0.8679 1 
0.115814 0.250547 -0.000644028 -0.167556 -0.441474 0.881491 1 
0.116402 0.250431 -0.000541389 -0.116171 -0.483329 0.867697 1 
0.115713 0.25092 -0.000419021 -0.170603 -0.444735 0.879264 1 
0.115778 0.251151 -0.000239566 -0.160075 -0.486099 0.859118 1 
0.115688 0.250865 -0.000339195 -0.182589 -0.43091 0.88373 1 
0.115548 0.250469 -0.000279203 -0.219208 -0.43096 0.875341 1 
0.115991 0.250571 -7.11977e-005 -0.145925 -0.452224 0.879886 1 
0.115679 0.250932 7.97063e-005 -0.195053 -0.417972 0.887273 1 
0.115564 0.250591 5.98729e-005 -0.1998 -0.401059 0.893997 1 
0.115818 0.250757 0.000253603 -0.161654 -0.455835 0.875261 1 
0.116085 0.250539 -6.40601e-005 -0.134654 -0.479252 0.867287 1 
0.116225 0.250365 0.000109836 -0.121006 -0.456976 0.88121 1 
0.11694 0.250501 -0.000326246 -0.0707674 -0.372531 0.925318 1 
0.116412 0.250597 7.69794e-005 -0.110014 -0.413598 0.903788 1 
0.116081 0.250858 2.84314e-005 -0.138312 -0.432045 0.891183 1 
0.116502 0.250883 0.000176623 -0.105943 -0.389376 0.914966 1 
0.116479 0.251102 6.97076e-005 -0.108249 -0.371334 0.922168 1 
0.116151 0.250771 0.000115395 -0.119154 -0.416339 0.901368 1 
0.116642 0.251279 0.000116646 -0.0690904 -0.31938 0.945105 1 
0.116947 0.251259 0.000197873 -0.0305083 -0.250168 0.967722 1 
0.116851 0.251018 0.000377506 -0.0492882 -0.286883 0.956697 1 
0.116617 0.250654 0.000430331 -0.0817038 -0.362979 0.928208 1 
0.117016 0.250602 0.000518724 -0.021002 -0.287851 0.957445 1 
0.117131 0.250943 0.000538558 -0.00359436 -0.255199 0.966882 1 
0.118385 0.249754 -0.000391513 0.105635 -0.192628 0.975569 1 
0.117855 0.250442 -8.25673e-005 0.0515811 -0.275518 0.959911 1 
0.118251 0.250412 0.00014545 0.0826513 -0.258126 0.962569 1 
0.118864 0.250351 0.000168279 0.134269 -0.176934 0.975021 1 
0.118646 0.250679 0.000326335 0.126384 -0.248859 0.960258 1 
0.117361 0.251625 0.00057821 0.0202574 -0.227597 0.973545 1 
0.118995 0.250814 0.000527188 0.169645 -0.216988 0.96132 1 
0.119144 0.249177 -0.000426933 0.24083 -0.0819577 0.967101 1 
0.119365 0.248827 -0.000724629 0.341022 -0.0088087 0.940014 1 
0.118733 0.249888 -0.00019066 0.142696 -0.178055 0.973619 1 
0.119016 0.249792 -0.000169247 0.203616 -0.137024 0.969415 1 
0.113936 0.25241 -0.0122238 -0.29158 0.0441789 0.955526 1 
0.114199 0.252511 -0.0124489 -0.29158 0.0441789 0.955526 1 
0.114289 0.252797 -0.0123493 -0.308323 0.0741537 0.948387 1 
0.11419 0.252577 -0.01203 -0.264821 0.0564784 0.962642 1 
0.114613 0.252877 -0.0120686 -0.308323 0.0741537 0.948387 1 
0.114639 0.252635 -0.0121013 -0.381342 0.0682402 0.921912 1 
0.114589 0.252525 -0.0119416 -0.313137 0.0688642 0.947208 1 
0.115105 0.252518 -0.0117863 -0.483912 0.0229151 0.874816 1 
0.114868 0.249682 -0.0130592 -0.161455 -0.452366 0.877096 1 
0.115643 0.249227 -0.0127556 -0.284177 -0.510263 0.811711 1 
0.115405 0.248612 -0.0123763 -0.28358 -0.655278 0.700138 1 
0.113627 0.249916 -0.0124067 0.0921019 -0.0784572 0.992654 1 
0.113553 0.249751 -0.0121672 -0.0605634 -0.542254 0.838029 1 
0.113758 0.250379 -0.0120478 -0.629607 -0.126517 0.766543 1 
0.113812 0.25017 -0.0122999 -0.252794 -0.115378 0.960616 1 
0.113738 0.250005 -0.0120605 -0.195551 -0.1249 0.972708 1 
0.113853 0.250346 -0.0120406 -0.629607 -0.126517 0.766543 1 
0.113924 0.249963 -0.0119066 -0.195551 -0.1249 0.972708 1 
0.114275 0.250076 -0.0118453 -0.30018 -0.104468 0.948145 1 
0.114183 0.250382 -0.0120392 -0.291077 -0.0789142 0.953439 1 
0.115423 0.249578 -0.0124579 -0.294208 -0.366628 0.882624 1 
0.114792 0.250343 -0.0118768 -0.299629 -0.0791227 0.950769 1 
0.115256 0.250818 -0.0116561 -0.402442 -0.136971 0.905141 1 
0.115334 0.250094 -0.0117541 -0.383078 -0.192262 0.903486 1 
0.115554 0.25004 -0.012099 -0.354913 -0.238069 0.904079 1 
0.11682 0.250094 -0.011794 -0.428803 -0.441748 0.788027 1 
0.11641 0.248839 -0.012033 -0.358395 -0.536781 0.763819 1 
0.116642 0.250028 -0.0111428 -0.477286 -0.447763 0.756113 1 
0.117053 0.249317 -0.0113791 -0.473417 -0.395861 0.786874 1 
0.116568 0.249863 -0.0109034 -0.482715 -0.433626 0.76089 1 
0.11426 0.25249 -0.0119431 -0.313137 0.0688642 0.947208 1 
0.114776 0.252187 -0.0117406 -0.426685 0.0471103 0.903172 1 
0.11508 0.252464 -0.0117065 -0.483912 0.0229151 0.874816 1 
0.115081 0.252167 -0.0116594 -0.463401 0.0591283 0.884174 1 
0.115248 0.252026 -0.0117049 -0.423997 -0.0305703 0.905147 1 
0.115697 0.251513 -0.0115423 -0.467212 -0.165502 0.868517 1 
0.116759 0.250073 -0.0110758 -0.482715 -0.433626 0.76089 1 
0.117465 0.250276 -0.011093 -0.44361 -0.543298 0.712767 1 
0.117418 0.250144 -0.011073 -0.446519 -0.546115 0.708787 1 
0.117717 0.250168 -0.0107125 -0.42615 -0.575385 0.698089 1 
0.116905 0.251524 -0.0106588 -0.579217 -0.419891 0.698712 1 
0.116756 0.251194 -0.01018 -0.586827 -0.408299 0.699233 1 
0.117857 0.250564 -0.0107725 -0.364682 -0.5969 0.714645 1 
0.118371 0.250283 -0.0104304 -0.300697 -0.502212 0.81078 1 
0.118255 0.250239 -0.0104974 -0.321632 -0.542454 0.776077 1 
0.118246 0.250875 -0.0103123 -0.309618 -0.585548 0.74918 1 
0.11716 0.251394 -0.010418 -0.517412 -0.504017 0.691558 1 
0.11717 0.25156 -0.00979961 -0.551256 -0.524283 0.649033 1 
0.117388 0.251232 -0.00995767 -0.510032 -0.553797 0.658161 1 
0.116684 0.249908 -0.0108364 -0.45883 -0.468697 0.754849 1 
0.118231 0.249887 -0.0103704 -0.341098 -0.464846 0.81705 1 
0.118272 0.250064 -0.0101112 -0.339398 -0.492366 0.801489 1 
0.118364 0.249757 -0.00991727 -0.332181 -0.44868 0.829664 1 
0.118425 0.249737 -0.00941138 -0.311098 -0.419441 0.852811 1 
0.117687 0.251257 -0.00959717 -0.463564 -0.597445 0.654345 1 
0.118181 0.251173 -0.00950167 -0.298728 -0.5703 0.765192 1 
0.117945 0.251105 -0.00949594 -0.332001 -0.600841 0.727163 1 
0.117725 0.251456 -0.00919826 -0.494169 -0.547774 0.675085 1 
0.118101 0.251623 -0.00921685 -0.460253 -0.641007 0.614229 1 
0.118281 0.251625 -0.00878364 -0.446829 -0.630916 0.634263 1 
0.118615 0.251342 -0.00887474 -0.209757 -0.397512 0.893301 1 
0.119768 0.259615 -0.00357684 -0.486771 -0.00400086 0.87352 1 
0.120284 0.259608 -0.00342152 -0.511593 -0.0203551 0.858987 1 
0.120279 0.25739 -0.00357036 -0.302048 0.0764842 0.95022 1 
0.119372 0.258778 -0.00352383 -0.499971 -0.020324 0.865804 1 
0.119298 0.258613 -0.00328438 -0.568802 0.0206587 0.822215 1 
0.119632 0.25833 -0.00337549 -0.384266 0.0855433 0.919251 1 
0.120144 0.259212 -0.00336152 -0.514815 -0.0176586 0.857119 1 
0.12026 0.259257 -0.00329457 -0.514815 -0.0176586 0.857119 1 
0.120211 0.259147 -0.00313494 -0.501084 -0.0258011 0.865014 1 
0.119989 0.257828 -0.00335962 -0.384175 0.0882381 0.919034 1 
0.119488 0.258252 -0.00322299 -0.408108 0.0920647 0.90828 1 
0.1206 0.258359 -0.00343107 -0.530007 0.0573358 0.846053 1 
0.121647 0.257938 -0.00377147 -0.613337 -0.0265454 0.789375 1 
0.120595 0.258677 -0.00333855 -0.464597 0.00397091 0.885513 1 
0.120777 0.258953 -0.00309213 -0.471173 -0.0450687 0.880889 1 
0.120086 0.257773 -0.00349213 -0.400093 0.0948673 0.911551 1 
0.120317 0.257589 -0.00317144 -0.316198 0.0715673 0.94599 1 
0.120506 0.257524 -0.00315717 -0.196484 0.0294137 0.980066 1 
0.120664 0.25802 -0.00301771 -0.362892 0.0704516 0.929164 1 
0.121466 0.257324 -0.00274673 -0.109345 -0.0771168 0.991008 1 
0.121415 0.25751 -0.00263423 -0.206877 -0.0128568 0.978282 1 
0.12106 0.258286 -0.00283684 -0.599727 0.0407309 0.799168 1 
0.120963 0.258045 -0.0026572 -0.488581 0.0481699 0.871188 1 
0.121581 0.257665 -0.00272688 -0.523472 0.0572329 0.850119 1 
0.12153 0.257851 -0.00261441 -0.607086 0.0293076 0.794096 1 
0.121263 0.25864 -0.00253059 -0.482953 0.0257034 0.875269 1 
0.121337 0.258234 -0.00253613 -0.629141 0.0209249 0.77701 1 
0.120498 0.260169 -0.00372095 -0.510937 -0.00402313 0.859609 1 
0.120445 0.260081 -0.00342168 -0.512788 -0.0204027 0.858273 1 
0.120583 0.260203 -0.0032949 -0.513284 -0.00943041 0.858167 1 
0.120117 0.259749 -0.00337596 -0.515585 -0.0456148 0.855623 1 
0.120349 0.259839 -0.00324206 -0.512468 -0.0121694 0.85862 1 
0.119992 0.260342 -0.00325792 -0.499533 0.0802067 0.862574 1 
0.120157 0.259926 -0.0031167 -0.507538 -0.0231318 0.861319 1 
0.120248 0.260212 -0.00301705 -0.510092 0.0371226 0.859319 1 
0.120465 0.259884 -0.00317509 -0.512468 -0.0121694 0.85862 1 
0.120441 0.259829 -0.00309528 -0.512468 -0.0121694 0.85862 1 
0.119914 0.261066 -0.00315985 -0.447591 0.220053 0.86674 1 
0.120058 0.260573 -0.00307845 -0.499657 0.138389 0.855097 1 
0.120268 0.260585 -0.00300434 -0.500502 0.107558 0.859028 1 
0.120291 0.260366 -0.00289741 -0.512862 0.0688499 0.855706 1 
0.121078 0.260689 -0.00343327 -0.523987 0.111149 0.844442 1 
0.120727 0.25971 -0.00321351 -0.511593 -0.0203551 0.858987 1 
0.121174 0.259494 -0.00309803 -0.468984 -0.0478555 0.881909 1 
0.121664 0.259729 -0.00291 -0.460442 -0.0255055 0.887323 1 
0.121003 0.260525 -0.00319383 -0.508387 0.077455 0.857638 1 
0.121379 0.260122 -0.00297855 -0.510941 0.00134105 0.859615 1 
0.120326 0.259488 -0.0031151 -0.514815 -0.0176586 0.857119 1 
0.120558 0.259578 -0.0029812 -0.514815 -0.0176586 0.857119 1 
0.120609 0.259391 -0.00309369 -0.514815 -0.0176586 0.857119 1 
0.120892 0.259295 -0.00307229 -0.468984 -0.0478555 0.881909 1 
0.121165 0.259561 -0.00267911 -0.466874 -0.0338314 0.883677 1 
0.12107 0.259023 -0.00245236 -0.471173 -0.0450687 0.880889 1 
0.121072 0.259297 -0.00263911 -0.468984 -0.0478555 0.881909 1 
0.121691 0.259191 -0.00289556 -0.468984 -0.0478555 0.881909 1 
0.121801 0.25928 -0.00254932 -0.495107 -0.0596347 0.866783 1 
0.121593 0.258675 -0.00252916 -0.484725 0.00667665 0.874641 1 
0.121613 0.259048 -0.00251648 -0.478711 -0.0422793 0.876954 1 
0.121538 0.25975 -0.00255805 -0.502609 -0.00670146 0.864488 1 
0.121489 0.25964 -0.00239842 -0.460442 -0.0255055 0.887323 1 
0.121583 0.259608 -0.00239128 -0.455114 -0.0200197 0.890208 1 
0.121767 0.259292 -0.00205061 -0.54806 -0.0782943 0.832767 1 
0.12071 0.258977 -0.00209469 -0.511912 -0.0259369 0.858646 1 
0.121036 0.259034 -0.00195363 -0.468984 -0.0478555 0.881909 1 
0.120355 0.258887 -0.00201628 -0.520975 -0.040075 0.85263 1 
0.12057 0.258581 -0.00203469 -0.482953 0.0257034 0.875269 1 
0.121735 0.258479 -0.00249492 -0.765109 -0.101329 0.635878 1 
0.121299 0.259135 -0.0021788 -0.468984 -0.0478555 0.881909 1 
0.121394 0.259102 -0.00217167 -0.468984 -0.0478555 0.881909 1 
0.121791 0.258776 -0.00189653 -0.607678 -0.119761 0.785102 1 
0.121906 0.259118 -0.00187671 -0.564001 -0.0908749 0.820759 1 
0.122492 0.257396 -0.00338085 -0.446636 -0.0145786 0.894597 1 
0.121661 0.256918 -0.0029646 -0.0965501 -0.10353 0.989929 1 
0.121698 0.257984 -0.00284672 -0.689957 -0.0209926 0.723546 1 
0.121854 0.258501 -0.00256759 -0.752902 -0.104611 0.649765 1 
0.12219 0.259591 -0.0020892 -0.589826 -0.119142 0.798693 1 
0.122116 0.259426 -0.00184976 -0.595236 -0.116108 0.795118 1 
0.119405 0.256189 -0.00303987 0.0869218 -0.351699 -0.932069 1 
0.11912 0.256011 -0.00287452 0.0867175 -0.521726 -0.848694 1 
0.119363 0.255738 -0.00311238 0.224074 -0.504548 -0.8338 1 
0.119783 0.25606 -0.00301133 0.408435 -0.257721 -0.875649 1 
0.120336 0.256251 -0.0024571 0.195158 -0.472252 -0.859588 1 
0.12093 0.25609 -0.00263372 0.830717 -0.533502 0.15901 1 
0.120663 0.256309 -0.00231603 0.575198 -0.534714 -0.619054 1 
0.120946 0.256212 -0.00229463 0.669054 -0.551676 -0.498017 1 
0.119643 0.255663 -0.00295135 0.357708 -0.60598 -0.710516 1 
0.120035 0.255952 -0.00263083 0.124167 -0.541951 -0.831187 1 
0.121043 0.257024 -0.00270814 -0.0317486 -0.0930563 0.995155 1 
0.121164 0.256454 -0.00268658 0.124469 -0.187332 0.974379 1 
0.121046 0.256135 -0.00256678 0.804251 -0.485736 0.342404 1 
0.127464 0.249199 -0.0319067 0.238933 -0.96711 0.0872295 0 
0.134945 0.249197 -0.043993 -0.825414 -0.362802 -0.432511 0 
0.135231 0.249078 -0.0441113 -0.825414 -0.362802 -0.432511 0 
0.132967 0.246831 -0.0397203 0.978341 0.0200142 0.206029 0 
0.134524 0.249701 -0.0431511 -0.857811 -0.375582 -0.350853 0 
0.134471 0.249613 -0.0428518 -0.869122 0.316183 -0.380336 0 
0.134207 0.249809 -0.0426738 -0.837402 0.388064 -0.384922 0 
0.134742 0.249373 -0.0433091 -0.857811 -0.375582 -0.350853 0 
0.134878 0.249221 -0.0429956 -0.857811 -0.375582 -0.350853 0 
0.134114 0.249545 -0.0426338 -0.820884 0.442992 -0.360427 0 
0.134015 0.249325 -0.0423145 -0.822291 0.47325 -0.316024 0 
0.134301 0.249206 -0.0424327 -0.806504 0.47432 -0.352946 0 
0.134803 0.249056 -0.0427561 -0.87551 0.237959 -0.420544 0 
0.134421 0.248933 -0.0424583 -0.823737 0.453767 -0.33993 0 
0.134029 0.249743 -0.0420225 -0.884328 -0.164087 -0.437081 0 
0.132728 0.248561 -0.041361 0.811293 -0.540349 0.223221 0 
0.133965 0.249216 -0.0421549 -0.884328 -0.164087 -0.437081 0 
0.134123 0.249141 -0.0417815 -0.407215 -0.838014 -0.363192 0 
0.133911 0.249424 -0.0419027 -0.400427 -0.840113 -0.365881 0 
0.133881 0.249414 -0.0415436 0.555821 -0.827302 0.0814443 0 
0.133828 0.249326 -0.0412444 0.568594 -0.819402 0.0726774 0 
0.134155 0.249384 -0.0411033 0.545521 -0.835902 0.0606135 0 
0.133819 0.249393 -0.0408255 0.636575 -0.76708 0.0797531 0 
0.133521 0.2496 -0.0401487 -0.414808 -0.792493 -0.447089 0 
0.134023 0.249746 -0.0405192 0.543991 -0.837662 0.0489452 0 
0.133854 0.249613 -0.0402869 0.648336 -0.756149 0.088873 0 
0.131279 0.248909 -0.0374368 0.941498 0.0665969 0.330373 0 
0.131954 0.248381 -0.0403463 0.8737 -0.424112 0.238282 0 
0.132281 0.248439 -0.0402053 0.880224 -0.397375 0.259419 0 
0.132653 0.248396 -0.0411215 0.87612 -0.385856 0.289014 0 
0.13234 0.248482 -0.0407839 0.880268 -0.356046 0.313624 0 
0.132833 0.248398 -0.0406883 0.901416 -0.267032 0.340797 0 
0.132922 0.24841 -0.0404019 0.895978 -0.295688 0.331348 0 
0.133238 0.24883 -0.0398891 0.895622 -0.340129 0.286659 0 
0.132207 0.248274 -0.0399659 0.890269 -0.354611 0.285784 0 
0.132182 0.248219 -0.039886 0.901448 -0.326056 0.284745 0 
0.132347 0.247803 -0.0397448 0.928258 -0.265826 0.26014 0 
0.132346 0.24867 -0.0400258 0.888048 -0.3669 0.277047 0 
0.1322 0.248615 -0.0397337 0.897106 -0.286184 0.3366 0 
0.132198 0.248341 -0.0395469 0.917616 -0.216162 0.333548 0 
0.13198 0.248669 -0.0393889 0.925569 -0.208359 0.316083 0 
0.13322 0.248202 -0.0410787 0.828754 -0.52684 0.188696 0 
0.133152 0.248226 -0.0400812 0.890752 -0.365552 0.270061 0 
0.13347 0.24835 -0.0395213 0.890269 -0.354611 0.285784 0 
0.133323 0.248294 -0.0392292 0.907923 -0.320185 0.270476 0 
0.133232 0.248875 -0.0396098 0.893196 -0.332525 0.302702 0 
0.132946 0.248994 -0.0394916 0.902483 -0.275309 0.331254 0 
0.133158 0.24871 -0.0393704 0.896956 -0.35137 0.268346 0 
0.132772 0.249476 -0.0392139 0.897232 -0.289191 0.333681 0 
0.133149 0.248777 -0.0389515 0.917457 -0.234765 0.321182 0 
0.132727 0.249048 -0.0391468 0.909697 -0.261373 0.322701 0 
0.132907 0.24905 -0.0387136 0.92413 -0.202374 0.324082 0 
0.133779 0.249449 -0.0400475 0.865099 -0.410426 0.288366 0 
0.133661 0.24913 -0.0399277 0.894786 -0.308188 0.323076 0 
0.13366 0.248856 -0.0397409 0.894263 -0.340742 0.290152 0 
0.13387 0.248868 -0.0396668 0.889672 -0.351383 0.291573 0 
0.13267 0.247313 -0.0392302 0.950522 -0.193901 0.242715 0 
0.131833 0.248613 -0.0390967 0.939642 -0.168724 0.297668 0 
0.13207 0.248385 -0.0390553 0.939642 -0.168724 0.297668 0 
0.13248 0.247674 -0.0392917 0.932739 -0.223688 0.282776 0 
0.13273 0.247589 -0.0387715 0.950412 -0.103849 0.293142 0 
0.132394 0.247598 -0.0384936 0.95183 0.00369404 0.306605 0 
0.132733 0.247038 -0.0399013 0.967204 -0.14592 0.207904 0 
0.132798 0.247269 -0.0397218 0.926351 -0.307838 0.217047 0 
0.133042 0.247228 -0.0389224 0.954013 -0.153443 0.257517 0 
0.133249 0.24813 -0.0389897 0.912283 -0.283724 0.295364 0 
0.132989 0.248007 -0.0389042 0.922763 -0.229621 0.309489 0 
0.132855 0.247567 -0.0391234 0.937909 -0.243884 0.246672 0 
0.133204 0.247701 -0.0389226 0.930387 -0.264813 0.253484 0 
0.132979 0.247504 -0.0382514 0.951597 -0.00370271 0.307325 0 
0.13171 0.248909 -0.0389316 0.937463 -0.16059 0.308827 0 
0.131635 0.248744 -0.0386921 0.94248 -0.0720951 0.326394 0 
0.131962 0.248802 -0.0385511 0.937161 -0.0893169 0.337271 0 
0.131844 0.248483 -0.0384313 0.951081 -0.026384 0.307813 0 
0.133075 0.248612 -0.038712 0.92024 -0.215436 0.326721 0 
0.132789 0.248731 -0.0385938 0.925019 -0.211069 0.315895 0 
0.132693 0.248489 -0.0384142 0.942474 -0.12809 0.308765 0 
0.132578 0.248148 -0.038434 0.948115 -0.0878612 0.305547 0 
0.132571 0.249059 -0.0384357 0.925466 -0.172212 0.337424 0 
0.132521 0.248949 -0.0382761 0.943621 -0.113448 0.310981 0 
0.132339 0.248103 -0.0382886 0.94599 -0.0715673 0.316198 0 
0.132402 0.248356 -0.0379695 0.949264 -0.0187602 0.31392 0 
0.132445 0.24851 -0.0378499 0.947115 -0.0112306 0.320697 0 
0.132305 0.248114 -0.0377899 0.947295 0.016311 0.319947 0 
0.132212 0.24785 -0.0377499 0.950395 0.0472008 0.307443 0 
0.132256 0.248004 -0.0376303 0.949336 0.0631173 0.307858 0 
0.132223 0.249157 -0.0375993 0.930941 0.0675363 0.358869 0 
0.131845 0.248715 -0.037394 0.940702 0.0776244 0.330233 0 
0.132219 0.248905 -0.0372729 0.935898 0.0838713 0.342142 0 
0.132169 0.248795 -0.0371133 0.937277 0.0779963 0.339747 0 
0.132488 0.248961 -0.0377774 0.932136 -0.0244284 0.361283 0 
0.131204 0.248744 -0.0371974 0.943493 0.0396856 0.329007 0 
0.131137 0.248767 -0.0361999 0.930172 -0.0271677 0.366118 0 
0.130939 0.248328 -0.0355614 0.896434 -0.0842565 0.435095 0 
0.132075 0.246862 -0.0375957 0.946072 0.152942 0.285581 0 
0.131492 0.246892 -0.0367536 0.908992 0.0634809 0.41195 0 
0.13155 0.246935 -0.0373321 0.923739 0.169609 0.343423 0 
0.131656 0.24821 -0.0371744 0.938135 0.0974166 0.332284 0 
0.132222 0.248016 -0.0371315 0.940766 0.0559515 0.334408 0 
0.13193 0.248179 -0.0367341 0.932007 0.0731247 0.354987 0 
0.132193 0.24828 -0.0369592 0.935628 0.0727858 0.345402 0 
0.132546 0.248096 -0.0368509 0.93991 0.0694773 0.334278 0 
0.132138 0.247348 -0.0362393 0.920272 -0.03282 0.389901 0 
0.131355 0.248439 -0.036358 0.940921 0.0424766 0.335951 0 
0.131995 0.24784 -0.0363207 0.93551 0.00886139 0.35319 0 
0.130818 0.249468 -0.0358168 0.901665 0.116389 0.416477 0 
0.130538 0.248676 -0.0356969 0.884171 -0.0910794 0.458199 0 
0.130779 0.248699 -0.0359819 0.897213 -0.0728212 0.435553 0 
0.131079 0.248724 -0.0356214 0.898395 -0.0613471 0.434883 0 
0.131284 0.249352 -0.0355019 0.901665 0.116389 0.416477 0 
0.131231 0.249264 -0.0352026 0.902988 0.0810903 0.421944 0 
0.130503 0.248984 -0.0352453 -0.0359934 -0.995817 0.0839845 0 
0.13048 0.248633 -0.0351183 0.87777 -0.0367439 0.47767 0 
0.131222 0.249331 -0.0347837 -0.071334 -0.993015 0.0939798 0 
0.131192 0.24932 -0.0344246 -0.0848956 -0.996181 0.0204179 0 
0.130753 0.248899 -0.0347251 -0.112101 -0.993668 0.00761848 0 
0.12984 0.248894 -0.0338844 -0.421649 -0.874809 -0.238584 0 
0.130346 0.248721 -0.0343475 0.720172 -0.534748 0.442037 0 
0.131034 0.249057 -0.0335268 -0.389007 -0.900934 -0.192334 0 
0.130533 0.249482 -0.0333902 -0.345193 -0.915263 -0.207689 0 
0.131902 0.249013 -0.0367956 0.941785 0.0345962 0.33443 0 
0.132135 0.248807 -0.0366146 0.939499 0.0293993 0.341287 0 
0.131814 0.249234 -0.0360447 0.930877 -0.0594177 0.360467 0 
0.131703 0.248574 -0.0361571 0.934912 -0.0295777 0.353646 0 
0.13174 0.249069 -0.0358053 0.916459 -0.0857904 0.390823 0 
0.132023 0.248972 -0.0357839 0.916459 -0.0857904 0.390823 0 
0.132043 0.248775 -0.0355373 0.914214 -0.0973152 0.393373 0 
0.132195 0.248216 -0.0358748 0.916446 -0.0409954 0.398052 0 
0.131617 0.249365 -0.0356401 0.916555 0.0915189 0.389297 0 
0.131564 0.249277 -0.0353408 0.901665 0.116389 0.416477 0 
0.131722 0.249202 -0.0349675 0.912526 0.0604767 0.404522 0 
0.131533 0.249267 -0.0349818 0.912526 0.0604767 0.404522 0 
0.131672 0.249092 -0.0348078 0.920562 0.0683386 0.384572 0 
0.131459 0.249102 -0.0347423 0.894193 0.0335155 0.446426 0 
0.131341 0.248783 -0.0346225 0.875498 0.0201728 0.482801 0 
0.130976 0.247956 -0.0349286 0.864488 -0.00670146 0.502609 0 
0.129261 0.248606 -0.0331348 0.354913 -0.904079 0.238069 0 
0.128947 0.248692 -0.0327971 0.259166 -0.952067 0.162483 0 
0.128525 0.248097 -0.0327114 -0.877635 -0.00398321 -0.479313 0 
0.129787 0.248807 -0.0335852 -0.434829 -0.868154 -0.239231 0 
0.129314 0.248694 -0.0334341 -0.771047 -0.467844 -0.431982 0 
0.129473 0.248893 -0.0332475 0.338538 -0.914774 0.22041 0 
0.129945 0.248732 -0.0332118 -0.465206 -0.849572 -0.248618 0 
0.129551 0.247598 -0.0331116 -0.602822 -0.743534 -0.289419 0 
0.129043 0.248934 -0.0329767 0.306941 -0.934712 0.179165 0 
0.128969 0.248769 -0.0327373 -0.876858 -0.0120484 -0.480598 0 
0.128771 0.248901 -0.0323327 -0.889372 -0.179039 -0.420669 0 
0.128722 0.248791 -0.032173 0.389585 -0.90997 0.142051 0 
0.128787 0.249022 -0.0319936 -0.928473 -0.0141261 -0.371132 0 
0.129136 0.249157 -0.0317927 0.276908 -0.95833 0.070184 0 
0.130375 0.249219 -0.0324924 0.389324 -0.894711 0.218903 0 
0.130285 0.248933 -0.032592 -0.609118 -0.731263 -0.30697 0 
0.130092 0.249316 -0.0325138 0.400417 -0.888009 0.226066 0 
0.130499 0.249494 -0.0328914 -0.537401 -0.795858 -0.278944 0 
0.13045 0.249384 -0.0327318 -0.593703 -0.736062 -0.325161 0 
0.12956 0.248631 -0.0327743 0.332329 -0.916423 0.222992 0 
0.129443 0.249411 -0.0318982 0.223479 -0.973293 0.0525114 0 
0.13004 0.249228 -0.0322145 -0.872358 -0.213243 -0.439907 0 
0.130009 0.249218 -0.0318554 -0.836032 -0.437623 -0.330962 0 
0.129368 0.249246 -0.0316588 0.171578 -0.985154 0.0056814 0 
0.129651 0.24915 -0.0316374 0.163484 -0.98654 0.00338242 0 
0.130174 0.248802 -0.0317142 -0.796499 -0.53468 -0.282323 0 
0.128072 0.248886 -0.0315575 0.16391 -0.98464 0.0601397 0 
0.128974 0.248683 -0.0317925 0.174561 -0.984614 0.00798644 0 
0.128965 0.24875 -0.0313736 0.338941 -0.937073 0.0837385 0 
0.128653 0.24911 -0.0312227 0.254137 -0.965221 0.0613435 0 
0.12839 0.24901 -0.0309975 0.139535 -0.990141 0.0122791 0 
0.12823 0.248811 -0.0311841 0.162504 -0.985543 0.0479327 0 
0.128246 0.248932 -0.030845 0.163441 -0.986362 0.0194301 0 
0.128169 0.24879 -0.030466 0.200117 -0.979766 -0.00347024 0 
0.128859 0.248871 -0.0308222 0.180746 -0.983026 0.0314848 0 
0.128405 0.248561 -0.0304246 0.197001 -0.980397 0.00345616 0 
0.129438 0.249159 -0.0315718 0.192908 -0.98091 0.024552 0 
0.129693 0.24903 -0.031331 0.221451 -0.974143 0.0447743 0 
0.129195 0.248862 -0.0311001 0.217277 -0.974713 0.0521951 0 
0.129684 0.249096 -0.0309121 0.221624 -0.973432 0.0575488 0 
0.130165 0.248869 -0.0312953 0.306922 -0.949256 0.0686366 0 
0.129208 0.249006 -0.0306213 0.241421 -0.969361 0.045343 0 
0.130065 0.249516 -0.031257 0.228115 -0.97337 0.0226921 0 
0.129559 0.249118 -0.0305601 0.217277 -0.974713 0.0521951 0 
0.130002 0.249221 -0.0303521 0.334278 -0.93991 0.0694773 0 
0.129193 0.249117 -0.0299232 0.23937 -0.970713 0.0204487 0 
0.127041 0.249473 -0.0250842 0.145543 0.961109 -0.234705 0 
0.126992 0.249363 -0.0249246 0.171405 0.958009 -0.229869 0 
0.126818 0.249845 -0.0246469 0.0761888 0.928969 -0.362231 0 
0.126457 0.249799 -0.0242892 0.493933 0.868166 -0.048155 0 
0.127124 0.250058 -0.0235284 0.582466 0.810325 0.0640855 0 
0.126832 0.250221 -0.0231309 0.488578 0.86936 0.0741966 0 
0.126191 0.25082 -0.0231681 0.429695 0.85477 -0.291084 0 
0.126475 0.250724 -0.0231467 0.449658 0.87112 -0.197375 0 
0.1264 0.250559 -0.0229073 0.535932 0.844128 0.0150007 0 
0.126645 0.25056 -0.0233319 0.435117 0.891494 -0.126141 0 
0.126971 0.250617 -0.0231909 0.458367 0.88469 -0.084986 0 
0.126636 0.250626 -0.022913 0.518339 0.85478 -0.0259853 0 
0.127137 0.250202 -0.0230497 0.592143 0.797851 0.113139 0 
0.126988 0.249872 -0.0225708 0.690143 0.699365 0.185985 0 
0.126914 0.249708 -0.0223313 0.676694 0.710605 0.19268 0 
0.126205 0.24976 -0.0211372 0.611856 0.755822 0.233163 0 
0.125983 0.249836 -0.0206528 0.714398 0.654471 0.247595 0 
0.126455 0.249675 -0.0206171 0.467448 0.84079 0.273064 0 
0.126738 0.249578 -0.0205957 0.427641 0.868882 0.249331 0 
0.126216 0.249629 -0.0204717 0.701266 0.669748 0.244261 0 
0.126543 0.249687 -0.0203307 0.398437 0.887226 0.232545 0 
0.126732 0.249622 -0.0203164 0.58285 0.776613 0.239078 0 
0.126039 0.249563 -0.0198205 0.413877 0.902113 0.122059 0 
0.125591 0.249209 -0.0197021 0.37062 0.927209 0.0540762 0 
0.125869 0.249727 -0.0196353 0.446363 0.87964 0.164296 0 
0.125681 0.249495 -0.0196025 0.386644 0.920772 0.0518183 0 
0.126375 0.249554 -0.0200984 0.4755 0.860641 0.182201 0 
0.12651 0.249698 -0.0198319 0.42955 0.891923 0.141281 0 
0.126698 0.249634 -0.0198177 0.47569 0.865024 0.159539 0 
0.125607 0.249331 -0.019363 0.415276 0.907656 0.0608711 0 
0.125626 0.24943 -0.0191635 0.433142 0.897911 0.0783782 0 
0.125938 0.24907 -0.0193145 0.41101 0.909612 0.0606408 0 
0.126292 0.248589 -0.019159 0.407378 0.910849 0.0663174 0 
0.125929 0.249136 -0.0188956 0.433142 0.897911 0.0783782 0 
0.126071 0.249806 -0.0191423 0.428871 0.900217 0.0753606 0 
0.126387 0.249698 -0.0196196 0.406277 0.909677 0.0861799 0 
0.126714 0.249755 -0.0194786 0.406277 0.909677 0.0861799 0 
0.126517 0.249887 -0.0190739 0.415276 0.907656 0.0608711 0 
0.126702 0.249844 -0.01892 0.420376 0.904693 0.0693825 0 
0.125549 0.249858 -0.0190184 0.445159 0.891705 0.0818206 0 
0.125722 0.249672 -0.0193432 0.415276 0.907656 0.0608711 0 
0.125399 0.249824 -0.0185866 0.485047 0.870273 0.0857619 0 
0.125415 0.249946 -0.0182475 0.43081 0.898782 0.0812069 0 
0.126304 0.2496 -0.0189613 0.433142 0.897911 0.0783782 0 
0.126134 0.249764 -0.0187761 0.445159 0.891705 0.0818206 0 
0.126631 0.249657 -0.0188202 0.433142 0.897911 0.0783782 0 
0.126513 0.249338 -0.0187004 0.433142 0.897911 0.0783782 0 
0.126417 0.249097 -0.0185208 0.4508 0.889117 0.0790634 0 
0.12625 0.249238 -0.0184752 0.460774 0.883963 0.0793479 0 
0.126249 0.249534 -0.0185224 0.457346 0.885499 0.0820164 0 
0.126368 0.249557 -0.0185951 0.445159 0.891705 0.0818206 0 
0.124796 0.250052 -0.0179911 0.381302 0.923773 0.0353785 0 
0.125048 0.249945 -0.0176105 0.532982 0.841625 0.0871632 0 
0.125015 0.249956 -0.0171118 0.438023 0.894123 0.0931668 0 
0.124965 0.249846 -0.0169522 0.439529 0.891697 0.108127 0 
0.125872 0.249367 -0.0185038 0.460774 0.883963 0.0793479 0 
0.126225 0.249183 -0.0183954 0.460774 0.883963 0.0793479 0 
0.125985 0.249434 -0.0182972 0.485047 0.870273 0.0857619 0 
0.126339 0.248954 -0.0181417 0.503926 0.858804 0.0922682 0 
0.125977 0.249501 -0.0178783 0.593573 0.794884 0.12582 0 
0.125927 0.249391 -0.0177186 0.42597 0.904019 0.0360539 0 
0.126194 0.249173 -0.0180363 0.503926 0.858804 0.0922682 0 
0.125381 0.249958 -0.0177488 0.60559 0.78623 0.122895 0 
0.125898 0.249654 -0.0175463 0.613106 0.779372 0.129153 0 
0.125208 0.250144 -0.017424 0.56326 0.81942 0.106248 0 
0.125044 0.249693 -0.0172842 0.587903 0.800079 0.119349 0 
0.125824 0.24949 -0.0173069 0.670078 0.721974 0.17248 0 
0.125532 0.249653 -0.0169094 0.536335 0.835753 0.117732 0 
0.125815 0.249556 -0.016888 0.536335 0.835753 0.117732 0 
0.12579 0.249501 -0.0168082 0.536335 0.835753 0.117732 0 
0.125026 0.249826 -0.0164463 0.434798 0.89599 0.0902935 0 
0.125432 0.249433 -0.0165901 0.462132 0.880454 0.105994 0 
0.125737 0.249414 -0.0165089 0.456388 0.883104 0.108798 0 
0.124587 0.249934 -0.0157567 0.308472 0.944112 0.116178 0 
0.124601 0.249781 -0.0152308 0.517703 0.816199 0.25652 0 
0.124527 0.249617 -0.0149914 0.745981 0.553364 0.370542 0 
0.125017 0.249893 -0.0160274 0.370367 0.925245 0.0821542 0 
0.125489 0.249731 -0.0159917 0.416746 0.905911 0.075151 0 
0.125567 0.250106 -0.0153336 0.371113 0.918748 0.134824 0 
0.125104 0.249631 -0.0155542 0.297687 0.948629 0.107167 0 
0.12507 0.249642 -0.0150555 0.541445 0.795689 0.271507 0 
0.12374 0.249822 -0.0134654 0.640808 0.723084 0.257905 0 
0.123317 0.249523 -0.0134268 0.723596 0.648254 0.237013 0 
0.124881 0.249136 -0.0148359 0.73128 0.574227 0.368094 0 
0.124921 0.249313 -0.0145766 0.900379 0.198634 0.38712 0 
0.123994 0.249419 -0.0130377 0.812004 0.545923 0.206442 0 
0.123666 0.249658 -0.0132259 0.774355 0.587388 0.235267 0 
0.12522 0.250395 -0.0122358 0.799478 -0.594187 0.0881883 0 
0.123324 0.249711 -0.0126688 0.522856 -0.847682 0.0897546 0 
0.123402 0.249557 -0.0130007 0.760886 0.608398 0.225621 0 
0.123249 0.249546 -0.0124293 0.530746 -0.847284 0.0204658 0 
0.124486 0.25016 -0.0119992 0.82382 -0.56292 0.0666429 0 
0.124295 0.24995 -0.0118267 0.791159 -0.609349 0.0525545 0 
0.123241 0.249613 -0.0120104 0.530746 -0.847284 0.0204658 0 
0.123431 0.249252 -0.011949 0.530746 -0.847284 0.0204658 0 
0.123454 0.249033 -0.0118421 0.530746 -0.847284 0.0204658 0 
0.123852 0.249277 -0.0118008 0.530746 -0.847284 0.0204658 0 
0.123658 0.24909 -0.0114887 0.502226 -0.864264 0.028582 0 
0.123998 0.249862 -0.0111028 0.772748 -0.626117 0.104108 0 
0.124282 0.249765 -0.0110814 0.778496 -0.621342 0.0887631 0 
0.123593 0.249958 -0.0109119 0.721124 -0.67577 0.152691 0 
0.123688 0.249926 -0.0109048 0.771323 -0.627343 0.107251 0 
0.122464 0.249456 -0.0108562 -0.157253 -0.981308 -0.11093 0 
0.122575 0.249207 -0.00923878 -0.0578471 -0.998125 -0.0199835 0 
0.122327 0.249229 -0.00867452 -0.0409311 -0.994516 -0.0962435 0 
0.122507 0.249231 -0.00824133 0.073107 -0.99622 -0.0469194 0 
0.122368 0.249405 -0.00841524 -0.0314983 -0.995999 -0.0836335 0 
0.122597 0.249517 -0.0081417 0.156286 -0.985892 -0.0599291 0 
0.12224 0.249449 -0.00792365 0.0649028 -0.99176 -0.110449 0 
0.122285 0.249307 -0.00775689 0.151161 -0.98315 -0.102789 0 
0.122589 0.249584 -0.00772277 0.775728 -0.548608 -0.311891 0 
0.122278 0.249648 -0.00752473 0.696986 -0.584409 -0.415543 0 
0.12321 0.248736 -0.0113703 0.535905 -0.843323 0.0401582 0 
0.123307 0.248978 -0.0115499 0.502226 -0.864264 0.028582 0 
0.123322 0.249099 -0.0112108 0.510228 -0.858676 0.0483956 0 
0.123392 0.249012 -0.0111239 0.510228 -0.858676 0.0483956 0 
0.123 0.249822 -0.0106882 -0.22867 -0.965066 -0.1279 0 
0.122729 0.248393 -0.0107532 0.156286 -0.985892 0.0599291 0 
0.123285 0.25 -0.0108535 0.815475 -0.317041 0.484237 0 
0.123374 0.250012 -0.0105671 0.790978 -0.368908 0.488119 0 
0.12399 0.249928 -0.0106839 0.805815 -0.572592 0.150997 0 
0.124104 0.249699 -0.0104302 0.756159 -0.6314 0.171923 0 
0.123821 0.249796 -0.0104516 0.749928 -0.632896 0.192487 0 
0.124273 0.249832 -0.0106625 0.805815 -0.572592 0.150997 0 
0.123797 0.249445 -0.0103247 0.56808 -0.811331 0.137941 0 
0.123746 0.249631 -0.0102122 0.742828 0.577755 0.338238 0 
0.123339 0.249453 -0.00983448 0.823611 -0.430055 0.369752 0 
0.122685 0.249297 -0.00889255 -0.0279539 -0.999094 -0.0320952 0 
0.122846 0.249199 -0.00865883 0.00904321 -0.999777 -0.0190912 0 
0.123387 0.249818 -0.00881721 -0.0217405 -0.99903 -0.0383048 0 
0.122872 0.249487 -0.00770135 -0.902478 -0.415559 -0.113334 0 
0.122655 0.249519 -0.00749618 0.0659678 -0.989518 0.128464 0 
0.122039 0.249602 -0.00737935 0.702349 -0.559554 -0.440006 0 
0.128396 0.248628 -0.0300056 0.207705 -0.978185 0.00348109 0 
0.12958 0.248055 -0.0300325 0.240031 -0.970765 -0.00118242 0 
