0.132595 0.252049 -0.0246989 -0.581438 0.238499 -0.777849 2 
0.132293 0.252628 -0.0248539 -0.535779 0.318269 -0.782078 2 
0.132483 0.252323 -0.0252015 -0.575408 0.22489 -0.78634 2 
0.131433 0.253594 -0.0242164 -0.380769 0.172558 -0.908426 2 
0.128868 0.25261 -0.0194097 -0.4329 0.0144738 -0.901326 2 
0.128131 0.253363 -0.0190353 -0.123547 -0.212705 -0.969274 2 
0.128162 0.253848 -0.0194145 -0.14939 -0.161943 -0.975427 2 
0.127952 0.253728 -0.0194534 -0.14939 -0.161943 -0.975427 2 
0.127926 0.254223 -0.0192972 -0.14939 -0.161943 -0.975427 2 
0.127473 0.254085 -0.0195111 -0.14939 -0.161943 -0.975427 2 
0.127572 0.253779 -0.0191026 -0.14939 -0.161943 -0.975427 2 
0.127535 0.253685 -0.0193848 -0.14939 -0.161943 -0.975427 2 
0.128767 0.254173 -0.020346 -0.14482 -0.12048 -0.982096 2 
0.128649 0.254026 -0.0202811 -0.132977 -0.160318 -0.978067 2 
0.128448 0.253741 -0.020372 -0.14939 -0.161943 -0.975427 2 
0.128191 0.253549 -0.0194245 -0.123547 -0.212705 -0.969274 2 
0.128526 0.254239 -0.0200179 -0.14939 -0.161943 -0.975427 2 
0.128282 0.254108 -0.0198362 -0.14939 -0.161943 -0.975427 2 
0.128387 0.254225 -0.0199952 -0.14939 -0.161943 -0.975427 2 
0.128313 0.253923 -0.020203 -0.14939 -0.161943 -0.975427 2 
0.128245 0.254014 -0.0201185 -0.14939 -0.161943 -0.975427 2 
0.127695 0.254265 -0.0202378 -0.14939 -0.161943 -0.975427 2 
0.128125 0.253753 -0.0196968 -0.14939 -0.161943 -0.975427 2 
0.127688 0.253843 -0.0196704 -0.14939 -0.161943 -0.975427 2 
0.127705 0.254184 -0.019787 -0.14939 -0.161943 -0.975427 2 
0.127511 0.253622 -0.0195731 -0.14939 -0.161943 -0.975427 2 
0.128089 0.253659 -0.0199791 -0.14939 -0.161943 -0.975427 2 
0.128068 0.253792 -0.0200212 -0.14939 -0.161943 -0.975427 2 
0.128056 0.25376 -0.0201153 -0.14939 -0.161943 -0.975427 2 
0.127731 0.253689 -0.0199431 -0.14939 -0.161943 -0.975427 2 
0.127714 0.253348 -0.0198266 -0.14939 -0.161943 -0.975427 2 
0.127639 0.253717 -0.0200468 -0.14939 -0.161943 -0.975427 2 
0.127278 0.253551 -0.0201569 -0.14939 -0.161943 -0.975427 2 
0.127371 0.253494 -0.0191934 -0.14939 -0.161943 -0.975427 2 
0.127422 0.252505 -0.0195058 -0.123547 -0.212705 -0.969274 2 
0.127363 0.252431 -0.0194733 -0.123547 -0.212705 -0.969274 2 
0.127358 0.253463 -0.0192876 -0.14939 -0.161943 -0.975427 2 
0.127162 0.253487 -0.019589 -0.14939 -0.161943 -0.975427 2 
0.127162 0.253487 -0.019589 -0.14939 -0.161943 -0.975427 2 
0.126846 0.253251 -0.0194689 -0.14939 -0.161943 -0.975427 2 
0.127365 0.253214 -0.0198426 -0.14939 -0.161943 -0.975427 2 
0.126643 0.252853 -0.0192029 -0.148779 -0.156281 -0.976443 2 
0.126695 0.252534 -0.0195278 -0.148779 -0.156281 -0.976443 2 
0.126577 0.252386 -0.0194629 -0.134318 -0.149105 -0.979656 2 
0.126557 0.253861 -0.0195298 -0.14939 -0.161943 -0.975427 2 
0.12646 0.25358 -0.0194228 -0.14939 -0.161943 -0.975427 2 
0.127058 0.253484 -0.0197869 -0.14939 -0.161943 -0.975427 2 
0.126869 0.25323 -0.0197836 -0.14939 -0.161943 -0.975427 2 
0.12681 0.253156 -0.0197512 -0.14939 -0.161943 -0.975427 2 
0.126522 0.25318 -0.0192968 -0.148779 -0.156281 -0.976443 2 
0.126312 0.25306 -0.0193355 -0.131626 -0.146388 -0.980431 2 
0.126308 0.252863 -0.0194817 -0.131626 -0.146388 -0.980431 2 
0.126281 0.253945 -0.0198409 -0.352063 0.208364 -0.912489 2 
0.12851 0.25334 -0.0202459 -0.508524 -0.0835735 -0.856983 2 
0.128212 0.253445 -0.0202422 -0.311657 0.0659523 -0.947903 2 
0.128144 0.252865 -0.0201453 -0.52803 -0.208473 -0.82324 2 
0.127969 0.254098 -0.0204297 -0.14939 -0.161943 -0.975427 2 
0.127759 0.253307 -0.020456 -0.14939 -0.161943 -0.975427 2 
0.127573 0.253921 -0.0203191 -0.14939 -0.161943 -0.975427 2 
0.127307 0.252582 -0.0201545 -0.123547 -0.212705 -0.969274 2 
0.127261 0.25321 -0.0200404 -0.14939 -0.161943 -0.975427 2 
0.127224 0.253116 -0.0203227 -0.14939 -0.161943 -0.975427 2 
0.12673 0.252545 -0.0197484 -0.148779 -0.156281 -0.976443 2 
0.126711 0.253462 -0.0201596 -0.14939 -0.161943 -0.975427 2 
0.126626 0.253212 -0.0199586 -0.14939 -0.161943 -0.975427 2 
0.126808 0.253072 -0.0202542 -0.14939 -0.161943 -0.975427 2 
0.126189 0.253302 -0.0199323 -0.334938 0.206664 -0.919297 2 
0.134269 0.24442 -0.0171505 0.473983 -0.337654 -0.813222 2 
0.133572 0.246164 -0.0172198 0.169421 -0.660895 -0.731105 2 
0.133557 0.245936 -0.01746 0.169421 -0.660895 -0.731105 2 
0.134235 0.24578 -0.0178144 0.169421 -0.660895 -0.731105 2 
0.134445 0.245229 -0.0177632 0.169421 -0.660895 -0.731105 2 
0.134047 0.244968 -0.0181556 0.169421 -0.660895 -0.731105 2 
0.134122 0.24527 -0.0179478 0.169421 -0.660895 -0.731105 2 
0.133996 0.245958 -0.0178433 0.169421 -0.660895 -0.731105 2 
0.133707 0.24601 -0.0182485 0.4788 -0.535522 -0.695678 2 
0.133579 0.245915 -0.0177748 0.4788 -0.535522 -0.695678 2 
0.13344 0.2459 -0.0177519 0.4788 -0.535522 -0.695678 2 
0.133263 0.245679 -0.0176546 0.4788 -0.535522 -0.695678 2 
0.133463 0.24588 -0.0180667 0.4788 -0.535522 -0.695678 2 
0.133244 0.245925 -0.0180535 0.4788 -0.535522 -0.695678 2 
0.133227 0.245584 -0.0179369 0.4788 -0.535522 -0.695678 2 
0.133329 0.245504 -0.018242 0.4788 -0.535522 -0.695678 2 
0.133225 0.245471 -0.0175801 0.4788 -0.535522 -0.695678 2 
0.133036 0.245218 -0.0175769 0.4788 -0.535522 -0.695678 2 
0.133289 0.245184 -0.0178108 0.4788 -0.535522 -0.695678 2 
0.132957 0.244719 -0.0179309 0.4788 -0.535522 -0.695678 2 
0.133117 0.245271 -0.0179241 0.4788 -0.535522 -0.695678 2 
0.133152 0.245953 -0.0181571 0.4788 -0.535522 -0.695678 2 
0.132951 0.245668 -0.0182481 0.4788 -0.535522 -0.695678 2 
0.133749 0.245073 -0.018152 0.4788 -0.535522 -0.695678 2 
0.133771 0.245052 -0.0184667 0.4788 -0.535522 -0.695678 2 
0.133768 0.246197 -0.0186377 0.4788 -0.535522 -0.695678 2 
0.133731 0.246102 -0.01892 0.4788 -0.535522 -0.695678 2 
0.133178 0.245458 -0.0183133 0.4788 -0.535522 -0.695678 2 
0.132966 0.244554 -0.017983 0.4788 -0.535522 -0.695678 2 
0.13306 0.24531 -0.0182484 0.4788 -0.535522 -0.695678 2 
0.132964 0.245141 -0.0184983 0.4788 -0.535522 -0.695678 2 
0.132956 0.245977 -0.0184587 0.4788 -0.535522 -0.695678 2 
0.132671 0.246226 -0.0187178 0.551482 -0.527871 -0.645925 2 
0.132919 0.245882 -0.018741 0.4788 -0.535522 -0.695678 2 
0.132825 0.245826 -0.0193476 0.551482 -0.527871 -0.645925 2 
0.131949 0.245923 -0.0197977 0.825096 -0.242131 -0.51048 2 
0.124275 0.256027 -0.0298431 -0.492311 0.11626 -0.86262 2 
0.124932 0.256704 -0.0311118 -0.581583 0.0728766 -0.810216 2 
0.123993 0.258371 -0.0296365 -0.362963 0.678298 -0.638881 2 
0.125501 0.258105 -0.030274 -0.346432 0.58064 -0.736778 2 
0.125109 0.258125 -0.0300174 -0.325489 0.623448 -0.710893 2 
0.124956 0.257995 -0.0305916 -0.508396 -0.0203358 -0.860883 2 
0.124671 0.258215 -0.029991 -0.322385 0.649631 -0.688511 2 
0.124845 0.258241 -0.0302345 -0.375722 0.426452 -0.822783 2 
0.124276 0.258039 -0.0298804 -0.409557 0.464597 -0.78512 2 
0.124428 0.258197 -0.030166 -0.504752 -0.0398851 -0.862342 2 
0.12438 0.258071 -0.0305424 -0.536493 -0.105563 -0.837276 2 
0.123963 0.258028 -0.0304739 -0.478043 0.179081 -0.859886 2 
0.125011 0.257873 -0.0307703 -0.52674 0.0572848 -0.848094 2 
0.124344 0.257418 -0.0311691 -0.571964 -0.0698909 -0.817296 2 
0.124574 0.257963 -0.0307438 -0.546452 -0.127457 -0.827735 2 
0.124558 0.257735 -0.0309841 -0.553126 -0.0040771 -0.833087 2 
0.124062 0.257751 -0.0309252 -0.572992 -0.295274 -0.764521 2 
0.124098 0.257846 -0.0306428 -0.54531 -0.114879 -0.830325 2 
0.124351 0.25647 -0.0308518 -0.631114 -0.27184 -0.726497 2 
0.124386 0.257152 -0.0310849 -0.607334 -0.155224 -0.779135 2 
0.12415 0.256856 -0.0309552 -0.604629 -0.141827 -0.783778 2 
0.123869 0.256602 -0.0301959 -0.475036 0.0854785 -0.875805 2 
0.12382 0.256475 -0.0305724 -0.480963 0.119164 -0.868605 2 
0.124024 0.257544 -0.0308506 -0.593646 -0.194814 -0.78079 2 
0.123732 0.257371 -0.0305424 -0.538324 0.0232863 -0.842416 2 
0.123387 0.257433 -0.0304121 -0.474392 0.0283824 -0.879856 2 
0.124074 0.257112 -0.0308187 -0.614586 -0.219384 -0.75773 2 
0.123817 0.25695 -0.0307309 -0.530556 0.0839218 -0.843485 2 
0.123567 0.25718 -0.0303509 -0.473342 0.033907 -0.880226 2 
0.123758 0.256876 -0.0306985 -0.519538 0.0987551 -0.848721 2 
0.12368 0.25836 -0.03023 -0.433785 0.0225515 -0.900734 2 
0.123349 0.257896 -0.0303501 -0.480734 -0.0201989 -0.876634 2 
0.123581 0.257995 -0.0306261 -0.49353 -0.0229863 -0.869425 2 
0.126889 0.253696 -0.031632 -0.779815 -0.161393 -0.604847 2 
0.126784 0.253693 -0.0318298 -0.779815 -0.161393 -0.604847 2 
0.12675 0.253682 -0.0316092 -0.774019 -0.168133 -0.61043 2 
0.126573 0.25346 -0.0315118 -0.839545 -0.161965 -0.518586 2 
0.126687 0.253412 -0.0317229 -0.838623 -0.1553 -0.522105 2 
0.126864 0.252263 -0.0309356 -0.958812 0.0159597 -0.283592 2 
0.126736 0.252196 -0.0313216 -0.965669 0.02815 -0.258246 2 
0.126722 0.252723 -0.0310714 -0.936961 -0.108886 -0.332036 2 
0.126599 0.252965 -0.0316679 -0.906833 -0.0979987 -0.409938 2 
0.126698 0.25266 -0.0312595 -0.936961 -0.108886 -0.332036 2 
0.126661 0.252565 -0.0315418 -0.936961 -0.108886 -0.332036 2 
0.126611 0.252997 -0.0315738 -0.906833 -0.0979987 -0.409938 2 
0.126498 0.253158 -0.0317197 -0.866549 -0.153436 -0.474921 2 
0.127497 0.252877 -0.0323924 -0.901849 -0.0118146 -0.43189 2 
0.126828 0.253539 -0.0321025 -0.788474 -0.148119 -0.596966 2 
0.126689 0.253524 -0.0320797 -0.795142 -0.160832 -0.584707 2 
0.126892 0.253251 -0.0323332 -0.828498 -0.136857 -0.543012 2 
0.126699 0.252102 -0.0316039 -0.965669 0.02815 -0.258246 2 
0.126624 0.25247 -0.0318241 -0.936961 -0.108886 -0.332036 2 
0.126447 0.252249 -0.0317268 -0.968634 -0.0454239 -0.244307 2 
0.126461 0.253064 -0.0320019 -0.901274 -0.125138 -0.414783 2 
0.126444 0.252723 -0.0318854 -0.929278 -0.115989 -0.350697 2 
0.126664 0.25279 -0.0322555 -0.928387 -0.115878 -0.353087 2 
0.126799 0.252608 -0.0324244 -0.967068 -0.0532445 -0.248887 2 
0.126501 0.252713 -0.0324208 -0.932455 -0.106914 -0.345103 2 
0.126324 0.252491 -0.0323234 -0.945071 -0.0771219 -0.317638 2 
0.126366 0.252895 -0.0322518 -0.924506 -0.116419 -0.362954 2 
0.126348 0.252554 -0.0321353 -0.934457 -0.120706 -0.334994 2 
0.126411 0.252154 -0.0320092 -0.969616 -0.00834847 -0.244491 2 
0.123215 0.25545 -0.0287687 -0.389603 0.304043 -0.869349 1 
0.122868 0.25677 -0.0291663 -0.44996 0.0701772 -0.890287 1 
0.122731 0.256169 -0.0286281 -0.417653 0.131667 -0.899016 1 
0.122622 0.257897 -0.0295123 -0.42126 -0.0144357 -0.906825 1 
0.123035 0.259085 -0.0297519 -0.201417 -0.965503 0.165032 1 
0.122756 0.258273 -0.0293369 -0.468351 0.121743 -0.875115 1 
0.122339 0.25823 -0.0292684 -0.404459 -0.112581 -0.9076 1 
0.12201 0.257178 -0.0288732 -0.365239 0.0271025 -0.930519 1 
0.122153 0.256831 -0.0290942 -0.381671 0.0462231 -0.923142 1 
0.121319 0.257303 -0.0286129 -0.389255 -0.00642335 -0.921108 1 
0.121631 0.257342 -0.0288792 -0.353743 0.00125887 -0.935342 1 
0.120534 0.25533 -0.0280622 0.0403537 -0.969711 0.240899 1 
0.119707 0.260106 -0.0270063 -0.642958 -0.229963 -0.730563 1 
0.119703 0.26058 -0.0271649 -0.653809 -0.282944 -0.701766 1 
0.118922 0.260175 -0.0273527 -0.66895 -0.169142 -0.723807 1 
0.118544 0.259668 -0.0273462 -0.659992 -0.0797793 -0.747024 1 
0.118776 0.259096 -0.0276097 -0.647854 -0.10773 -0.754108 1 
0.118891 0.259718 -0.0278331 -0.643328 -0.168816 -0.746747 1 
0.122114 0.259223 -0.0295724 -0.414293 -0.207883 -0.886085 1 
0.121524 0.258484 -0.029248 -0.389939 -0.082879 -0.917104 1 
0.121196 0.259557 -0.0292468 -0.46263 -0.238141 -0.853969 1 
0.120557 0.257322 -0.0284142 -0.442075 0.0362797 -0.896244 1 
0.120788 0.258678 -0.029218 -0.459939 -0.130388 -0.878325 1 
0.120691 0.258397 -0.029111 -0.439996 -0.0334343 -0.897377 1 
0.120931 0.260231 -0.0291195 -0.469904 -0.109313 -0.875923 1 
0.120237 0.260829 -0.0290178 -0.596989 -0.17773 -0.782314 1 
0.119857 0.260881 -0.028667 -0.61843 -0.158766 -0.769635 1 
0.11984 0.26054 -0.0285504 -0.504045 -0.0175673 -0.863499 1 
0.120018 0.260204 -0.0289922 -0.655492 -0.34491 -0.671839 1 
0.120036 0.260544 -0.0291087 -0.593646 -0.194814 -0.78079 1 
0.11998 0.260667 -0.0289301 -0.606294 -0.171707 -0.776482 1 
0.119803 0.260445 -0.0288327 -0.517983 -0.020393 -0.855148 1 
0.120271 0.259499 -0.0292135 -0.527995 -0.185024 -0.828847 1 
0.120221 0.25993 -0.0292456 -0.567435 -0.180066 -0.803488 1 
0.119909 0.259891 -0.0289793 -0.602547 -0.184578 -0.776446 1 
0.119586 0.259233 -0.0282917 -0.587354 -0.100564 -0.803058 1 
0.119654 0.259142 -0.0283762 -0.579101 -0.0909809 -0.810163 1 
0.119231 0.258676 -0.0277403 -0.63826 -0.0616746 -0.767346 1 
0.11946 0.259921 -0.0281872 -0.642327 -0.175458 -0.746076 1 
0.119423 0.259826 -0.0284695 -0.611548 -0.171476 -0.772402 1 
0.119132 0.259653 -0.0281612 -0.623741 -0.12297 -0.771898 1 
0.118847 0.259901 -0.0284202 -0.630348 -0.188644 -0.753044 1 
0.119744 0.2597 -0.0287879 -0.592825 -0.171328 -0.786896 1 
0.118917 0.259224 -0.0279893 -0.667952 -0.139594 -0.730995 1 
0.118984 0.259803 -0.0280862 -0.627386 -0.175546 -0.758664 1 
0.118866 0.259655 -0.0280214 -0.626989 -0.168513 -0.760584 1 
0.118989 0.259442 -0.0282845 -0.621545 -0.113679 -0.775086 1 
0.118849 0.259315 -0.0279048 -0.653735 -0.126577 -0.746062 1 
0.120094 0.259277 -0.0291162 -0.548593 -0.159944 -0.820648 1 
0.120068 0.259101 -0.0289476 -0.54641 -0.136971 -0.826242 1 
0.120009 0.259027 -0.0289152 -0.542127 -0.111914 -0.832811 1 
0.119971 0.25949 -0.0288531 -0.587999 -0.141417 -0.796404 1 
0.119853 0.259343 -0.0287882 -0.582222 -0.125288 -0.803319 1 
0.119732 0.259669 -0.028882 -0.592825 -0.171328 -0.786896 1 
0.119786 0.258035 -0.0269594 -0.605914 0.00412186 -0.79552 1 
0.119834 0.25819 -0.0274428 -0.588334 -0.0292081 -0.80809 1 
0.118658 0.257578 -0.0266602 -0.571538 0.060983 -0.818306 1 
0.118231 0.258958 -0.0270675 -0.641865 -0.0352673 -0.766006 1 
0.118615 0.258432 -0.0272597 -0.631566 -0.00690991 -0.775292 1 
0.118582 0.258534 -0.0273958 -0.642616 -0.0238006 -0.765819 1 
0.118105 0.258304 -0.0269381 -0.608433 0.0293726 -0.793061 1 
0.117575 0.257751 -0.027003 -0.581957 0.0552222 -0.811342 1 
0.117398 0.257529 -0.0269056 -0.558042 0.0756425 -0.826358 1 
0.117152 0.257286 -0.026367 -0.584819 0.0729236 -0.807879 1 
0.116933 0.257331 -0.0263538 -0.613539 0.0884773 -0.784692 1 
0.117372 0.257354 -0.026737 -0.579129 0.0668773 -0.812488 1 
0.117115 0.257191 -0.0266493 -0.443437 0.187098 -0.876561 1 
0.11728 0.257382 -0.0268408 -0.579129 0.0668773 -0.812488 1 
0.11656 0.257134 -0.0265581 -0.584944 0.0943458 -0.805568 1 
0.116766 0.257057 -0.0266653 -0.561394 0.0520591 -0.82591 1 
0.120106 0.257267 -0.0281251 -0.53273 -0.0177122 -0.8461 1 
0.120167 0.256783 -0.0285019 -0.530996 0.0487791 -0.845969 1 
0.119856 0.256856 -0.0285924 -0.544418 0.0346322 -0.838099 1 
0.119679 0.256635 -0.028495 -0.588273 -0.0581185 -0.806571 1 
0.119481 0.256546 -0.0284398 -0.593128 -0.119214 -0.796233 1 
0.119384 0.256265 -0.0283329 -0.614658 -0.268417 -0.741719 1 
0.11983 0.257351 -0.0284362 -0.546843 -0.00407079 -0.837225 1 
0.119629 0.257066 -0.0285271 -0.540298 -0.0205176 -0.841224 1 
0.119492 0.257835 -0.0288735 -0.513076 0.0287322 -0.857862 1 
0.119535 0.256982 -0.028274 -0.564391 0.00135998 -0.825507 1 
0.119101 0.256598 -0.028089 -0.595955 -0.541931 -0.592578 1 
0.118761 0.255599 -0.0272848 0.066727 0.963135 -0.260613 1 
0.118461 0.256261 -0.0269369 -0.495775 0.24405 -0.833455 1 
0.118768 0.256021 -0.0278523 -0.582018 -0.372164 -0.723014 1 
0.118588 0.256273 -0.0279135 -0.547228 -0.476941 -0.6878 1 
0.1189 0.256313 -0.0281799 -0.599529 -0.336321 -0.726259 1 
0.118803 0.256031 -0.0280729 -0.623563 -0.251004 -0.740382 1 
0.118805 0.258127 -0.0276073 -0.628881 -0.00137611 -0.7775 1 
0.11846 0.258189 -0.0274772 -0.608548 -0.00965949 -0.793458 1 
0.118057 0.25762 -0.0276589 -0.569351 0.00135883 -0.822094 1 
0.118044 0.258146 -0.0274086 -0.601086 0.00687741 -0.799155 1 
0.119208 0.258055 -0.0282728 -0.601649 -0.0350611 -0.797991 1 
0.117877 0.256502 -0.0268355 -0.524382 0.245949 -0.815189 1 
0.117653 0.257608 -0.0274963 -0.582087 0.0263953 -0.812698 1 
0.117715 0.257208 -0.0273701 -0.546452 0.127457 -0.827735 1 
0.117374 0.257466 -0.0270939 -0.545703 0.0722879 -0.834855 1 
0.117141 0.256697 -0.0268055 -0.56306 0.0969794 -0.820706 1 
0.123127 0.257045 -0.0296108 -0.427597 0.0783699 -0.900566 1 
0.123175 0.2572 -0.0300942 -0.432166 0.0754576 -0.898631 1 
0.123613 0.256411 -0.0292484 -0.438023 0.0931668 -0.894123 1 
0.123311 0.256319 -0.029391 -0.432431 0.0931603 -0.896842 1 
0.123109 0.256704 -0.0294943 -0.431464 0.0901774 -0.897612 1 
0.122918 0.256338 -0.0291343 -0.447672 0.073005 -0.891212 1 
0.123074 0.256023 -0.0292612 -0.460108 0.0999011 -0.882225 1 
0.122719 0.256166 -0.029582 -0.404965 0.0717831 -0.91151 1 
0.122944 0.255843 -0.0292904 -0.456637 0.149313 -0.877034 1 
0.12229 0.256091 -0.0296076 -0.408231 0.0718813 -0.910044 1 
0.122335 0.255379 -0.0302247 -0.359681 0.212342 -0.908593 1 
0.12212 0.255621 -0.0300653 -0.389572 0.129857 -0.911795 1 
0.123478 0.258634 -0.0299765 -0.500369 -0.0370136 -0.865021 1 
0.122891 0.25812 -0.0303657 -0.456981 -0.0504725 -0.888043 1 
0.123009 0.257568 -0.0295584 -0.412736 0.0196541 -0.910639 1 
0.122832 0.257346 -0.0294611 -0.410889 0.0385624 -0.91087 1 
0.122972 0.257473 -0.0298407 -0.41784 0.025044 -0.908175 1 
0.122953 0.257719 -0.0302396 -0.427947 0.0415873 -0.902847 1 
0.12275 0.257993 -0.029986 -0.420458 -0.00390518 -0.907304 1 
0.122725 0.258487 -0.0298299 -0.464102 -0.0794409 -0.882212 1 
0.122464 0.258799 -0.0299008 -0.429966 -0.150991 -0.89013 1 
0.12252 0.258677 -0.0300794 -0.463777 -0.121296 -0.877609 1 
0.122723 0.258404 -0.0303329 -0.460409 -0.0337544 -0.887065 1 
0.122688 0.258393 -0.0301122 -0.460409 -0.0337544 -0.887065 1 
0.122443 0.258262 -0.0299304 -0.440434 -0.0586337 -0.895868 1 
0.12194 0.256515 -0.0292792 -0.386988 0.0629358 -0.919934 1 
0.121725 0.256756 -0.0291198 -0.380241 0.0516704 -0.923443 1 
0.122063 0.256301 -0.0295423 -0.421729 0.0637339 -0.904479 1 
0.122189 0.256284 -0.0296593 -0.404087 0.0466767 -0.913529 1 
0.121874 0.256048 -0.029539 -0.381152 0.0969957 -0.91941 1 
0.121468 0.256594 -0.0290321 -0.362634 0.0458202 -0.930804 1 
0.121849 0.255985 -0.0297273 -0.367957 0.0849131 -0.925958 1 
0.121783 0.254847 -0.0299748 -0.0940905 0.459218 -0.883327 1 
0.121943 0.255399 -0.0299679 -0.328413 0.255433 -0.90934 1 
0.12123 0.256215 -0.0294053 -0.323228 0.152674 -0.933924 1 
0.120952 0.256186 -0.0293597 -0.353582 0.140046 -0.92486 1 
0.120763 0.255932 -0.0293564 -0.348362 0.107084 -0.931223 1 
0.119942 0.255877 -0.0291253 -0.482412 -0.586626 -0.650499 1 
0.121513 0.255882 -0.0296492 -0.345382 0.237541 -0.907902 1 
0.121636 0.255668 -0.0299123 -0.341466 0.256466 -0.904227 1 
0.121542 0.255584 -0.0296592 -0.29765 0.345513 -0.889958 1 
0.121155 0.255913 -0.0296131 -0.31333 0.198114 -0.928749 1 
0.121205 0.255481 -0.0295811 -0.257519 0.318625 -0.912229 1 
0.121505 0.255489 -0.0299415 -0.250395 0.40333 -0.880129 1 
0.121408 0.255208 -0.0298346 -0.146261 0.464851 -0.873225 1 
0.120242 0.255885 -0.0294858 -0.48497 -0.481659 -0.729937 1 
0.120183 0.255811 -0.0294533 -0.495726 -0.50574 -0.706033 1 
0.122464 0.254217 -0.0301706 0.255405 -0.851858 -0.457281 1 
0.122267 0.254799 -0.0301278 -0.205111 0.426455 -0.880946 1 
0.120107 0.256068 -0.0293168 -0.513425 -0.500045 -0.697388 1 
0.117837 0.260093 -0.026122 -0.690812 -0.0382996 -0.722019 1 
0.117094 0.260537 -0.025537 -0.702239 -0.0411413 -0.710751 1 
0.117118 0.260629 -0.0262085 -0.720945 -0.0739803 -0.689032 1 
0.117193 0.26026 -0.0259883 -0.719225 -0.0799139 -0.690166 1 
0.116868 0.260189 -0.025816 -0.69702 -0.0238417 -0.716655 1 
0.115716 0.25897 -0.0248329 -0.721277 0.117486 -0.68261 1 
0.116622 0.260616 -0.0252899 -0.686504 0.189753 -0.701931 1 
0.11644 0.260756 -0.0249944 -0.704459 0.16962 -0.689178 1 
0.116147 0.260499 -0.025189 -0.678229 0.203313 -0.706165 1 
0.115838 0.260656 -0.0247765 -0.536025 0.443092 -0.718572 1 
0.11683 0.260652 -0.025754 -0.710677 -0.0441503 -0.702132 1 
0.116907 0.260396 -0.0258905 -0.707432 -0.0559632 -0.704562 1 
0.11661 0.260585 -0.025384 -0.707853 0.101542 -0.699023 1 
0.116574 0.26049 -0.0256663 -0.708077 0.0353332 -0.705251 1 
0.116397 0.260268 -0.025569 -0.678229 0.203313 -0.706165 1 
0.116379 0.260598 -0.0254648 -0.686504 0.189753 -0.701931 1 
0.116182 0.26051 -0.0254096 -0.695487 0.202915 -0.689291 1 
0.116178 0.260313 -0.0255558 -0.686504 0.189753 -0.701931 1 
0.11657 0.260293 -0.0258124 -0.704039 0.0267001 -0.70966 1 
0.11649 0.260353 -0.0258221 -0.703752 0.038232 -0.709416 1 
0.116478 0.260321 -0.0259161 -0.711236 0.00974296 -0.702885 1 
0.11636 0.260173 -0.0258513 -0.710892 0.0353326 -0.702413 1 
0.115595 0.260638 -0.0249515 -0.536025 0.443092 -0.718572 1 
0.115774 0.260301 -0.0253932 -0.613932 0.328834 -0.717604 1 
0.115656 0.260154 -0.0253283 -0.600593 -0.546455 -0.583674 1 
0.116112 0.259846 -0.0258156 -0.689607 0.0647856 -0.72128 1 
0.115994 0.259698 -0.0257508 -0.760819 0.0497732 -0.647052 1 
0.115779 0.25994 -0.0255913 -0.702765 -0.261752 -0.661519 1 
0.115657 0.259596 -0.0256726 -0.744803 0.0648281 -0.664128 1 
0.115718 0.260424 -0.0252146 -0.593401 0.358002 -0.720909 1 
0.118256 0.261732 -0.0277888 -0.638952 -0.304186 -0.706549 1 
0.118379 0.261519 -0.0280518 -0.64719 -0.282846 -0.707914 1 
0.118376 0.260623 -0.0273258 -0.676757 -0.0983574 -0.729606 1 
0.118393 0.260963 -0.0274424 -0.672544 -0.139925 -0.726709 1 
0.118161 0.260864 -0.0271664 -0.686003 -0.114087 -0.718599 1 
0.118251 0.261423 -0.0275782 -0.681385 -0.203329 -0.703115 1 
0.118151 0.261616 -0.0276298 -0.677409 -0.237329 -0.69627 1 
0.117921 0.261043 -0.0271953 -0.70116 -0.0922194 -0.707015 1 
0.118579 0.26035 -0.0275793 -0.669081 -0.114233 -0.734358 1 
0.118584 0.260659 -0.02779 -0.67031 -0.117416 -0.732733 1 
0.118542 0.260255 -0.0278616 -0.662436 -0.133085 -0.737203 1 
0.118468 0.260623 -0.0280819 -0.659551 -0.130116 -0.740312 1 
0.118426 0.260191 -0.0272938 -0.668138 -0.0921065 -0.738314 1 
0.118339 0.260528 -0.0276081 -0.67424 -0.0921412 -0.732742 1 
0.118806 0.260139 -0.0276446 -0.65336 -0.142688 -0.743479 1 
0.118592 0.259823 -0.0278295 -0.646567 -0.168868 -0.743932 1 
0.118567 0.260318 -0.0276734 -0.67031 -0.117416 -0.732733 1 
0.11853 0.260223 -0.0279557 -0.652701 -0.107556 -0.749943 1 
0.118301 0.260991 -0.027546 -0.677246 -0.153024 -0.719668 1 
0.118277 0.260928 -0.0277342 -0.673807 -0.15596 -0.722261 1 
0.118239 0.261392 -0.0276723 -0.681368 -0.21361 -0.700078 1 
0.118138 0.261584 -0.0277239 -0.672499 -0.237816 -0.700848 1 
0.118079 0.26151 -0.0276915 -0.675437 -0.230369 -0.700511 1 
0.118055 0.261447 -0.0278796 -0.670352 -0.213082 -0.710791 1 
0.118417 0.261055 -0.0281139 -0.658081 -0.23716 -0.714622 1 
0.118246 0.261143 -0.0282273 -0.658254 -0.244675 -0.711924 1 
0.118265 0.260897 -0.0278284 -0.671827 -0.159237 -0.723389 1 
0.118228 0.260802 -0.0281107 -0.639049 -0.510902 -0.574975 1 
0.118202 0.261297 -0.0279545 -0.659344 -0.230222 -0.715725 1 
0.117347 0.26056 -0.0274904 -0.696771 -0.0678017 -0.714082 1 
0.117654 0.261632 -0.0275709 -0.683946 -0.226939 -0.693337 1 
0.117682 0.261221 -0.0272241 -0.704281 -0.0893163 -0.704281 1 
0.117358 0.26115 -0.0270519 -0.702092 -0.0770411 -0.707906 1 
0.117722 0.261541 -0.0276554 -0.68347 -0.199926 -0.702067 1 
0.118585 0.260101 -0.0281343 -0.643467 -0.199058 -0.739139 1 
0.118443 0.26056 -0.0282701 -0.655917 -0.120475 -0.745157 1 
0.118615 0.259802 -0.0281443 -0.644606 -0.159256 -0.747743 1 
0.11852 0.260975 -0.028419 -0.629358 -0.34819 -0.694746 1 
0.118263 0.260813 -0.0283313 -0.659668 -0.209542 -0.721755 1 
0.117611 0.259745 -0.0264011 -0.688421 -0.0589254 -0.722914 1 
0.117574 0.259651 -0.0266835 -0.68066 -0.0382075 -0.731603 1 
0.117852 0.259009 -0.0267167 -0.634881 0.00413155 -0.772599 1 
0.117435 0.258966 -0.0266482 -0.649982 0.0266731 -0.759482 1 
0.117338 0.258684 -0.0265413 -0.640554 0.0527851 -0.766097 1 
0.117397 0.259429 -0.0265861 -0.677411 -0.00415589 -0.735593 1 
0.11722 0.259207 -0.0264888 -0.677797 0.0353756 -0.734398 1 
0.117408 0.260019 -0.0261476 -0.702239 -0.0411413 -0.710751 1 
0.117188 0.26065 -0.0266498 -0.694788 -0.0768763 -0.715095 1 
0.117231 0.259797 -0.0260503 -0.700124 -0.00693192 -0.713988 1 
0.117274 0.259643 -0.0263231 -0.691579 -0.0125236 -0.722192 1 
0.117215 0.259569 -0.0262906 -0.685996 -0.00692926 -0.727572 1 
0.116814 0.259753 -0.0259818 -0.673945 0.0238193 -0.738397 1 
0.116719 0.259585 -0.0262317 -0.679775 0.0558131 -0.731294 1 
0.117001 0.259252 -0.0264756 -0.675252 0.0559126 -0.735465 1 
0.117957 0.259125 -0.0268757 -0.646232 -0.03818 -0.762186 1 
0.117402 0.259767 -0.0276565 -0.682071 -0.0382867 -0.730283 1 
0.116517 0.2593 -0.0263226 -0.721485 0.0588089 -0.689929 1 
0.116541 0.257351 -0.026097 -0.616856 0.0733326 -0.783652 1 
0.116517 0.257288 -0.0262853 -0.616226 0.0643391 -0.784937 1 
0.116948 0.260829 -0.0266787 -0.728673 -0.0499091 -0.683041 1 
0.116887 0.260642 -0.0262894 -0.725584 -0.0617824 -0.685354 1 
0.116873 0.260527 -0.0268864 -0.722974 -0.0558337 -0.688615 1 
0.116516 0.259858 -0.0259782 -0.686915 0.0266899 -0.726248 1 
0.116302 0.259542 -0.0261632 -0.741773 0.0737436 -0.666584 1 
0.116829 0.256657 -0.0265391 -0.541905 0.133641 -0.829746 1 
0.116664 0.256467 -0.0263477 -0.540624 0.0813076 -0.837326 1 
0.11669 0.256642 -0.0265163 -0.549617 0.0318418 -0.834809 1 
0.116376 0.257161 -0.0259057 -0.398044 0.161215 -0.903089 1 
0.116106 0.256854 -0.0255552 -0.703752 0.038232 -0.709416 1 
0.116263 0.257322 -0.0260514 -0.256592 0.18328 -0.948983 1 
0.116246 0.256981 -0.025935 -0.638216 0.0237411 -0.769491 1 
0.116327 0.257034 -0.0262821 -0.620627 0.0497069 -0.782529 1 
0.117058 0.246281 -0.0312718 -0.542465 -0.00135278 -0.840077 1 
0.117542 0.246234 -0.0314247 -0.432832 0.0583441 -0.899585 1 
0.117512 0.245861 -0.0314023 -0.449644 0.0335555 -0.892577 1 
0.116936 0.245937 -0.031353 -0.528668 0.00134521 -0.848828 1 
0.118776 0.244236 -0.03219 -0.423693 0.0414337 -0.904858 1 
0.117829 0.245539 -0.0318668 -0.442914 0.0474067 -0.89531 1 
0.117939 0.245852 -0.0318796 -0.451821 0.0308364 -0.891576 1 
0.118381 0.245401 -0.0321043 -0.445258 0.0390105 -0.894552 1 
0.117745 0.24596 -0.0316782 -0.446465 0.0308369 -0.89427 1 
0.117543 0.245676 -0.0317691 -0.453797 0.0447024 -0.889983 1 
0.117217 0.245492 -0.0312401 -0.520412 -0.0040342 -0.853906 1 
0.117073 0.245168 -0.0310066 -0.542283 -0.0150255 -0.840061 1 
0.116969 0.245164 -0.0312044 -0.533509 -0.00950271 -0.845741 1 
0.116783 0.245778 -0.0310675 -0.55188 -0.00135597 -0.833922 1 
0.116573 0.245658 -0.0311063 -0.566921 -0.00683038 -0.823744 1 
0.116315 0.244713 -0.0306494 -0.586511 0.0292559 -0.809413 1 
0.116627 0.244752 -0.0309157 -0.571319 0.00959049 -0.820672 1 
0.11629 0.24465 -0.0308376 -0.586511 0.0292559 -0.809413 1 
0.11542 0.244327 -0.0297664 -0.647309 0.297152 -0.70192 1 
0.115428 0.244162 -0.0298184 -0.643128 0.293497 -0.70728 1 
0.115982 0.244806 -0.0304251 -0.600904 0.02649 -0.798882 1 
0.115593 0.244352 -0.0300098 -0.638945 0.165428 -0.751254 1 
0.115666 0.24457 -0.030305 -0.639269 0.126662 -0.75848 1 
0.115544 0.244226 -0.0303862 -0.638945 0.165428 -0.751254 1 
0.116101 0.244396 -0.0308344 -0.595411 0.0494997 -0.801895 1 
0.115945 0.244712 -0.0307074 -0.600904 0.02649 -0.798882 1 
0.115869 0.244297 -0.0305585 -0.626572 0.11352 -0.771052 1 
0.115751 0.244149 -0.0304936 -0.631389 0.149183 -0.760982 1 
0.115753 0.244233 -0.0299906 -0.637023 0.216494 -0.739819 1 
0.115426 0.244078 -0.0303214 -0.641947 0.226478 -0.732538 1 
0.115445 0.243832 -0.0299225 -0.621888 0.362631 -0.694085 1 
0.115239 0.243908 -0.0298152 -0.62577 0.406668 -0.665607 1 
0.115232 0.243515 -0.0301075 -0.579627 0.495623 -0.64683 1 
0.115452 0.243583 -0.0304775 -0.60808 0.362226 -0.706422 1 
0.115414 0.244046 -0.0304155 -0.641947 0.226478 -0.732538 1 
0.115409 0.243737 -0.0302048 -0.615682 0.366126 -0.697773 1 
0.115096 0.243698 -0.0299385 -0.548509 0.565386 -0.616017 1 
0.115253 0.243382 -0.0300654 -0.534897 0.585518 -0.609142 1 
0.118473 0.244031 -0.0319757 -0.423693 0.0414337 -0.904858 1 
0.117676 0.244039 -0.0315564 -0.496072 0.0453473 -0.867096 1 
0.117558 0.243892 -0.0314916 -0.50361 0.0370504 -0.863136 1 
0.117369 0.243638 -0.0314883 -0.524216 0.0401115 -0.85064 1 
0.118957 0.243984 -0.0321287 -0.450845 0.0199489 -0.89238 1 
0.1187 0.243821 -0.032041 -0.442406 0.0145268 -0.896697 1 
0.118358 0.243409 -0.0317523 -0.429371 0.0305744 -0.90261 1 
0.117897 0.244107 -0.0319265 -0.457136 0.0364091 -0.888651 1 
0.117761 0.243618 -0.031745 -0.453797 0.0447024 -0.889983 1 
0.117192 0.243416 -0.0313911 -0.539877 0.0546889 -0.839965 1 
0.117411 0.244713 -0.0314291 -0.522389 0.0204591 -0.852462 1 
0.117361 0.244474 -0.0314487 -0.522389 0.0204591 -0.852462 1 
0.117588 0.244935 -0.0315264 -0.490144 0.0147715 -0.871516 1 
0.117158 0.244747 -0.0311952 -0.543696 0.00406755 -0.839272 1 
0.117614 0.24444 -0.0316826 -0.491272 0.0174974 -0.87083 1 
0.117116 0.244343 -0.0312669 -0.547372 0.0150152 -0.836755 1 
0.116982 0.243967 -0.0314423 -0.551682 0.0519395 -0.832436 1 
0.117391 0.245517 -0.0314835 -0.528352 -0.0149405 -0.848894 1 
0.116177 0.243469 -0.0309585 -0.590227 0.177523 -0.787475 1 
0.11633 0.243628 -0.031244 -0.583578 0.0941255 -0.806583 1 
0.116153 0.243406 -0.0311467 -0.590227 0.177523 -0.787475 1 
0.11616 0.243129 -0.0308419 -0.588807 0.274565 -0.760211 1 
0.115625 0.242938 -0.0307086 -0.564985 0.454988 -0.688315 1 
0.116224 0.244183 -0.0310975 -0.593369 0.0672008 -0.802121 1 
0.115912 0.244143 -0.0308311 -0.624563 0.116644 -0.772214 1 
0.115894 0.243802 -0.0307146 -0.621871 0.178769 -0.762442 1 
0.116047 0.243961 -0.0310001 -0.599409 0.109916 -0.792861 1 
0.116267 0.244028 -0.0313702 -0.581583 0.0728766 -0.810216 1 
0.115852 0.24731 -0.0305041 -0.466874 -0.0338314 -0.883677 1 
0.11635 0.247406 -0.0309198 -0.18626 0.207396 -0.960362 1 
0.116173 0.247185 -0.0308225 -0.501117 -0.0230867 -0.865072 1 
0.116721 0.246178 -0.0311937 -0.531813 0.00134636 -0.846861 1 
0.116805 0.246986 -0.0310503 -0.509855 -0.0287049 -0.859782 1 
0.116756 0.24686 -0.0314267 -0.491969 -0.00133325 -0.870612 1 
0.116628 0.246764 -0.030953 -0.553217 -0.0431983 -0.831916 1 
0.116211 0.246721 -0.0308845 -0.527969 -0.0260556 -0.848864 1 
0.11579 0.24771 -0.0306302 -0.441376 -0.0118579 -0.897244 1 
0.115656 0.247334 -0.0308056 -0.469027 -0.0310883 -0.882636 1 
0.11664 0.246125 -0.0308465 -0.553126 -0.0040771 -0.833087 1 
0.114635 0.244366 -0.0292529 -0.594263 0.506723 -0.624566 1 
0.114821 0.244423 -0.0294024 -0.57563 0.545245 -0.609391 1 
0.115267 0.244168 -0.0294809 -0.635919 0.406789 -0.655843 1 
0.114906 0.244002 -0.0295909 -0.57563 0.545245 -0.609391 1 
0.115024 0.24415 -0.0296558 -0.625846 0.432251 -0.649211 1 
0.113943 0.244378 -0.0286358 -0.46358 0.677797 -0.570688 1 
0.114032 0.244154 -0.0286783 -0.480682 0.668265 -0.567774 1 
0.113827 0.244343 -0.0289278 -0.534934 0.588933 -0.605808 1 
0.113686 0.244216 -0.0285481 -0.414454 0.714974 -0.563063 1 
0.113914 0.244006 -0.0286134 -0.46358 0.677797 -0.570688 1 
0.114446 0.244113 -0.0292497 -0.575027 0.531184 -0.622244 1 
0.114075 0.243999 -0.028951 -0.569768 0.542717 -0.617108 1 
0.114122 0.244042 -0.0290775 -0.569768 0.542717 -0.617108 1 
0.114894 0.243971 -0.0296851 -0.57563 0.545245 -0.609391 1 
0.114649 0.24384 -0.0295033 -0.57563 0.545245 -0.609391 1 
0.114233 0.243797 -0.0294347 -0.575027 0.531184 -0.622244 1 
0.1143 0.243706 -0.0295192 -0.566679 0.553146 -0.61066 1 
0.11408 0.243638 -0.0291492 -0.569768 0.542717 -0.617108 1 
0.114311 0.244295 -0.0290807 -0.592039 0.527943 -0.608906 1 
0.114692 0.243686 -0.0297759 -0.57563 0.545245 -0.609391 1 
0.129369 0.268534 -0.0290656 -0.599166 0.228772 -0.767244 1 
0.129317 0.267511 -0.028716 -0.504806 0.329637 -0.797816 1 
0.129292 0.267448 -0.0289043 -0.519222 0.360706 -0.77479 1 
0.129537 0.267608 -0.0299458 -0.568462 0.338486 -0.749852 1 
0.130064 0.266036 -0.0294868 -0.501807 0.384881 -0.774633 1 
0.129246 0.267406 -0.0287777 -0.513564 0.355792 -0.78081 1 
0.129154 0.267434 -0.0288814 -0.519222 0.360706 -0.77479 1 
0.129079 0.267132 -0.0290892 -0.483303 0.383087 -0.787186 1 
0.129056 0.267152 -0.0287744 -0.492528 0.379489 -0.783201 1 
0.128843 0.266836 -0.0289594 -0.483931 0.386821 -0.784972 1 
0.128902 0.267581 -0.0290043 -0.513564 0.355792 -0.78081 1 
0.128957 0.267458 -0.0291829 -0.462285 0.372707 -0.8046 1 
0.1286 0.267489 -0.0291469 -0.462285 0.372707 -0.8046 1 
0.129273 0.266353 -0.0292782 -0.457359 0.386749 -0.80078 1 
0.129408 0.266171 -0.0294472 -0.446765 0.382713 -0.808661 1 
0.129346 0.266571 -0.0295733 -0.473412 0.389394 -0.790097 1 
0.129156 0.266318 -0.0295701 -0.446765 0.382713 -0.808661 1 
0.129075 0.266265 -0.0292229 -0.446765 0.382713 -0.808661 1 
0.129311 0.26589 -0.0293403 -0.431361 0.383609 -0.816561 1 
0.129089 0.265738 -0.0294732 -0.295118 0.373816 -0.879299 1 
0.128655 0.266025 -0.0293006 -0.294208 0.366628 -0.882624 1 
0.128643 0.265993 -0.0293947 -0.280553 0.36757 -0.886669 1 
0.128995 0.266995 -0.0292449 -0.483303 0.383087 -0.787186 1 
0.128831 0.266804 -0.0290535 -0.483931 0.386821 -0.784972 1 
0.128638 0.267025 -0.0292089 -0.483931 0.386821 -0.784972 1 
0.129044 0.26715 -0.0297283 -0.516545 0.386187 -0.764226 1 
0.128678 0.266675 -0.0296278 -0.440522 0.389262 -0.808959 1 
0.128589 0.266899 -0.0295853 -0.44369 0.392433 -0.80569 1 
0.128713 0.266657 -0.0289886 -0.440522 0.389262 -0.808959 1 
0.128671 0.266253 -0.0290603 -0.33372 0.379857 -0.862751 1 
0.128481 0.265999 -0.0290571 -0.232305 0.357953 -0.90438 1 
0.128223 0.266424 -0.0294847 -0.237929 0.348866 -0.906467 1 
0.128374 0.265799 -0.0294011 -0.252353 0.358607 -0.898732 1 
0.130361 0.262635 -0.0311479 -0.391216 0.545083 -0.741509 1 
0.129464 0.262836 -0.0307802 -0.561804 0.297613 -0.771883 1 
0.129944 0.262592 -0.0310793 -0.352975 0.523821 -0.775255 1 
0.129611 0.262686 -0.0308551 -0.447067 0.342804 -0.826206 1 
0.12925 0.26252 -0.0309652 -0.47325 0.316024 -0.822291 1 
0.129477 0.26231 -0.0310304 -0.354347 0.394933 -0.847624 1 
0.1296 0.262096 -0.0312935 -0.32566 0.39357 -0.859679 1 
0.128965 0.262126 -0.0320716 -0.353577 0.42272 -0.834441 1 
0.129611 0.265898 -0.0297007 -0.43854 0.399987 -0.804794 1 
0.129066 0.265117 -0.0300058 -0.279698 0.338893 -0.898288 1 
0.129529 0.266544 -0.0302257 -0.472206 0.388401 -0.791307 1 
0.129158 0.26576 -0.0299144 -0.324327 0.388885 -0.862311 1 
0.12904 0.265612 -0.0298496 -0.284622 0.37799 -0.880973 1 
0.128863 0.26539 -0.0297523 -0.269636 0.361997 -0.892331 1 
0.128917 0.265825 -0.0295865 -0.295118 0.373816 -0.879299 1 
0.12866 0.265663 -0.0294988 -0.244717 0.350223 -0.904133 1 
0.1285 0.265782 -0.029518 -0.252353 0.358607 -0.898732 1 
0.129015 0.265549 -0.0300378 -0.284622 0.37799 -0.880973 1 
0.128802 0.265232 -0.0302228 -0.259028 0.335127 -0.905867 1 
0.128804 0.265316 -0.0297198 -0.240925 0.346055 -0.906753 1 
0.128526 0.265287 -0.0296742 -0.232614 0.33086 -0.914561 1 
0.128287 0.265466 -0.029703 -0.232614 0.33086 -0.914561 1 
0.128349 0.265065 -0.0295769 -0.224962 0.325263 -0.918475 1 
0.127933 0.265022 -0.0295083 -0.213778 0.307218 -0.927317 1 
0.128779 0.265253 -0.0299081 -0.240131 0.339095 -0.909589 1 
0.128649 0.265074 -0.0299373 -0.232614 0.33086 -0.914561 1 
0.128443 0.26515 -0.0298299 -0.222405 0.331455 -0.916883 1 
0.128705 0.264951 -0.0301158 -0.23852 0.325255 -0.91505 1 
0.128646 0.264877 -0.0300834 -0.24147 0.322442 -0.915272 1 
0.128312 0.264971 -0.0298592 -0.210337 0.309153 -0.92746 1 
0.128254 0.264897 -0.0298267 -0.213964 0.313152 -0.925287 1 
0.128073 0.265149 -0.0298879 -0.213778 0.307218 -0.927317 1 
0.127995 0.264622 -0.0293822 -0.218975 0.300914 -0.928171 1 
0.128135 0.264749 -0.0297619 -0.225717 0.299536 -0.927001 1 
0.127719 0.264706 -0.0296934 -0.225717 0.299536 -0.927001 1 
0.127899 0.264453 -0.0296321 -0.232727 0.304116 -0.92377 1 
0.127702 0.264365 -0.0295768 -0.231704 0.299935 -0.925393 1 
0.128349 0.265736 -0.0295893 -0.252353 0.358607 -0.898732 1 
0.128084 0.265739 -0.0294494 -0.23355 0.343796 -0.909538 1 
0.12803 0.265303 -0.0296153 -0.226101 0.335551 -0.914485 1 
0.127403 0.264469 -0.0295732 -0.214562 0.29029 -0.932574 1 
0.128376 0.264683 -0.0300898 -0.239167 0.307909 -0.920864 1 
0.12804 0.26458 -0.0300118 -0.239167 0.307909 -0.920864 1 
0.127922 0.264433 -0.0299468 -0.253451 0.317176 -0.913872 1 
0.127904 0.264092 -0.0298303 -0.258844 0.329039 -0.908148 1 
0.127623 0.264537 -0.0299432 -0.224397 0.315871 -0.921885 1 
0.126943 0.264609 -0.0300917 -0.235841 0.307308 -0.921923 1 
0.12715 0.264532 -0.0301991 -0.235841 0.307308 -0.921923 1 
0.129047 0.262793 -0.0307117 -0.258158 0.328167 -0.908659 1 
0.129166 0.262411 -0.0319807 -0.32566 0.39357 -0.859679 1 
0.128533 0.262526 -0.0322558 -0.341198 0.409749 -0.845984 1 
0.128993 0.262357 -0.0308775 -0.327084 0.35751 -0.874759 1 
0.129276 0.262025 -0.0311213 -0.349434 0.412113 -0.841462 1 
0.129423 0.261874 -0.0311962 -0.346229 0.415161 -0.841289 1 
0.129019 0.261862 -0.0310336 -0.389797 0.28666 -0.875148 1 
0.128366 0.261523 -0.0308353 -0.3731 0.315231 -0.872597 1 
0.128613 0.261096 -0.0313616 -0.371184 0.304522 -0.877205 1 
0.128457 0.261412 -0.0312346 -0.375432 0.308554 -0.873982 1 
0.128495 0.260948 -0.0312966 -0.371184 0.304522 -0.877205 1 
0.127624 0.259955 -0.030213 -0.630318 0.251179 -0.734581 1 
0.127587 0.25986 -0.0304953 -0.467327 0.198577 -0.861494 1 
0.127769 0.25972 -0.0307908 -0.435006 0.145002 -0.888676 1 
0.128635 0.261746 -0.0316887 -0.398064 0.297404 -0.867811 1 
0.128815 0.260823 -0.031615 -0.397545 0.308519 -0.864161 1 
0.128458 0.260854 -0.031579 -0.375432 0.308554 -0.873982 1 
0.128246 0.260621 -0.031261 -0.395941 0.232819 -0.888272 1 
0.128048 0.260533 -0.0312057 -0.442489 0.223494 -0.868478 1 
0.128222 0.260558 -0.0314492 -0.42249 0.231399 -0.876331 1 
0.128024 0.260469 -0.031394 -0.442489 0.223494 -0.868478 1 
0.12783 0.260578 -0.0311925 -0.454121 0.214321 -0.864778 1 
0.127847 0.260248 -0.0312966 -0.454898 0.191146 -0.869788 1 
0.127427 0.258638 -0.0304897 -0.245621 -0.0107834 -0.969306 1 
0.127261 0.264258 -0.0296965 -0.235009 0.300526 -0.924367 1 
0.127568 0.263989 -0.0297522 -0.271401 0.327149 -0.90516 1 
0.127189 0.263482 -0.0297458 -0.29536 0.301238 -0.906652 1 
0.127269 0.264093 -0.0297486 -0.263183 0.315529 -0.911689 1 
0.12733 0.263609 -0.0301253 -0.322075 0.319079 -0.891323 1 
0.12738 0.263178 -0.0300933 0.0111326 0.30058 -0.953692 1 
0.127321 0.263104 -0.0300609 -0.404142 0.305795 -0.862067 1 
0.126896 0.263225 -0.0299403 -0.325172 0.295476 -0.898308 1 
0.126559 0.263122 -0.0298622 -0.275677 0.304849 -0.91163 1 
0.126888 0.264061 -0.0299007 -0.265198 0.305774 -0.914425 1 
0.126895 0.263783 -0.029596 -0.267649 0.299477 -0.915793 1 
0.12679 0.26445 -0.0298062 -0.232727 0.304116 -0.92377 1 
0.126433 0.264481 -0.0297702 -0.238528 0.298517 -0.924117 1 
0.126533 0.263617 -0.0297061 -0.299891 0.308755 -0.902627 1 
0.126235 0.263722 -0.0297025 -0.247796 0.270452 -0.930297 1 
0.126117 0.263574 -0.0296376 -0.256132 0.264622 -0.929716 1 
0.126609 0.262691 -0.0298302 -0.202323 0.351555 -0.914043 1 
0.1261 0.263233 -0.029521 -0.168724 0.297668 -0.939642 1 
0.128155 0.262632 -0.0305423 -0.348805 0.333574 -0.875821 1 
0.128657 0.262255 -0.0307994 -0.506186 0.286786 -0.813345 1 
0.1284 0.262092 -0.0307116 -0.469482 0.277351 -0.83825 1 
0.128362 0.262556 -0.0306496 -0.34845 0.336277 -0.874929 1 
0.127848 0.262231 -0.0304741 -0.351845 0.309563 -0.883389 1 
0.127789 0.262157 -0.0304417 -0.375749 0.291244 -0.879767 1 
0.128063 0.261989 -0.0306336 -0.373731 0.318816 -0.871023 1 
0.127924 0.261975 -0.0306107 -0.273951 0.342068 -0.898855 1 
0.127588 0.261872 -0.0305326 -0.299486 0.329285 -0.895477 1 
0.128159 0.262829 -0.0303961 -0.348805 0.333574 -0.875821 1 
0.127515 0.262995 -0.0302623 0.00370859 0.310286 -0.950636 1 
0.127586 0.26243 -0.0301882 -0.347657 0.305517 -0.88645 1 
0.127565 0.262564 -0.0302303 -0.335739 0.317672 -0.886772 1 
0.12717 0.262387 -0.0301197 -0.330145 0.309231 -0.891841 1 
0.128627 0.261882 -0.0307769 -0.384286 0.299227 -0.873377 1 
0.128543 0.261745 -0.0309327 -0.3731 0.315231 -0.872597 1 
0.128089 0.261495 -0.0307897 -0.371525 0.301769 -0.878012 1 
0.128311 0.261675 -0.0315165 -0.371525 0.301769 -0.878012 1 
0.127868 0.262126 -0.0312918 -0.339889 0.321761 -0.883711 1 
0.127599 0.261262 -0.0312858 -0.393062 0.289864 -0.872629 1 
0.127679 0.261873 -0.0312886 -0.386937 0.313526 -0.867168 1 
0.127249 0.261657 -0.0300977 -0.38722 0.29611 -0.873144 1 
0.127175 0.262025 -0.030318 -0.364661 0.283626 -0.886893 1 
0.127964 0.260954 -0.0310171 -0.413758 0.254273 -0.874157 1 
0.127799 0.260763 -0.0308256 -0.438407 0.239542 -0.866268 1 
0.126947 0.260923 -0.0310876 -0.501332 0.220952 -0.836569 1 
0.127002 0.260771 -0.0304064 -0.577904 0.21421 -0.78749 1 
0.126831 0.260859 -0.0305198 -0.482683 0.229922 -0.845076 1 
0.126987 0.261214 -0.0306591 -0.49572 0.230319 -0.837386 1 
0.126664 0.261255 -0.0308436 -0.537132 0.236833 -0.809567 1 
0.126676 0.260616 -0.0307371 -0.504623 0.207607 -0.838007 1 
0.126922 0.26273 -0.0300965 -0.241318 0.349546 -0.905308 1 
0.126703 0.262775 -0.0300833 -0.241318 0.349546 -0.905308 1 
0.12702 0.262482 -0.0314075 -0.379342 0.291685 -0.878077 1 
0.126293 0.264354 -0.0293906 -0.201584 0.234053 -0.951096 1 
0.12623 0.264754 -0.0295167 -0.194142 0.248448 -0.94899 1 
0.125826 0.264742 -0.0293541 -0.175289 0.214828 -0.960793 1 
0.126117 0.264245 -0.02965 -0.217017 0.284223 -0.933874 1 
0.128358 0.261717 -0.031643 -0.366628 0.294208 -0.882624 1 
0.128017 0.261418 -0.0317111 -0.378392 0.305449 -0.873797 1 
0.128003 0.261274 -0.0314484 -0.385978 0.303595 -0.87112 1 
0.127681 0.261315 -0.031633 -0.385978 0.303595 -0.87112 1 
0.12707 0.260709 -0.0313506 -0.483358 0.206293 -0.85077 1 
0.126081 0.260938 -0.0310867 -0.52169 0.218773 -0.824607 1 
0.126745 0.259296 -0.0311535 -0.554875 0.400103 -0.729405 1 
0.126526 0.259342 -0.0311404 -0.539055 0.398147 -0.742225 1 
0.133412 0.256974 -0.0332577 0.22428 0.194734 -0.95487 1 
0.131676 0.254767 -0.0325051 -0.409595 -0.64507 -0.64507 1 
0.131188 0.253948 -0.0324859 0.241749 -0.823796 -0.512755 1 
0.133576 0.259706 -0.0322824 -0.520394 0.496968 -0.694416 1 
0.133923 0.259085 -0.0327568 -0.660101 0.370381 -0.653517 1 
0.133729 0.259864 -0.0325679 -0.520394 0.496968 -0.694416 1 
0.133552 0.259643 -0.0324705 -0.616087 0.435769 -0.656157 1 
0.133344 0.259635 -0.0328662 -0.371572 0.517604 -0.770727 1 
0.133319 0.259572 -0.0330543 -0.406879 0.44226 -0.799284 1 
0.133363 0.259389 -0.0324673 -0.406879 0.44226 -0.799284 1 
0.133149 0.259073 -0.0326523 0.0634651 0.406447 -0.911467 1 
0.133166 0.259414 -0.0327688 0.0634651 0.406447 -0.911467 1 
0.133142 0.25935 -0.032957 0.0634651 0.406447 -0.911467 1 
0.132965 0.259129 -0.0328597 0.273951 0.342068 -0.898855 1 
0.134105 0.258975 -0.0339121 -0.406879 0.44226 -0.799284 1 
0.133508 0.258484 -0.0330327 0.181825 0.414562 -0.891672 1 
0.13353 0.258463 -0.0333475 0.243119 0.398238 -0.884477 1 
0.133518 0.258432 -0.0334416 0.209574 0.435498 -0.875454 1 
0.132991 0.259304 -0.0330283 0.173479 0.568709 -0.804037 1 
0.133105 0.259256 -0.0332393 -0.473266 0.880464 -0.0283151 1 
0.132929 0.259034 -0.033142 -0.546304 0.835606 0.0575796 1 
0.132935 0.258756 -0.0328373 -0.546304 0.835606 0.0575796 1 
0.132659 0.25884 -0.0331485 -0.478952 0.839321 0.257186 1 
0.133052 0.25882 -0.0334051 -0.535186 0.83559 0.123953 1 
0.132875 0.258599 -0.0333078 -0.516071 0.856545 0.00134045 1 
0.134075 0.258602 -0.0338897 -0.406879 0.44226 -0.799284 1 
0.133789 0.258738 -0.033792 -0.180251 0.499041 -0.847625 1 
0.133482 0.258337 -0.0337239 0.519226 0.0629788 -0.852314 1 
0.133292 0.258084 -0.0337205 0.356941 0.215321 -0.908972 1 
0.133431 0.258769 -0.0337559 -0.546304 0.835606 0.0575796 1 
0.132771 0.258566 -0.0326459 -0.57031 0.819378 0.0580216 1 
0.132966 0.257229 -0.0331793 0.290662 0.162389 -0.942945 1 
0.132914 0.258219 -0.0328669 0.403153 0.0439077 -0.914079 1 
0.132758 0.258535 -0.03274 0.298939 0.222433 -0.927986 1 
0.132722 0.25844 -0.0330223 0.358426 0.177088 -0.916608 1 
0.132781 0.257843 -0.0330423 0.297661 0.181365 -0.937286 1 
0.132638 0.258303 -0.033178 0.400425 0.0549078 -0.914683 1 
0.132685 0.258345 -0.0333046 0.357695 0.143356 -0.922769 1 
0.132602 0.258208 -0.0334604 0.362262 0.110729 -0.925476 1 
0.133376 0.25755 -0.0335524 0.289461 0.192512 -0.937631 1 
0.132984 0.25757 -0.0332958 0.354059 0.155338 -0.922232 1 
0.132661 0.258282 -0.0334928 0.357675 0.173889 -0.917514 1 
0.132178 0.255731 -0.0327872 0.258856 0.0458262 -0.964828 1 
0.13168 0.258375 -0.0341407 0.294304 0.0954854 -0.95093 1 
0.131104 0.25845 -0.0340914 0.276779 0.0568725 -0.959249 1 
0.130835 0.256886 -0.0332131 0.0773003 -0.0402832 -0.996194 1 
0.130394 0.25678 -0.0333329 -0.0926973 -0.239997 -0.966338 1 
0.129962 0.257179 -0.0335171 -0.197247 -0.199894 -0.959758 1 
0.129709 0.255786 -0.0306791 -0.589567 -0.73817 0.327896 1 
0.126368 0.258874 -0.0306442 -0.536766 0.479912 -0.69395 1 
0.126216 0.258715 -0.0303586 -0.615975 0.568722 -0.545096 1 
0.126436 0.258783 -0.0307287 -0.470515 0.424929 -0.773338 1 
0.128657 0.256501 -0.0331206 -0.300836 -0.271769 -0.914133 1 
0.128435 0.25702 -0.0332659 -0.300836 -0.271769 -0.914133 1 
0.128244 0.255984 -0.0328935 -0.287081 -0.393407 -0.873393 1 
0.128057 0.257184 -0.0332719 -0.34873 -0.254559 -0.901991 1 
0.12768 0.256091 -0.0327501 -0.495806 -0.17718 -0.850167 1 
0.127569 0.255665 -0.0323804 -0.527164 -0.225928 -0.819179 1 
0.127106 0.25558 -0.0321854 -0.571408 -0.235102 -0.78627 1 
0.127173 0.255489 -0.03227 -0.569435 -0.228084 -0.789761 1 
0.127149 0.255426 -0.0324582 -0.568523 -0.21724 -0.793466 1 
0.127482 0.256002 -0.0326948 -0.512003 -0.221613 -0.829904 1 
0.127 0.255463 -0.0320265 -0.594123 -0.218724 -0.774066 1 
0.126504 0.25615 -0.03198 -0.593252 -0.239492 -0.768567 1 
0.12645 0.255715 -0.0321458 -0.590842 -0.235402 -0.771681 1 
0.12645 0.255715 -0.0321458 -0.590842 -0.235402 -0.771681 1 
0.126898 0.255572 -0.0325811 -0.568523 -0.21724 -0.793466 1 
0.126917 0.255326 -0.0321822 -0.605064 -0.188412 -0.773562 1 
0.126653 0.255442 -0.0323993 -0.59985 -0.208174 -0.772557 1 
0.126653 0.255442 -0.0323993 -0.59985 -0.208174 -0.772557 1 
0.126295 0.255472 -0.0323632 -0.612222 -0.222768 -0.758656 1 
0.127162 0.257498 -0.0332611 -0.506498 -0.170813 -0.845153 1 
0.126837 0.257427 -0.0330889 -0.528717 -0.165317 -0.832543 1 
0.12666 0.257205 -0.0329916 -0.550034 -0.124674 -0.825784 1 
0.125696 0.256127 -0.0316548 -0.678915 -0.279553 -0.678915 1 
0.125723 0.257086 -0.0321926 -0.671803 -0.467414 -0.574634 1 
0.125607 0.257022 -0.0316248 -0.688048 -0.166291 -0.706355 1 
0.12505 0.256851 -0.0311767 -0.573183 0.0728986 -0.816178 1 
0.125802 0.256914 -0.0318262 -0.711924 -0.244675 -0.658254 1 
0.12573 0.256808 -0.0318879 -0.641614 0.0153097 -0.766875 1 
0.125645 0.256558 -0.0316868 -0.634562 -0.00967742 -0.772811 1 
0.126691 0.25699 -0.0324986 -0.630745 0.0586407 -0.773771 1 
0.126641 0.256752 -0.0325182 -0.595917 -0.132261 -0.792079 1 
0.125911 0.255885 -0.0318142 -0.632122 -0.233713 -0.738783 1 
0.126072 0.25655 -0.0321642 -0.661245 -0.286593 -0.693267 1 
0.126008 0.256166 -0.0319211 -0.630318 -0.251179 -0.734581 1 
0.126339 0.255989 -0.0326483 -0.586818 -0.228812 -0.776717 1 
0.126187 0.257172 -0.0323877 -0.569418 0.26657 -0.777627 1 
0.125871 0.256935 -0.0322675 -0.652983 -0.471692 -0.592553 1 
0.12564 0.25762 -0.0323608 -0.691472 -0.12045 -0.712291 1 
0.126786 0.253777 -0.0313269 -0.830285 -0.169049 -0.531083 1 
0.126597 0.253523 -0.0313236 -0.839545 -0.161965 -0.518586 1 
0.126982 0.253781 -0.031885 -0.771371 -0.151868 -0.617999 1 
0.126587 0.252905 -0.0309023 -0.932276 -0.135529 -0.3354 1 
0.126524 0.253305 -0.0310285 -0.854943 -0.148112 -0.497128 1 
0.126649 0.252505 -0.0307762 -0.908641 -0.106817 -0.403686 1 
0.1265 0.253242 -0.0312167 -0.867287 -0.134654 -0.479252 1 
0.125898 0.253784 -0.0301515 -0.710635 -0.333364 0.619569 1 
0.124653 0.255891 -0.0306969 -0.617798 -0.129514 -0.775597 1 
0.124514 0.255877 -0.0306741 -0.62905 -0.142625 -0.764169 1 
0.126455 0.253954 -0.0305997 -0.961631 -0.139613 0.236167 1 
0.126382 0.253765 -0.0311643 -0.828435 -0.178918 -0.530739 1 
0.126344 0.254228 -0.0311022 -0.599578 -0.161599 -0.783831 1 
0.125697 0.254869 -0.031127 -0.63911 -0.195583 -0.743832 1 
0.125883 0.254926 -0.0312764 -0.65647 -0.1891 -0.730266 1 
0.125718 0.254736 -0.0310849 -0.631801 -0.178985 -0.754183 1 
0.126887 0.254283 -0.0321473 -0.72742 -0.162493 -0.666675 1 
