0.124354 0.262293 -0.0305501 0.042325 0.481959 -0.875171 1 
0.127798 0.262701 -0.0294089 0.0897185 0.423747 -0.901326 1 
0.128158 0.262429 -0.0298288 0.0770019 0.483012 -0.872221 1 
0.127956 0.262573 -0.0300483 0.0649963 0.468803 -0.880908 1 
0.1278 0.262355 -0.0301837 0.0299249 0.378615 -0.92507 1 
0.127628 0.262277 -0.0303042 0.0316826 0.320628 -0.946675 1 
0.12754 0.261992 -0.0304095 0.0101921 0.164207 -0.986373 1 
0.127752 0.262947 -0.0297512 0.0697428 0.433499 -0.898451 1 
0.1277 0.262759 -0.0300546 0.0808894 0.420899 -0.903494 1 
0.127658 0.263613 -0.0300484 0.103183 0.467856 -0.877761 1 
0.127492 0.262584 -0.029977 0.0472896 0.436415 -0.898502 1 
0.127113 0.262216 -0.0302781 -0.0145663 -0.144543 -0.989391 1 
0.126552 0.261017 -0.0303635 0.03088 0.962222 0.270509 1 
0.125989 0.261491 -0.0300341 0.0647186 0.645748 -0.760803 1 
0.126817 0.261641 -0.0305641 0.0418651 0.0611874 -0.997248 1 
0.126666 0.261915 -0.0306092 0.0685998 -0.0511776 -0.996331 1 
0.127062 0.262029 -0.0305815 0.0228418 0.0946304 -0.99525 1 
0.126973 0.261744 -0.0306869 -0.00113702 0.180786 -0.983522 1 
0.126314 0.263402 -0.0294923 -0.0304578 0.419787 -0.907111 1 
0.125955 0.263443 -0.0295891 -0.00389102 0.416339 -0.909201 1 
0.125852 0.263067 -0.0301959 0.0443772 0.434358 -0.899646 1 
0.125596 0.263427 -0.0298149 0.00392025 0.435148 -0.900351 1 
0.127038 0.26358 -0.0297252 0.00903832 0.396395 -0.918036 1 
0.125427 0.261734 -0.0302211 0.0294594 0.643899 -0.764543 1 
0.125441 0.263036 -0.0303378 0.0226877 0.455088 -0.890157 1 
0.125489 0.262617 -0.0303829 0.0402584 0.545571 -0.837097 1 
0.125009 0.262769 -0.0302966 0.0568496 0.500554 -0.863837 1 
0.124797 0.261987 -0.0305675 0.0287857 0.519514 -0.853977 1 
0.131087 0.262776 -0.0286614 0.184683 0.521017 -0.833327 1 
0.131384 0.263121 -0.0288919 0.181153 0.516512 -0.836899 1 
0.131368 0.261991 -0.0283879 0.171953 0.530812 -0.829862 1 
0.131233 0.262011 -0.0287064 0.175723 0.533178 -0.827552 1 
0.131067 0.262424 -0.0287366 0.178918 0.530739 -0.828435 1 
0.13077 0.261965 -0.0287643 0.16495 0.512683 -0.842584 1 
0.131026 0.26172 -0.028887 0.1462 0.536066 -0.83142 1 
0.130912 0.262034 -0.0292595 0.211661 0.51621 -0.829895 1 
0.130974 0.26159 -0.0290613 0.134989 0.57704 -0.805483 1 
0.130605 0.262033 -0.0295693 0.208222 0.515236 -0.831369 1 
0.131137 0.261666 -0.0302562 0.219895 0.634734 -0.740783 1 
0.13083 0.261837 -0.0301786 0.214151 0.56542 -0.796517 1 
0.131288 0.264305 -0.0280269 0.128202 0.409964 -0.903047 1 
0.131154 0.264094 -0.028862 0.18059 0.403077 -0.897171 1 
0.130868 0.263233 -0.0284784 0.215049 0.470701 -0.855684 1 
0.130712 0.263015 -0.0286139 0.212824 0.487533 -0.846769 1 
0.131024 0.263278 -0.0287304 0.208705 0.475968 -0.85434 1 
0.131201 0.263674 -0.0289071 0.192875 0.488915 -0.850742 1 
0.130842 0.263831 -0.0287455 0.210104 0.448519 -0.868727 1 
0.130638 0.264206 -0.0284485 0.175702 0.375689 -0.909938 1 
0.130419 0.264547 -0.0285238 0.220132 0.311026 -0.924556 1 
0.130591 0.26451 -0.0286617 0.181927 0.337059 -0.923739 1 
0.130951 0.264353 -0.0288232 0.172054 0.417845 -0.892078 1 
0.130794 0.26425 -0.0287004 0.172054 0.417845 -0.892078 1 
0.130519 0.264085 -0.0287821 0.199512 0.397568 -0.89562 1 
0.130058 0.262309 -0.029384 0.231251 0.509977 -0.828521 1 
0.12975 0.262481 -0.0293064 0.241408 0.499731 -0.83186 1 
0.13035 0.262219 -0.0295757 0.197271 0.507482 -0.838776 1 
0.130522 0.262239 -0.0295844 0.216716 0.495567 -0.841099 1 
0.130246 0.262016 -0.0297952 0.230014 0.538758 -0.810453 1 
0.129527 0.26233 -0.029472 0.26145 0.4966 -0.827667 1 
0.130351 0.262046 -0.0299631 0.246789 0.529277 -0.811764 1 
0.130654 0.261152 -0.0306476 0.365823 0.809922 -0.458476 1 
0.130674 0.26162 -0.0303141 0.237792 0.669283 -0.703928 1 
0.129632 0.262187 -0.0300275 0.273903 0.587388 -0.761546 1 
0.129393 0.262176 -0.030178 0.248787 0.577373 -0.777654 1 
0.129289 0.261973 -0.0303974 0.261404 0.549418 -0.793604 1 
0.12852 0.261926 -0.0307651 0.11799 -0.175122 -0.977451 1 
0.130059 0.261963 -0.0301589 0.226699 0.655082 -0.720746 1 
0.130351 0.261873 -0.0303506 0.223411 0.670232 -0.707727 1 
0.130143 0.261698 -0.0302729 0.233249 0.737319 -0.634 1 
0.129753 0.262019 -0.0303396 0.271664 0.624352 -0.732382 1 
0.129852 0.261615 -0.0304687 0.282656 0.717019 -0.637173 1 
0.1303 0.261743 -0.0305249 0.252789 0.777208 -0.576233 1 
0.130212 0.261458 -0.0306303 0.320362 0.815897 -0.481332 1 
0.128967 0.262054 -0.0308214 0.14353 -0.0447813 -0.988632 1 
0.128915 0.261982 -0.0308666 0.12411 -0.0753939 -0.9894 1 
0.13142 0.260592 -0.0306284 0.628032 -0.587623 -0.510171 1 
0.131133 0.261116 -0.0304756 0.285455 0.793282 -0.537791 1 
0.128728 0.262159 -0.0307137 0.103644 -0.0717537 -0.992023 1 
0.124312 0.264618 -0.0282583 -0.105273 0.370505 -0.922845 1 
0.123302 0.264848 -0.0281309 -0.119726 0.364682 -0.923403 1 
0.123703 0.265222 -0.0285294 -0.141283 0.327831 -0.934112 1 
0.123698 0.264788 -0.0284905 -0.137655 0.323013 -0.93633 1 
0.123355 0.26469 -0.0286022 -0.114749 0.382958 -0.916611 1 
0.122092 0.263319 -0.0291545 -0.180518 0.496799 -0.848884 1 
0.122771 0.264869 -0.0282188 -0.153697 0.565546 -0.810268 1 
0.122427 0.264886 -0.0280723 -0.172829 0.542532 -0.822064 1 
0.12236 0.26478 -0.0284899 -0.147566 0.576847 -0.803412 1 
0.121845 0.264777 -0.0283347 -0.0734006 0.778622 -0.623185 1 
0.123203 0.265079 -0.0283892 -0.131149 0.360315 -0.923565 1 
0.123391 0.264902 -0.0285421 -0.124489 0.348842 -0.928877 1 
0.122823 0.264884 -0.0283029 -0.157211 0.486326 -0.859518 1 
0.12298 0.264929 -0.0285548 -0.141641 0.430646 -0.891337 1 
0.122824 0.264711 -0.0286903 -0.147566 0.576847 -0.803412 1 
0.122688 0.264961 -0.0284922 -0.153697 0.565546 -0.810268 1 
0.122517 0.264883 -0.0286127 -0.170257 0.57104 -0.803072 1 
0.122637 0.264773 -0.0287957 -0.153697 0.565546 -0.810268 1 
0.1231 0.264819 -0.0287378 -0.134811 0.4243 -0.89543 1 
0.123032 0.264886 -0.028768 -0.135345 0.43453 -0.89043 1 
0.123084 0.264901 -0.0288519 -0.140135 0.40908 -0.901674 1 
0.122981 0.264756 -0.0289422 -0.144443 0.43047 -0.890972 1 
0.121762 0.264869 -0.028608 -0.0734006 0.778622 -0.623185 1 
0.122226 0.264742 -0.0289376 -0.114087 0.686003 -0.718599 1 
0.122122 0.264597 -0.0290279 -0.0239262 -0.153811 -0.987811 1 
0.122825 0.26448 -0.0292068 -0.121456 0.461533 -0.87877 1 
0.122721 0.264335 -0.0292972 -0.221451 0.423581 -0.878373 1 
0.122414 0.264507 -0.0292195 -0.107611 0.148721 -0.983007 1 
0.12243 0.264252 -0.0294929 -0.200237 0.443488 -0.873627 1 
0.122054 0.264779 -0.0287997 -0.101751 0.709311 -0.697513 1 
0.125331 0.266755 -0.028436 -0.0255578 0.121122 -0.992309 1 
0.125623 0.266666 -0.0286277 -0.0352878 0.142289 -0.989196 1 
0.125353 0.26555 -0.0285174 -0.0773129 0.318424 -0.94479 1 
0.125374 0.265902 -0.0284422 -0.0701342 0.279262 -0.95765 1 
0.125046 0.265722 -0.0284398 -0.0877129 0.302413 -0.949133 1 
0.125259 0.266388 -0.0284272 -0.0777589 0.213528 -0.973837 1 
0.125175 0.266595 -0.0284423 -0.0735693 0.182114 -0.980521 1 
0.124843 0.265923 -0.0285302 -0.111185 0.31748 -0.941724 1 
0.125713 0.265393 -0.0286789 -0.0658959 0.306222 -0.949677 1 
0.125785 0.26576 -0.0286877 -0.0683542 0.30308 -0.950511 1 
0.125869 0.265438 -0.0289309 -0.0545529 0.290526 -0.955311 1 
0.125874 0.265872 -0.0289698 -0.0521103 0.293597 -0.954508 1 
0.125453 0.265146 -0.0286465 -0.0664905 0.327237 -0.9426 1 
0.12551 0.265595 -0.0287693 -0.0748874 0.327139 -0.942004 1 
0.125968 0.265207 -0.0286726 -0.0439559 0.282573 -0.958238 1 
0.125969 0.265034 -0.02906 -0.0331976 0.259433 -0.96519 1 
0.125765 0.265408 -0.0287629 -0.0683542 0.30308 -0.950511 1 
0.125921 0.265453 -0.0290149 -0.0447284 0.318211 -0.946964 1 
0.125358 0.265984 -0.0285562 -0.0723913 0.265435 -0.961407 1 
0.125462 0.266014 -0.0287242 -0.0696936 0.264836 -0.961772 1 
0.125311 0.266403 -0.0285112 -0.0773205 0.204961 -0.975711 1 
0.125227 0.26661 -0.0285263 -0.0660537 0.181348 -0.981198 1 
0.125175 0.266538 -0.0285715 -0.0690021 0.190058 -0.979345 1 
0.12528 0.266567 -0.0287394 -0.0619994 0.20788 -0.976187 1 
0.125775 0.266276 -0.0288407 -0.0462813 0.186312 -0.9814 1 
0.125692 0.266426 -0.028985 -0.0459126 0.177764 -0.983001 1 
0.125515 0.266029 -0.0288082 -0.066727 0.260613 -0.963135 1 
0.125671 0.266073 -0.0290601 -0.0631384 -0.120537 -0.990699 1 
0.125467 0.266448 -0.0287631 -0.049039 0.19496 -0.979584 1 
0.124657 0.265697 -0.0292813 -0.109691 0.342615 -0.93305 1 
0.124749 0.266646 -0.0286983 -0.0816513 0.188895 -0.978597 1 
0.12464 0.266125 -0.0286206 -0.117062 0.318893 -0.940534 1 
0.124296 0.266026 -0.0287323 -0.114875 0.331112 -0.936573 1 
0.124869 0.266594 -0.0287521 -0.080556 0.216882 -0.972869 1 
0.126094 0.265415 -0.0291528 -0.0276589 0.229689 -0.972871 1 
0.125979 0.265902 -0.0291378 -0.0470093 0.303655 -0.951622 1 
0.126177 0.265151 -0.0292668 -0.0308068 0.269868 -0.962404 1 
0.126051 0.266326 -0.0290173 -0.0138038 0.0753899 -0.997059 1 
0.125828 0.266176 -0.029183 -0.049682 0.214481 -0.975464 1 
0.124365 0.26446 -0.0287297 -0.0985973 0.352519 -0.930596 1 
0.124522 0.264504 -0.0289816 -0.090758 0.375223 -0.922481 1 
0.124876 0.263913 -0.0291043 -0.0386711 0.422715 -0.905437 1 
0.124518 0.263897 -0.0293302 -0.061501 0.44144 -0.895181 1 
0.12443 0.263612 -0.0294355 -0.0563151 0.46563 -0.883186 1 
0.124366 0.264287 -0.0291171 -0.0921678 0.405813 -0.909297 1 
0.12421 0.264069 -0.0292525 -0.102188 0.440949 -0.891696 1 
0.124006 0.264616 -0.0285681 -0.119422 0.363757 -0.923807 1 
0.124016 0.265427 -0.028775 -0.106133 0.334522 -0.936392 1 
0.12385 0.264399 -0.0287036 -0.121208 0.39706 -0.909754 1 
0.124074 0.264376 -0.0289254 -0.10937 0.394562 -0.912337 1 
0.124022 0.264304 -0.0289705 -0.103551 0.401776 -0.909864 1 
0.123491 0.264382 -0.0289294 -0.0931603 0.432431 -0.896842 1 
0.123596 0.264355 -0.0292266 -0.106005 0.456527 -0.883372 1 
0.124023 0.264131 -0.029358 -0.103075 0.458895 -0.882491 1 
0.125032 0.264073 -0.029098 -0.0461764 0.383924 -0.922209 1 
0.124944 0.265058 -0.0296923 -0.0935386 0.372799 -0.923186 1 
0.123544 0.264167 -0.02953 -0.164296 0.446363 -0.87964 1 
0.123786 0.262332 -0.0301818 -0.0285043 0.487288 -0.872776 1 
0.123891 0.262362 -0.0303498 -0.025676 0.479735 -0.877037 1 
0.123813 0.265628 -0.0288654 -0.154842 0.347347 -0.924864 1 
0.123568 0.265299 -0.0287188 -0.150845 0.339055 -0.928595 1 
0.123933 0.265461 -0.0291776 -0.145527 0.345106 -0.927213 1 
0.123236 0.264511 -0.029065 -0.110751 0.430388 -0.895824 1 
0.123237 0.264339 -0.0294524 -0.197111 0.452022 -0.869956 1 
0.124402 0.261873 -0.0305952 0.0432649 0.551279 -0.833199 1 
0.124194 0.261641 -0.0306467 0.0598747 0.508239 -0.859132 1 
0.124282 0.261868 -0.0306705 0.0590528 0.465556 -0.883046 1 
0.123578 0.262099 -0.0302333 0.1947 0.590233 -0.783401 1 
0.123214 0.261707 -0.0302911 -0.135689 0.435635 -0.889837 1 
0.123547 0.262321 -0.0303324 0.328834 0.613932 -0.717604 1 
0.123527 0.261969 -0.0304076 -0.0473484 0.439664 -0.896914 1 
0.123787 0.262159 -0.0305692 -0.0310142 0.46791 -0.883232 1 
0.129298 0.254705 -0.0379941 0.0757404 0.43654 -0.896491 1 
0.129776 0.254669 -0.0378221 0.184059 0.501298 -0.845472 1 
0.129808 0.254332 -0.0379813 0.172657 0.479602 -0.860332 1 
0.129314 0.25445 -0.0382674 0.090523 0.441474 -0.892696 1 
0.131564 0.253074 -0.0384231 0.199929 0.488548 -0.849323 1 
0.130392 0.25421 -0.0382356 0.176992 0.492305 -0.852238 1 
0.130427 0.25448 -0.0380462 0.172462 0.476112 -0.862308 1 
0.13099 0.254122 -0.0381174 0.176608 0.4853 -0.856325 1 
0.130136 0.254512 -0.0379837 0.175766 0.477079 -0.861105 1 
0.130084 0.254324 -0.0382871 0.166629 0.488091 -0.856739 1 
0.129548 0.253969 -0.0382071 0.102314 0.438689 -0.892795 1 
0.129356 0.253597 -0.0382736 0.0782675 0.424292 -0.902136 1 
0.129393 0.253694 -0.0384717 0.0872069 0.430497 -0.898369 1 
0.129054 0.254202 -0.0382349 0.0642199 0.435876 -0.897713 1 
0.128934 0.254139 -0.0384393 0.0470561 0.428883 -0.902134 1 
0.128634 0.25313 -0.0386864 0.0173301 0.457249 -0.88917 1 
0.129029 0.253243 -0.0386586 0.0390572 0.443097 -0.895622 1 
0.128738 0.25316 -0.0388544 0.0173301 0.457249 -0.88917 1 
0.127479 0.252511 -0.0387997 -0.143007 0.654821 -0.742131 1 
0.127546 0.252386 -0.0388988 -0.136222 0.654166 -0.743983 1 
0.128222 0.253157 -0.0386992 -0.00131455 0.45089 -0.892578 1 
0.127754 0.252619 -0.0388473 -0.0846818 0.558326 -0.825289 1 
0.127947 0.252934 -0.0389099 -0.0720866 0.527222 -0.846664 1 
0.127963 0.252679 -0.0391832 -0.0846818 0.558326 -0.825289 1 
0.128634 0.252957 -0.0390738 0.00132182 0.471891 -0.881656 1 
0.128379 0.253202 -0.0389511 -0.00131455 0.45089 -0.892578 1 
0.128306 0.252777 -0.0390715 -0.0514949 0.519125 -0.853146 1 
0.128203 0.252632 -0.0391618 -0.0693595 0.547799 -0.83373 1 
0.12789 0.252485 -0.0387871 -0.0976844 0.599228 -0.794597 1 
0.127859 0.252534 -0.0392735 -0.106889 0.604731 -0.789225 1 
0.127682 0.252137 -0.0390967 -0.139726 0.707642 -0.692618 1 
0.127443 0.252184 -0.0391183 -0.169043 0.732521 -0.659422 1 
0.127683 0.251964 -0.0394842 -0.160729 0.797636 -0.581328 1 
0.128063 0.252159 -0.0395706 -0.120705 0.710821 -0.692939 1 
0.127912 0.252549 -0.0393575 -0.106889 0.604731 -0.789225 1 
0.127839 0.252182 -0.0393488 -0.133257 0.711203 -0.690241 1 
0.127443 0.252068 -0.0393765 -0.167839 0.842167 -0.51243 1 
0.127699 0.251824 -0.0394992 -0.163524 0.855921 -0.490571 1 
0.131236 0.252836 -0.0385498 0.199929 0.488548 -0.849323 1 
0.130362 0.252759 -0.0387495 0.119296 0.48437 -0.866692 1 
0.130258 0.252614 -0.0388399 0.112652 0.477701 -0.87127 1 
0.130155 0.252411 -0.0390593 0.0886945 0.477261 -0.874274 1 
0.131715 0.2528 -0.0383778 0.175157 0.466595 -0.866954 1 
0.131492 0.25265 -0.0385434 0.185146 0.463605 -0.866482 1 
0.131128 0.252199 -0.0387304 0.195603 0.479302 -0.855576 1 
0.130742 0.252954 -0.038836 0.163399 0.481364 -0.861156 1 
0.130618 0.252457 -0.0390014 0.166629 0.488091 -0.856739 1 
0.129999 0.252194 -0.0391949 0.065269 0.487435 -0.870717 1 
0.129955 0.253335 -0.0385429 0.0940905 0.459218 -0.883327 1 
0.129971 0.253138 -0.0386871 0.0940905 0.459218 -0.883327 1 
0.130111 0.253553 -0.0384074 0.130559 0.457675 -0.879482 1 
0.129612 0.253295 -0.0385255 0.0730045 0.442159 -0.893961 1 
0.130315 0.253178 -0.0387045 0.130717 0.461099 -0.877668 1 
0.129696 0.252973 -0.0387687 0.0674379 0.450045 -0.890456 1 
0.129764 0.252732 -0.039126 0.0536747 0.483072 -0.873934 1 
0.129824 0.254077 -0.0382546 0.0928078 0.428024 -0.898989 1 
0.128938 0.252178 -0.0395 -0.0263782 0.578933 -0.814948 1 
0.129198 0.252426 -0.0395325 0.00672061 0.51211 -0.858893 1 
0.129042 0.252208 -0.0396679 -0.0263782 0.578933 -0.814948 1 
0.128917 0.251826 -0.0395752 -0.0586758 0.65402 -0.754198 1 
0.128455 0.251665 -0.0398913 -0.116483 0.779993 -0.614852 1 
0.128926 0.252868 -0.0392655 0.0013319 0.488806 -0.872392 1 
0.128531 0.252754 -0.0392933 -0.0515425 0.52239 -0.851147 1 
0.12851 0.252402 -0.0393685 -0.0667865 0.572659 -0.817069 1 
0.12877 0.25265 -0.039401 -0.017691 0.521203 -0.853249 1 
0.129151 0.252845 -0.0394874 0.0148212 0.494487 -0.869058 1 
0.127709 0.255433 -0.0377804 0.166004 0.417176 -0.893536 1 
0.128328 0.255639 -0.0377162 0.387616 0.631732 -0.671318 1 
0.128172 0.255422 -0.0378517 0.125796 0.422619 -0.897535 1 
0.129006 0.254622 -0.0381898 0.0875416 0.440487 -0.893481 1 
0.128839 0.255266 -0.0377034 0.119154 0.416339 -0.901368 1 
0.129047 0.255326 -0.0380393 0.13272 0.443828 -0.886229 1 
0.128683 0.255048 -0.0378389 0.0688966 0.39852 -0.914568 1 
0.128324 0.255032 -0.0380647 0.0955233 0.416703 -0.90401 1 
0.127662 0.255852 -0.0377353 0.190186 0.440819 -0.877216 1 
0.12773 0.255612 -0.0380926 0.162998 0.419755 -0.892881 1 
0.128746 0.254432 -0.0380282 0.0641386 0.432594 -0.899305 1 
0.126552 0.252419 -0.0389155 -0.186818 0.800432 -0.569568 1 
0.126776 0.252512 -0.0388791 -0.188564 0.825156 -0.532505 1 
0.127218 0.252264 -0.0387673 -0.182381 0.731056 -0.657491 1 
0.127032 0.25221 -0.039131 -0.188564 0.825156 -0.532505 1 
0.127135 0.252355 -0.0390406 -0.182429 0.749645 -0.636202 1 
0.125641 0.252245 -0.0389172 -0.147658 0.912667 -0.381098 1 
0.125777 0.252053 -0.0389861 -0.160982 0.904633 -0.394619 1 
0.12573 0.252357 -0.0391993 -0.166869 0.857971 -0.485839 1 
0.125418 0.252095 -0.0390828 -0.120618 0.93648 -0.329327 1 
0.125673 0.251908 -0.0390764 -0.147658 0.912667 -0.381098 1 
0.126449 0.252217 -0.039135 -0.179241 0.81788 -0.546759 1 
0.126001 0.252031 -0.0392079 -0.179077 0.82616 -0.53422 1 
0.126105 0.252118 -0.0392467 -0.179077 0.82616 -0.53422 1 
0.127084 0.252225 -0.039215 -0.188564 0.825156 -0.532505 1 
0.126808 0.25206 -0.0392966 -0.188564 0.825156 -0.532505 1 
0.126449 0.252044 -0.0395224 -0.179241 0.81788 -0.546759 1 
0.126569 0.251991 -0.0395762 -0.181495 0.832479 -0.523487 1 
0.126189 0.251796 -0.0394899 -0.179077 0.82616 -0.53422 1 
0.126209 0.252321 -0.0390272 -0.196483 0.811826 -0.549848 1 
0.127032 0.252037 -0.0395184 -0.188564 0.825156 -0.532505 1 
0.133543 0.271961 -0.0196694 -0.0554423 0.615552 -0.786144 1 
0.133481 0.270905 -0.0198951 0.0181637 0.708386 -0.705591 1 
0.133586 0.270935 -0.0200632 -0.012521 0.727612 -0.685875 1 
0.134367 0.271505 -0.020548 -0.0618069 0.702874 -0.708624 1 
0.134795 0.269839 -0.0205778 -0.00414414 0.747327 -0.664444 1 
0.133481 0.270848 -0.0200243 -0.00138062 0.724826 -0.68893 1 
0.133466 0.27093 -0.0201384 -0.012521 0.727612 -0.685875 1 
0.133586 0.270762 -0.0204505 0.0181298 0.7489 -0.662435 1 
0.133378 0.270645 -0.0202437 0.0097294 0.743604 -0.668549 1 
0.133379 0.270472 -0.0206312 0.0181253 0.751502 -0.659482 1 
0.133315 0.271146 -0.0203127 -0.00138062 0.724826 -0.68893 1 
0.133487 0.271109 -0.0204506 0.0499615 0.743713 -0.666629 1 
0.13318 0.271165 -0.0206313 0.0499615 0.743713 -0.666629 1 
0.133993 0.270129 -0.0207863 0.0468771 0.754296 -0.654859 1 
0.134233 0.270024 -0.0208941 0.0616604 0.75283 -0.655321 1 
0.134186 0.270443 -0.0208489 0.0266887 0.754306 -0.65598 1 
0.134082 0.270241 -0.0210684 0.0616604 0.75283 -0.655321 1 
0.133822 0.270051 -0.0209068 0.0616604 0.75283 -0.655321 1 
0.134145 0.269739 -0.0209994 0.0768317 0.75527 -0.650895 1 
0.134078 0.269691 -0.0212878 0.222867 0.755878 -0.615612 1 
0.133583 0.269925 -0.0213156 0.225923 0.752557 -0.618561 1 
0.133635 0.26994 -0.0213996 0.2402 0.751998 -0.613844 1 
0.133639 0.27072 -0.0206637 0.0181298 0.7489 -0.662435 1 
0.133431 0.270487 -0.0207151 0.0181253 0.751502 -0.659482 1 
0.133332 0.270776 -0.0208444 0.0181253 0.751502 -0.659482 1 
0.133936 0.271064 -0.0208942 -0.0210101 0.743757 -0.66812 1 
0.133676 0.270644 -0.0212492 0.0646187 0.756757 -0.650495 1 
0.133541 0.270836 -0.0211802 0.0586402 0.759462 -0.647903 1 
0.133327 0.270342 -0.0208054 0.0646187 0.756757 -0.650495 1 
0.133411 0.27002 -0.0210486 0.181801 0.759287 -0.624846 1 
0.133307 0.269817 -0.0212681 0.289285 0.746388 -0.599348 1 
0.133281 0.270415 -0.0215352 0.288984 0.739225 -0.608304 1 
0.133464 0.269804 -0.0216492 0.271131 0.7468 -0.607271 1 
0.136639 0.26751 -0.0229417 0.034295 0.86012 -0.508938 1 
0.135681 0.26764 -0.0231565 -0.0353022 0.67639 -0.735697 1 
0.13628 0.267494 -0.0231674 0.089586 0.851778 -0.516186 1 
0.135868 0.26752 -0.0231802 0.0770099 0.725056 -0.684371 1 
0.135682 0.267467 -0.0235439 0.0588224 0.701565 -0.710173 1 
0.135937 0.26728 -0.0235375 0.155164 0.769792 -0.619148 1 
0.136229 0.26719 -0.0237292 0.185203 0.769892 -0.61071 1 
0.136188 0.26764 -0.024627 0.142004 0.787748 -0.599406 1 
0.134593 0.269867 -0.0210556 0.0616969 0.764755 -0.641361 1 
0.134491 0.269376 -0.0219208 0.254217 0.731071 -0.633174 1 
0.134723 0.270683 -0.0211872 0.0295583 0.753032 -0.65732 1 
0.134391 0.269896 -0.0215334 0.188689 0.765493 -0.615156 1 
0.134287 0.269751 -0.0216237 0.232503 0.759926 -0.607005 1 
0.134131 0.269533 -0.0217592 0.253656 0.748364 -0.612871 1 
0.133995 0.26984 -0.021432 0.222867 0.755878 -0.615612 1 
0.133771 0.26969 -0.0215976 0.281898 0.740578 -0.609982 1 
0.133636 0.269824 -0.0216579 0.271131 0.7468 -0.607271 1 
0.134391 0.269781 -0.0217917 0.232503 0.759926 -0.607005 1 
0.134392 0.269608 -0.0221791 0.275883 0.728777 -0.626716 1 
0.134079 0.269461 -0.0218044 0.286171 0.73701 -0.61231 1 
0.13384 0.26945 -0.0219549 0.300055 0.72687 -0.61776 1 
0.133637 0.269651 -0.0220454 0.300055 0.72687 -0.61776 1 
0.133684 0.269232 -0.0220904 0.311555 0.721581 -0.618267 1 
0.133325 0.269216 -0.0223162 0.326239 0.709286 -0.624886 1 
0.134183 0.26949 -0.0219724 0.289893 0.731941 -0.616624 1 
0.134132 0.26936 -0.0221467 0.300055 0.72687 -0.61776 1 
0.133892 0.269407 -0.022168 0.310721 0.726088 -0.613391 1 
0.134304 0.269323 -0.0222845 0.297327 0.72162 -0.625189 1 
0.134252 0.26925 -0.0223297 0.296729 0.72017 -0.627142 1 
0.133841 0.269277 -0.0223424 0.329802 0.709967 -0.622236 1 
0.133789 0.269204 -0.0223875 0.326146 0.712329 -0.621463 1 
0.133638 0.269478 -0.0224327 0.326239 0.709286 -0.624886 1 
0.133372 0.268797 -0.0223613 0.32566 0.704786 -0.630256 1 
0.133685 0.269059 -0.0224778 0.318537 0.703369 -0.635457 1 
0.133326 0.269043 -0.0227037 0.318537 0.703369 -0.635457 1 
0.133477 0.268769 -0.0226585 0.311994 0.706433 -0.635305 1 
0.133306 0.268691 -0.0227789 0.314977 0.702642 -0.638031 1 
0.133569 0.269834 -0.0218172 0.271131 0.7468 -0.607271 1 
0.133277 0.269808 -0.0218837 0.296212 0.734925 -0.610036 1 
0.133413 0.269501 -0.022211 0.30417 0.729043 -0.613169 1 
0.133051 0.26882 -0.0229144 0.33377 0.695219 -0.636606 1 
0.134081 0.269115 -0.0225792 0.304117 0.709606 -0.635588 1 
0.13379 0.269032 -0.022775 0.304117 0.709606 -0.635588 1 
0.133686 0.268886 -0.0228653 0.286828 0.71627 -0.63615 1 
0.133665 0.268534 -0.0229405 0.27597 0.725816 -0.630104 1 
0.133431 0.269015 -0.0230008 0.314662 0.714848 -0.624484 1 
0.132973 0.269231 -0.023485 0.308365 0.708755 -0.634489 1 
0.133213 0.269184 -0.0234636 0.308365 0.708755 -0.634489 1 
0.135322 0.267624 -0.0233824 0.279559 0.723658 -0.631004 1 
0.13624 0.267828 -0.0243235 0.185203 0.769892 -0.61071 1 
0.135887 0.268131 -0.0248466 0.161393 0.779815 -0.604847 1 
0.135458 0.267316 -0.0237095 0.198933 0.744843 -0.636895 1 
0.135886 0.267092 -0.0238409 0.151923 0.780675 -0.606189 1 
0.136073 0.266973 -0.0238646 0.151842 0.783266 -0.602859 1 
0.135662 0.266942 -0.0240065 0.162629 0.688514 -0.706753 1 
0.135096 0.266635 -0.024413 0.169598 0.710479 -0.682976 1 
0.135679 0.266456 -0.0247964 0.176297 0.703654 -0.688324 1 
0.135424 0.2667 -0.0246737 0.169256 0.705994 -0.687696 1 
0.135576 0.266311 -0.0248867 0.176297 0.703654 -0.688324 1 
0.134432 0.265061 -0.0251054 -0.104108 0.626117 -0.772748 1 
0.134588 0.265105 -0.0253573 0.110205 0.615679 -0.780252 1 
0.134932 0.265088 -0.0255039 0.160902 0.575939 -0.801502 1 
0.135773 0.267175 -0.02473 0.149495 0.696134 -0.702174 1 
0.136039 0.266299 -0.024958 0.14623 0.704014 -0.694969 1 
0.135732 0.266356 -0.0251387 0.169256 0.705994 -0.687696 1 
0.13542 0.266036 -0.0251514 0.175562 0.648817 -0.740415 1 
0.135249 0.265958 -0.0252718 0.129839 0.637257 -0.759635 1 
0.135524 0.266066 -0.0253193 0.149394 0.644357 -0.74999 1 
0.135353 0.265988 -0.0254398 0.129839 0.637257 -0.759635 1 
0.135061 0.26602 -0.0253772 0.119879 0.628994 -0.768112 1 
0.135197 0.26577 -0.0255752 0.126168 0.610062 -0.782244 1 
0.134684 0.264036 -0.0259641 0.386439 0.447371 -0.806551 1 
0.133051 0.268705 -0.0231727 0.312063 0.703354 -0.638678 1 
0.133374 0.268451 -0.0231362 0.265476 0.723303 -0.63746 1 
0.133167 0.268046 -0.0235752 0.251758 0.704605 -0.663437 1 
0.133119 0.26858 -0.0232718 0.279782 0.714642 -0.6411 1 
0.133479 0.268308 -0.0236916 0.220342 0.717283 -0.661025 1 
0.133579 0.267904 -0.0238207 0.521376 0.685668 -0.507964 1 
0.133527 0.267831 -0.0238659 0.139733 0.70167 -0.698665 1 
0.1331 0.26794 -0.0239927 0.223945 0.700023 -0.678098 1 
0.132809 0.267856 -0.0241884 0.268726 0.707592 -0.653529 1 
0.132917 0.268666 -0.0236204 0.279902 0.708552 -0.647773 1 
0.132792 0.268284 -0.0235277 0.279999 0.702398 -0.654398 1 
0.132713 0.268983 -0.0234525 0.311994 0.706433 -0.635305 1 
0.132406 0.26904 -0.0236332 0.3085 0.702605 -0.641228 1 
0.132605 0.268231 -0.0238913 0.244714 0.70888 -0.661516 1 
0.13235 0.26836 -0.0240269 0.308771 0.680589 -0.664423 1 
0.132246 0.268215 -0.0241172 0.305193 0.676593 -0.670134 1 
0.132908 0.267452 -0.0243175 0.32073 0.739773 -0.591496 1 
0.132226 0.267863 -0.0241924 0.373289 0.698889 -0.610089 1 
0.134553 0.267519 -0.0238792 0.18621 0.724836 -0.663279 1 
0.135167 0.267233 -0.0239052 0.0353756 0.677797 -0.734398 1 
0.134944 0.267082 -0.0240708 0.0798634 0.675208 -0.733291 1 
0.134792 0.267472 -0.0238577 0.186173 0.727769 -0.66007 1 
0.134345 0.267171 -0.024189 0.193103 0.709074 -0.678178 1 
0.134293 0.267098 -0.0242341 0.176307 0.694495 -0.697562 1 
0.134653 0.266999 -0.0242665 0.165905 0.713849 -0.680364 1 
0.134533 0.266994 -0.0243418 0.257596 0.734859 -0.627396 1 
0.134242 0.26691 -0.0245376 0.237496 0.72507 -0.646429 1 
0.134432 0.267629 -0.0236962 0.18621 0.724836 -0.663279 1 
0.133818 0.267799 -0.0239284 0.510423 0.694509 -0.507076 1 
0.133934 0.267255 -0.0240725 0.199477 0.706673 -0.678839 1 
0.133918 0.267395 -0.0240575 0.206215 0.714775 -0.66826 1 
0.133575 0.267239 -0.0242984 0.216526 0.708772 -0.671386 1 
0.135199 0.266896 -0.0240644 0.162988 0.699173 -0.696126 1 
0.135251 0.266853 -0.0242776 0.169598 0.710479 -0.682976 1 
0.134856 0.266625 -0.0245636 0.175925 0.702171 -0.689932 1 
0.135429 0.267077 -0.0248417 0.175925 0.702171 -0.689932 1 
0.134867 0.267435 -0.0247705 0.199821 0.717187 -0.667619 1 
0.134811 0.266698 -0.0252933 0.159333 0.690445 -0.705619 1 
0.134763 0.267233 -0.0249899 0.156365 0.708955 -0.687701 1 
0.133758 0.26657 -0.0245415 0.162988 0.696126 -0.699173 1 
0.133763 0.267004 -0.0245804 0.189351 0.68813 -0.700445 1 
0.134993 0.26626 -0.0250199 0.149301 0.66205 -0.734438 1 
0.134785 0.266027 -0.0250714 0.126787 0.64885 -0.750279 1 
0.134244 0.266392 -0.0256998 0.0644552 0.628796 -0.774894 1 
0.133911 0.26595 -0.0252712 -0.0236483 0.610682 -0.791522 1 
0.133828 0.266099 -0.0254154 0.0826338 0.636425 -0.766899 1 
0.133968 0.266457 -0.0252648 0.0675101 0.636319 -0.768466 1 
0.133817 0.266616 -0.0255683 0.0180792 0.635555 -0.771844 1 
0.13388 0.265999 -0.0257576 0.0644837 0.617611 -0.783836 1 
0.133304 0.267565 -0.0242898 0.286054 0.739905 -0.608863 1 
0.133117 0.267627 -0.0243952 0.286054 0.739905 -0.608863 1 
0.134206 0.26791 -0.0252159 0.172963 0.693381 -0.699504 1 
0.132094 0.268777 -0.0235168 0.365936 0.651465 -0.664593 1 
0.132047 0.269196 -0.0234716 0.366735 0.662755 -0.652887 1 
0.131636 0.269165 -0.0236135 0.394975 0.636258 -0.662699 1 
0.132131 0.268816 -0.023844 0.333135 0.690646 -0.641895 1 
0.135533 0.267164 -0.0248805 0.183018 0.6967 -0.693624 1 
0.135362 0.266971 -0.0252592 0.169263 0.702977 -0.690778 1 
0.135222 0.266729 -0.0251515 0.159679 0.701069 -0.694986 1 
0.135071 0.266888 -0.0254549 0.159679 0.701069 -0.694986 1 
0.134536 0.266302 -0.0258915 0.0885623 0.619936 -0.779638 1 
0.133563 0.266514 -0.0262205 0.0409659 0.622964 -0.781177 1 
0.134424 0.265 -0.0265497 -0.073709 0.747207 -0.660491 1 
0.134237 0.265062 -0.0266552 -0.0527838 0.748959 -0.660511 1 
0.14132 0.263021 -0.0248777 0.708101 0.565486 -0.42287 1 
0.139918 0.260947 -0.0263553 0.1812 -0.237573 -0.954319 1 
0.139675 0.260272 -0.0269835 0.644833 -0.53708 -0.543815 1 
0.140368 0.264999 -0.0229749 -0.0849905 0.813892 -0.574766 1 
0.141035 0.264613 -0.0233433 -0.196114 0.699525 -0.687171 1 
0.140628 0.265247 -0.0230074 -0.0849905 0.813892 -0.574766 1 
0.140472 0.265029 -0.0231429 -0.17232 0.754851 -0.632855 1 
0.140546 0.265223 -0.0235391 0.0720866 0.846664 -0.527222 1 
0.14065 0.265253 -0.023707 0.0762999 0.79611 -0.600322 1 
0.140369 0.264826 -0.0233624 0.0762999 0.79611 -0.600322 1 
0.140369 0.264654 -0.0237498 0.518337 0.753796 -0.403878 1 
0.14039 0.265006 -0.0236746 0.518337 0.753796 -0.403878 1 
0.140494 0.265035 -0.0238425 0.518337 0.753796 -0.403878 1 
0.140338 0.264818 -0.023978 0.685469 0.666205 -0.293773 1 
0.141885 0.265 -0.0240563 0.0762999 0.79611 -0.600322 1 
0.140984 0.264252 -0.0240341 0.596877 0.738455 -0.313723 1 
0.141193 0.26437 -0.0242409 0.644442 0.711605 -0.279845 1 
0.141245 0.264385 -0.0243249 0.603623 0.746964 -0.278718 1 
0.140427 0.265045 -0.0240018 0.508767 0.83788 -0.19777 1 
0.140651 0.26508 -0.0240945 -0.515942 0.85431 0.0629197 1 
0.140495 0.264863 -0.0242299 -0.615552 0.786144 0.0554423 1 
0.14037 0.264481 -0.0241372 -0.615552 0.786144 0.0554423 1 
0.140324 0.264727 -0.0244796 -0.682772 0.69219 0.233869 1 
0.140787 0.264773 -0.0244217 -0.646414 0.755377 0.10749 1 
0.140631 0.264555 -0.0245571 -0.560869 0.826617 0.0461563 1 
0.141916 0.264663 -0.0242155 0.0762999 0.79611 -0.600322 1 
0.141609 0.264777 -0.0242671 0.270515 0.839368 -0.471468 1 
0.141402 0.26443 -0.0245768 0.902546 0.364236 -0.229659 1 
0.141298 0.264227 -0.0247962 0.779783 0.546965 -0.304578 1 
0.141302 0.264834 -0.0244477 -0.615552 0.786144 0.0554423 1 
0.140162 0.264248 -0.0241887 -0.631314 0.77473 0.0351511 1 
0.140877 0.26327 -0.0249895 0.757941 0.523224 -0.389566 1 
0.14047 0.264019 -0.0243954 0.851332 0.390648 -0.350182 1 
0.140214 0.264263 -0.0242727 0.744492 0.569317 -0.348727 1 
0.140371 0.264308 -0.0245246 0.793251 0.515533 -0.324004 1 
0.140538 0.263779 -0.0247528 0.757418 0.535894 -0.373008 1 
0.140423 0.264265 -0.0247377 0.847376 0.40106 -0.348002 1 
0.140528 0.264353 -0.0247766 0.801872 0.489413 -0.342748 1 
0.14058 0.26431 -0.0249897 0.813708 0.460199 -0.355101 1 
0.141361 0.263668 -0.0248564 0.749197 0.5468 -0.373783 1 
0.140898 0.263622 -0.0249143 0.796654 0.499705 -0.340055 1 
0.140632 0.264382 -0.0249445 0.793728 0.512649 -0.327393 1 
0.140302 0.261865 -0.0258348 0.767198 0.433491 -0.472751 1 
0.140233 0.264874 -0.025939 0.778177 0.466256 -0.420768 1 
0.139738 0.264992 -0.0262251 0.777262 0.43833 -0.451366 1 
0.139292 0.263249 -0.0264547 0.660304 0.392211 -0.640445 1 
0.139038 0.263262 -0.0268485 0.546041 0.223031 -0.807525 1 
0.138736 0.263753 -0.0270681 0.453332 0.268926 -0.849805 1 
0.137106 0.261297 -0.0258977 -0.521116 -0.726253 -0.448325 1 
0.133904 0.264448 -0.0266139 -0.0944637 0.800761 -0.591488 1 
0.133644 0.2642 -0.0265814 -0.262386 0.82442 -0.501483 1 
0.134024 0.264396 -0.0266678 0.0152865 0.77683 -0.629524 1 
0.137603 0.26314 -0.0278811 0.35771 0.199686 -0.912233 1 
0.13742 0.263694 -0.0278962 0.356775 0.199163 -0.912713 1 
0.13724 0.262633 -0.0281972 0.3661 0.0705574 -0.927897 1 
0.137098 0.26389 -0.0280619 0.309779 0.213592 -0.926507 1 
0.136693 0.262736 -0.0283993 0.149375 0.278563 -0.948731 1 
0.136464 0.262209 -0.0283969 0.11626 0.226133 -0.967134 1 
0.136002 0.262105 -0.0285839 0.0621469 0.208375 -0.976073 1 
0.136121 0.262053 -0.0286378 0.0650914 0.217381 -0.973914 1 
0.136226 0.262083 -0.0288057 0.0680375 0.228853 -0.97108 1 
0.136522 0.262658 -0.0285197 0.133898 0.232697 -0.963288 1 
0.135846 0.261945 -0.0285902 0.0348601 0.219979 -0.974881 1 
0.135304 0.262598 -0.028573 0.0368721 0.201012 -0.978895 1 
0.13544 0.262291 -0.0289001 0.0394118 0.204225 -0.97813 1 
0.13544 0.262291 -0.0289001 0.0394118 0.204225 -0.97813 1 
0.136075 0.262299 -0.0289801 0.0680375 0.228853 -0.97108 1 
0.135898 0.261902 -0.0288034 0.0205441 0.250154 -0.967988 1 
0.135799 0.262134 -0.0290617 0.0276435 0.231965 -0.972331 1 
0.135799 0.262134 -0.0290617 0.0276435 0.231965 -0.972331 1 
0.135492 0.26219 -0.0292424 0.0129031 0.212315 -0.977116 1 
0.136333 0.264277 -0.0284685 0.138155 0.2857 -0.948308 1 
0.13599 0.264179 -0.0285802 0.111896 0.285664 -0.951775 1 
0.135834 0.263961 -0.0287157 0.0828601 0.322234 -0.943027 1 
0.134482 0.262536 -0.0288567 -0.076176 0.134773 -0.987944 1 
0.134647 0.263622 -0.0287989 -0.0993252 -0.0764918 -0.992111 1 
0.134231 0.263329 -0.0285146 -0.08787 0.250875 -0.964023 1 
0.133559 0.263051 -0.0286239 0.0230096 0.496736 -0.867597 1 
0.134522 0.263297 -0.0285771 -0.119238 0.161033 -0.97972 1 
0.134522 0.26324 -0.0287062 -0.0499226 0.433112 -0.899956 1 
0.134382 0.26294 -0.0287276 -0.0357806 0.41214 -0.910418 1 
0.135605 0.26355 -0.028455 -0.0450107 0.473294 -0.879754 1 
0.135621 0.263352 -0.0285992 0.028917 0.305515 -0.951748 1 
0.134789 0.262364 -0.0289343 -0.0127639 0.1961 -0.980501 1 
0.135002 0.263088 -0.0287925 -0.0540116 0.134454 -0.989447 1 
0.134877 0.262649 -0.0288289 -0.010306 0.179783 -0.983652 1 
0.135601 0.26277 -0.0291909 0.0445292 0.213018 -0.976033 1 
0.13511 0.263725 -0.0286119 -0.0323521 0.651261 -0.758164 1 
0.134835 0.263502 -0.0288227 -0.0701657 -0.0768481 -0.994571 1 
0.134584 0.264181 -0.0287388 -0.0954854 0.294304 -0.95093 1 
0.135572 0.260165 -0.0289577 -0.301435 0.187528 -0.934864 1 
0.135468 0.259962 -0.0291771 -0.318905 0.189657 -0.928617 1 
0.136056 0.26039 -0.029212 -0.208371 0.235609 -0.949247 1 
0.135323 0.259228 -0.0291596 -0.50518 0.144965 -0.850752 1 
0.135275 0.259647 -0.0291145 -0.34579 0.194951 -0.917836 1 
0.13537 0.258809 -0.0292047 -0.452022 0.197111 -0.869956 1 
0.13538 0.259677 -0.0292824 -0.368066 0.200632 -0.907896 1 
0.134176 0.259766 -0.028705 -0.863474 -0.479382 -0.156862 1 
0.133139 0.262036 -0.0289463 0.00122939 0.30366 -0.95278 1 
0.133019 0.262031 -0.0290216 -0.0110343 0.288118 -0.957531 1 
0.134847 0.260044 -0.0285956 -0.867536 -0.106839 -0.485763 1 
0.135161 0.260134 -0.0290996 -0.300331 0.178538 -0.936977 1 
0.135009 0.260523 -0.0288865 0.0259517 0.278054 -0.960215 1 
0.1344 0.261185 -0.0290284 -0.0228259 0.234266 -0.971904 1 
0.134623 0.261278 -0.028992 -0.0452884 0.236234 -0.97064 1 
0.134415 0.261046 -0.0290435 -0.0132558 0.25186 -0.967673 1 
0.136045 0.260964 -0.0292358 -0.143157 0.240347 -0.960073 1 
0.13542 0.260439 -0.0290028 -0.26829 0.199498 -0.942455 1 
0.135123 0.261421 -0.0291322 -0.121038 0.212772 -0.969576 1 
0.13518 0.261928 -0.0291259 -0.0692657 0.195645 -0.978226 1 
0.135149 0.262207 -0.0290959 -0.0241443 0.16901 -0.985318 1 
0.135644 0.261916 -0.0291972 -0.0131564 0.242796 -0.969988 1 
0.13554 0.261771 -0.0292874 -0.0838416 0.229 -0.969809 1 
0.135295 0.261384 -0.02927 -0.138286 0.221 -0.96542 1 
0.13414 0.259496 -0.0288943 -0.789579 -0.599962 0.128881 1 
0.134248 0.261575 -0.0288154 -0.02201 0.179556 -0.983502 1 
0.134154 0.262413 -0.0287252 0.0547735 0.399446 -0.915119 1 
0.133857 0.261896 -0.028882 -0.088274 0.130645 -0.987491 1 
0.134513 0.262256 -0.0288867 -0.0462813 0.186312 -0.9814 1 
0.133785 0.261471 -0.0290024 -0.0722081 0.108885 -0.991428 1 
0.133837 0.261544 -0.0289573 -0.0722081 0.108885 -0.991428 1 
0.133743 0.262382 -0.0288671 0.0088955 0.357091 -0.934027 1 
0.134821 0.262085 -0.0289643 -0.0269126 0.188388 -0.981726 1 
0.133409 0.264739 -0.0265125 -0.485786 0.834317 -0.260628 1 
0.141688 0.261395 -0.0260097 0.952184 -0.137168 -0.273004 1 
0.14175 0.262279 -0.0261714 0.824359 0.401855 -0.398678 1 
0.141651 0.26251 -0.0264298 0.815862 0.397553 -0.419906 1 
0.141183 0.261972 -0.0265779 0.82031 0.285936 -0.495311 1 
0.141443 0.26222 -0.0266104 0.821457 0.265537 -0.504676 1 
0.141688 0.262549 -0.026757 0.847624 0.354347 -0.394933 1 
0.140588 0.264052 -0.0265783 0.74057 0.486566 -0.463475 1 
0.140574 0.262635 -0.0267199 0.729345 0.375326 -0.572003 1 
0.14098 0.262174 -0.0266683 0.747316 0.330885 -0.576224 1 
0.140829 0.262448 -0.0267136 0.729191 0.353992 -0.585637 1 
0.14059 0.262322 -0.0271224 0.605328 0.215193 -0.766336 1 
0.14037 0.262951 -0.026552 0.764409 0.427218 -0.482871 1 
0.140683 0.263099 -0.0269268 0.74786 0.373115 -0.549082 1 
0.140527 0.262996 -0.0268039 0.744998 0.397878 -0.535416 1 
0.140376 0.26327 -0.0268492 0.733561 0.385653 -0.559607 1 
0.140428 0.263227 -0.0270623 0.701577 0.351606 -0.619808 1 
0.14083 0.262275 -0.027101 0.630276 0.243623 -0.737156 1 
0.14095 0.262165 -0.0272839 0.56104 0.150305 -0.814029 1 
0.140539 0.262192 -0.0272967 0.461252 0.10015 -0.881599 1 
0.140695 0.262236 -0.0275486 0.366791 -0.00126917 -0.930303 1 
0.14084 0.263143 -0.0271787 0.729735 0.357521 -0.582808 1 
0.140226 0.263256 -0.0275401 0.534835 0.232738 -0.812271 1 
0.140333 0.264239 -0.0265847 0.731076 0.489042 -0.47578 1 
0.140234 0.264528 -0.0267139 0.708772 0.511983 -0.4853 1 
0.139796 0.265383 -0.0264771 0.80442 0.390168 -0.44797 1 
0.139728 0.26545 -0.0265073 0.810567 0.375707 -0.449249 1 
0.13977 0.264597 -0.0265135 0.715529 0.463185 -0.522951 1 
0.13926 0.264855 -0.0267846 0.656152 0.315925 -0.685314 1 
0.139896 0.264864 -0.0268645 0.709463 0.362105 -0.6046 1 
0.13998 0.264542 -0.0271077 0.662238 0.432039 -0.612195 1 
0.139792 0.264603 -0.0272131 0.572881 0.348922 -0.741661 1 
0.139417 0.264842 -0.0271656 0.521767 0.26322 -0.811464 1 
0.139782 0.265177 -0.0272369 0.563288 0.284024 -0.77591 1 
0.139813 0.263629 -0.026778 0.654401 0.431272 -0.621098 1 
0.140277 0.263502 -0.0271075 0.671852 0.391226 -0.628933 1 
0.140022 0.263631 -0.0272431 0.602489 0.351043 -0.716782 1 
0.139663 0.263614 -0.0274689 0.488912 0.254481 -0.834389 1 
0.139375 0.264369 -0.0267995 0.64456 0.405957 -0.647874 1 
0.13922 0.264151 -0.026935 0.555716 0.351575 -0.753376 1 
0.139168 0.264079 -0.0269801 0.555716 0.351575 -0.753376 1 
0.139199 0.263741 -0.0271394 0.4966 0.26145 -0.827667 1 
0.139204 0.264233 -0.0270491 0.54041 0.340378 -0.76948 1 
0.139261 0.264682 -0.027172 0.519494 0.263647 -0.812783 1 
0.139048 0.264016 -0.0271846 0.45574 0.279624 -0.845051 1 
0.139621 0.264525 -0.0273336 0.515225 0.305964 -0.80058 1 
0.139158 0.264479 -0.0273915 0.47832 0.273989 -0.83435 1 
0.13907 0.264195 -0.0274968 0.462211 0.276708 -0.842492 1 
0.138991 0.263509 -0.0271908 0.481431 0.243008 -0.842123 1 
0.138841 0.26361 -0.0276235 0.453332 0.268926 -0.849805 1 
0.13843 0.263694 -0.0275071 0.443885 0.233228 -0.8652 1 
0.139049 0.263843 -0.027572 0.45977 0.286389 -0.84059 1 
0.138638 0.263754 -0.027843 0.44246 0.267925 -0.85583 1 
0.138946 0.263582 -0.0279207 0.444917 0.267562 -0.854669 1 
0.139835 0.263635 -0.0274776 0.4966 0.26145 -0.827667 1 
0.139987 0.263245 -0.0276907 0.504548 0.224074 -0.8338 1 
0.138379 0.263276 -0.0283271 0.400246 0.196484 -0.895096 1 
0.138016 0.262768 -0.0286432 0.36739 0.159062 -0.916364 1 
0.138172 0.262813 -0.0288952 0.370696 0.169014 -0.913246 1 
0.138054 0.261365 -0.0288688 0.208091 0.213461 -0.954533 1 
0.139489 0.26544 -0.0266578 0.708047 0.311283 -0.633855 1 
0.139645 0.265484 -0.0269098 0.653345 0.340521 -0.676155 1 
0.139474 0.265464 -0.0269011 0.645603 0.258559 -0.718571 1 
0.13901 0.265476 -0.0268298 0.484433 0.250675 -0.838145 1 
0.139062 0.265491 -0.0269138 0.484433 0.250675 -0.838145 1 
0.138854 0.265258 -0.0269653 0.476858 0.252995 -0.841784 1 
0.139422 0.265334 -0.0270754 0.563288 0.284024 -0.77591 1 
0.139131 0.265251 -0.0272711 0.474261 0.267255 -0.838839 1 
0.138855 0.265028 -0.0274819 0.476858 0.252995 -0.841784 1 
0.1383 0.264147 -0.0278645 0.427986 0.26654 -0.863588 1 
0.138332 0.26381 -0.0280237 0.435141 0.236391 -0.868776 1 
0.138129 0.264012 -0.0281141 0.395266 0.266016 -0.879204 1 
0.138488 0.263855 -0.0282757 0.430737 0.232628 -0.87198 1 
0.138035 0.263466 -0.0277931 0.389324 0.218903 -0.894711 1 
0.137655 0.263098 -0.0280942 0.37869 0.147816 -0.913643 1 
0.137868 0.26388 -0.0278233 0.393759 0.212249 -0.894374 1 
0.137665 0.264081 -0.0279136 0.411124 0.168777 -0.895819 1 
0.13792 0.263895 -0.0279072 0.3949 0.232207 -0.888895 1 
0.13828 0.263738 -0.0280689 0.423253 0.245517 -0.872112 1 
0.137869 0.263649 -0.0283398 0.379613 0.191972 -0.905009 1 
0.137874 0.264141 -0.0282496 0.396187 0.249673 -0.883572 1 
0.138181 0.263969 -0.0283272 0.38842 0.262446 -0.883319 1 
0.137874 0.264026 -0.0285079 0.397568 0.199512 -0.89562 1 
0.137817 0.263577 -0.028385 0.389611 0.164122 -0.906238 1 
0.137818 0.263461 -0.0286433 0.365422 0.17489 -0.914265 1 
0.137193 0.262936 -0.0284104 0.270061 0.225284 -0.936117 1 
0.137526 0.263493 -0.0285807 0.326259 0.209433 -0.921788 1 
0.137614 0.263836 -0.0283463 0.359901 0.209581 -0.909147 1 
0.137271 0.26368 -0.0285871 0.312887 0.230022 -0.921516 1 
0.137151 0.26379 -0.0284041 0.298312 0.241219 -0.923484 1 
0.137614 0.263778 -0.0284754 0.339927 0.210841 -0.916513 1 
0.136911 0.263837 -0.0284256 0.237908 0.268878 -0.93333 1 
0.136688 0.263686 -0.0285912 0.160726 0.306341 -0.938255 1 
0.136912 0.263664 -0.028813 0.201336 0.284647 -0.937251 1 
0.137323 0.263579 -0.0289294 0.275346 0.241457 -0.930528 1 
0.137048 0.263356 -0.0291401 0.180735 0.264988 -0.947162 1 
0.136741 0.263528 -0.0290626 0.141035 0.288786 -0.946949 1 
0.136565 0.261574 -0.0290425 0.0208058 0.268028 -0.963187 1 
0.136522 0.262485 -0.0289071 0.111293 0.2341 -0.965822 1 
0.136232 0.262344 -0.029232 0.0811586 0.228493 -0.970157 1 
0.1358 0.261961 -0.0294491 -0.0108951 0.262692 -0.964818 1 
0.135753 0.26238 -0.029404 0.0420279 0.212541 -0.976248 1 
0.136126 0.263872 -0.0289074 0.104109 0.293876 -0.950157 1 
0.135394 0.262364 -0.0296299 -0.0105332 0.211835 -0.977249 1 
0.136353 0.260734 -0.0294426 -0.159347 0.261115 -0.952065 1 
0.136416 0.260233 -0.0293735 -0.278874 0.239237 -0.930051 1 
0.136206 0.261558 -0.0292683 -0.0230935 0.256459 -0.966279 1 
0.13605 0.26134 -0.0294038 -0.0956245 0.243524 -0.96517 1 
0.138574 0.260362 -0.0163403 0.168816 0.643328 -0.746747 1 
0.138313 0.260172 -0.0161787 0.168816 0.643328 -0.746747 1 
0.138058 0.260359 -0.016185 0.165841 0.67097 -0.7227 1 
0.138267 0.260419 -0.016521 0.142883 0.645228 -0.75051 1 
0.137752 0.260358 -0.0164949 0.165841 0.67097 -0.7227 1 
0.137887 0.260166 -0.0165638 0.227414 0.697925 -0.679105 1 
0.137992 0.260196 -0.0167317 0.172861 0.671556 -0.720508 1 
0.137597 0.259967 -0.0170178 0.333629 0.701435 -0.629826 1 
0.139628 0.257606 -0.0168889 0.39488 0.20254 -0.896129 1 
0.139318 0.256998 -0.0175473 0.526046 0.201626 -0.82621 1 
0.139886 0.256901 -0.0180448 0.61869 0.0554688 -0.783674 1 
0.140414 0.258783 -0.0170252 -0.0511685 0.363427 -0.930216 1 
0.14057 0.258827 -0.0172772 0.37404 0.065224 -0.925116 1 
0.140008 0.259186 -0.017206 0.544185 0.638533 -0.544185 1 
0.140107 0.258897 -0.0170768 0.249026 0.518159 -0.818228 1 
0.140263 0.258941 -0.0173288 0.20311 0.485959 -0.850053 1 
0.139956 0.259113 -0.0172512 0.544185 0.638533 -0.544185 1 
0.140144 0.258878 -0.0175332 0.20311 0.485959 -0.850053 1 
0.139801 0.25878 -0.0176449 0.268808 0.545477 -0.79385 1 
0.13968 0.258948 -0.0173328 0.255043 0.56172 -0.787034 1 
0.139255 0.257499 -0.0176162 0.437851 0.337412 -0.83333 1 
0.139233 0.258647 -0.017664 0.255221 0.565243 -0.784451 1 
0.138567 0.258802 -0.0178122 0.374022 0.563483 -0.736611 1 
0.138974 0.258226 -0.0180189 0.392367 0.512845 -0.763569 1 
0.138849 0.257902 -0.017797 0.403535 0.46836 -0.786002 1 
0.137835 0.257352 -0.0184056 0.592291 0.324388 -0.737539 1 
0.13896 0.256636 -0.018548 0.595769 0.201669 -0.777425 1 
0.137997 0.257716 -0.0189547 0.62839 0.332868 -0.703082 1 
0.138144 0.256892 -0.0191289 0.598246 0.37206 -0.7097 1 
0.138154 0.257761 -0.0192066 0.62864 0.344527 -0.697218 1 
0.138267 0.260361 -0.0166501 0.172861 0.671556 -0.720508 1 
0.13806 0.259956 -0.017089 0.276502 0.698448 -0.660089 1 
0.137649 0.259982 -0.0171018 0.333629 0.701435 -0.629826 1 
0.137837 0.259805 -0.0172546 0.297416 0.718621 -0.628592 1 
0.1378 0.259593 -0.0173149 0.322341 0.646302 -0.691657 1 
0.137781 0.259068 -0.0177775 0.443909 0.563615 -0.696622 1 
0.137878 0.257711 -0.01903 0.62864 0.344527 -0.697218 1 
0.137207 0.257432 -0.0191393 0.671241 0.226876 -0.705664 1 
0.137326 0.25738 -0.0191931 0.671241 0.226876 -0.705664 1 
0.137072 0.257394 -0.019587 0.678758 0.189313 -0.709541 1 
0.136825 0.258794 -0.0188963 0.692896 0.38348 -0.610605 1 
0.137138 0.258884 -0.0194003 0.693905 0.39063 -0.6049 1 
0.136712 0.25755 -0.0194254 0.644357 0.149394 -0.74999 1 
0.13649 0.257227 -0.0199784 0.529997 0.215359 -0.820197 1 
0.136609 0.257232 -0.0199031 0.577495 0.190467 -0.793865 1 
0.136203 0.257751 -0.0198257 0.594919 0.138665 -0.791734 1 
0.136706 0.258674 -0.0192299 0.703234 0.283536 -0.651973 1 
0.136576 0.259069 -0.0197164 0.743143 0.267785 -0.613212 1 
0.136624 0.25865 -0.0197616 0.726149 0.230548 -0.647731 1 
0.138034 0.257755 -0.0192819 0.633039 0.30766 -0.710357 1 
0.136849 0.25707 -0.0201401 0.538328 0.268379 -0.798859 1 
0.136698 0.257287 -0.0203144 0.555784 0.241307 -0.795534 1 
0.136819 0.257119 -0.0206265 0.519402 0.277747 -0.808133 1 
0.136773 0.257308 -0.021098 0.485253 0.299946 -0.821317 1 
0.136369 0.258664 -0.0201554 0.725284 0.169487 -0.667261 1 
0.136042 0.258368 -0.0204113 0.574597 0.150738 -0.804435 1 
0.136266 0.258461 -0.0203748 0.622887 0.129334 -0.771547 1 
0.136203 0.258962 -0.0204439 0.712128 0.234232 -0.661823 1 
0.135807 0.258849 -0.0204716 0.750681 0.120406 -0.6496 1 
0.135657 0.25895 -0.0209042 0.732691 0.136349 -0.666763 1 
0.135585 0.258526 -0.0210246 0.393844 0.276143 -0.876717 1 
0.129263 0.26589 -0.0229311 0.351923 0.689114 -0.633461 1 
0.128868 0.265662 -0.0232171 0.383754 0.68351 -0.620924 1 
0.130297 0.264109 -0.0239148 0.156278 0.672149 -0.723736 1 
0.130102 0.265582 -0.0231789 0.376627 0.679244 -0.629904 1 
0.130258 0.265627 -0.0234309 0.402863 0.728442 -0.554142 1 
0.130186 0.265202 -0.0235513 0.216526 0.708772 -0.671386 1 
0.129228 0.265505 -0.0233787 0.383671 0.686655 -0.617496 1 
0.129108 0.2655 -0.023454 0.383671 0.686655 -0.617496 1 
0.129212 0.26553 -0.023622 0.373856 0.676893 -0.634072 1 
0.130234 0.264668 -0.0238547 0.213526 0.712274 -0.668634 1 
0.130342 0.265305 -0.0236741 0.234149 0.71816 -0.655302 1 
0.129427 0.264639 -0.023766 0.345421 0.741115 -0.575702 1 
0.128902 0.263595 -0.0239204 0.46746 0.707012 -0.530675 1 
0.129223 0.264898 -0.0237273 0.333185 0.687498 -0.64524 1 
0.128901 0.265094 -0.0238929 0.365936 0.651465 -0.664593 1 
0.130197 0.264513 -0.0237857 0.219806 0.721773 -0.656299 1 
0.13013 0.264407 -0.0242033 0.172861 0.671556 -0.720508 1 
0.130027 0.264262 -0.0242936 0.106645 0.591658 -0.799104 1 
0.129584 0.264568 -0.0242762 0.213168 0.692409 -0.689297 1 
0.129409 0.263768 -0.0250035 0.106749 0.476814 -0.872498 1 
0.129325 0.263975 -0.0250186 0.140849 0.567845 -0.810995 1 
0.129105 0.264605 -0.0244482 0.414764 0.749197 -0.516405 1 
0.129329 0.264582 -0.02467 0.322284 0.720685 -0.613797 1 
0.129101 0.26394 -0.0249259 0.342741 0.739085 -0.579898 1 
0.129018 0.264147 -0.024941 0.426687 0.742996 -0.515649 1 
0.128715 0.264868 -0.0246441 0.333548 0.704518 -0.626419 1 
0.128918 0.264551 -0.0248119 0.44669 0.740087 -0.502732 1 
0.128352 0.265774 -0.0228035 0.376978 0.696339 -0.610737 1 
0.128441 0.265886 -0.0230857 0.387258 0.687177 -0.614669 1 
0.128254 0.265948 -0.0231911 0.3799 0.692371 -0.613431 1 
0.128904 0.265874 -0.023157 0.402105 0.670174 -0.623841 1 
0.128665 0.265864 -0.0233075 0.380766 0.690653 -0.61483 1 
0.128617 0.266398 -0.0230041 0.309931 0.743513 -0.592563 1 
0.128753 0.266091 -0.0233313 0.381014 0.681207 -0.625127 1 
0.128498 0.266277 -0.0233377 0.346546 0.72075 -0.600354 1 
0.128545 0.265858 -0.0233828 0.380766 0.690653 -0.61483 1 
0.128598 0.265873 -0.0234668 0.380766 0.690653 -0.61483 1 
0.12821 0.266974 -0.0227975 0.183034 0.809282 -0.558177 1 
0.128414 0.266599 -0.0230945 0.273391 0.779086 -0.564166 1 
0.128243 0.266522 -0.023215 0.294734 0.763123 -0.57513 1 
0.128363 0.266412 -0.0233979 0.331237 0.741648 -0.583301 1 
0.127566 0.265924 -0.0230271 0.305231 0.771866 -0.557725 1 
0.128457 0.265573 -0.0234881 0.383754 0.68351 -0.620924 1 
0.12825 0.265225 -0.0237979 0.369561 0.648784 -0.665209 1 
0.127719 0.265189 -0.0240151 0.347808 0.66459 -0.661324 1 
0.127723 0.265969 -0.0232791 0.320241 0.748302 -0.580939 1 
0.127687 0.265584 -0.0237267 0.369601 0.70142 -0.60943 1 
0.128905 0.265701 -0.0235444 0.383671 0.686655 -0.617496 1 
0.128666 0.265691 -0.0236949 0.383671 0.686655 -0.617496 1 
0.128749 0.265484 -0.0236799 0.383671 0.686655 -0.617496 1 
0.128593 0.265266 -0.0238153 0.369561 0.648784 -0.665209 1 
0.128203 0.265472 -0.0241402 0.363101 0.662125 -0.655553 1 
0.128616 0.265272 -0.0245149 0.365936 0.651465 -0.664593 1 
0.128443 0.265367 -0.024248 0.369561 0.648784 -0.665209 1 
0.128043 0.26482 -0.0242368 0.369561 0.648784 -0.665209 1 
0.127892 0.264979 -0.0245403 0.392249 0.650438 -0.650438 1 
0.128439 0.264703 -0.0247256 0.344601 0.694101 -0.63204 1 
0.128184 0.264947 -0.0246028 0.370381 0.660101 -0.653517 1 
0.127792 0.265441 -0.0242821 0.366307 0.691549 -0.622558 1 
0.127897 0.265471 -0.0244501 0.347808 0.66459 -0.661324 1 
0.127845 0.265398 -0.0244952 0.340565 0.666464 -0.663205 1 
0.127898 0.26524 -0.0249667 0.452935 0.650154 -0.610041 1 
0.128912 0.265617 -0.0247455 0.387347 0.684038 -0.618106 1 
