0.136015 0.260479 -0.00546192 0.783986 0.389569 0.483324 2 
0.136504 0.260505 -0.00577822 0.810559 0.407678 0.420468 2 
0.136551 0.260368 -0.00543305 0.813815 0.414102 0.407707 2 
0.138582 0.255264 -0.00593261 0.818356 0.573822 0.0319562 2 
0.138763 0.255352 -0.00583519 0.818356 0.573822 0.0319562 2 
0.138627 0.255372 -0.00601178 0.823734 0.566231 0.029073 2 
0.138759 0.255398 -0.00628003 0.783674 0.61869 -0.0554688 2 
0.138893 0.255278 -0.00611368 0.778601 0.625989 -0.0438051 2 
0.138961 0.254492 -0.00727448 0.554195 0.815522 -0.166709 2 
0.139321 0.254568 -0.00708988 0.531774 0.827037 -0.18228 2 
0.138834 0.254864 -0.00696521 0.65433 0.73131 -0.19245 2 
0.139156 0.255108 -0.00644825 0.691132 0.71203 -0.123896 2 
0.139014 0.254852 -0.00687805 0.65433 0.73131 -0.19245 2 
0.139283 0.254835 -0.00674731 0.65433 0.73131 -0.19245 2 
0.139066 0.255114 -0.00649187 0.691132 0.71203 -0.123896 2 
0.139115 0.255298 -0.00633834 0.757379 0.646472 -0.0919361 2 
0.139377 0.254317 -0.00563262 0.651073 0.756961 -0.0558062 2 
0.139031 0.255235 -0.00571468 0.810433 0.585236 0.0264121 2 
0.139076 0.255343 -0.00579385 0.809589 0.586918 0.00962161 2 
0.139341 0.255027 -0.00569384 0.775689 0.630856 -0.018104 2 
0.139591 0.254551 -0.00695913 0.531774 0.827037 -0.18228 2 
0.139553 0.254818 -0.00661652 0.65433 0.73131 -0.19245 2 
0.139685 0.254844 -0.00688475 0.566517 0.790019 -0.234367 2 
0.139384 0.255281 -0.0062076 0.711484 0.690514 -0.130314 2 
0.139513 0.255108 -0.00649633 0.669276 0.71851 -0.189244 2 
0.139649 0.254965 -0.00610758 0.670256 0.719336 -0.182518 2 
0.139826 0.254755 -0.00604095 0.573499 0.784871 -0.234684 2 
0.139874 0.255062 -0.00609958 0.662176 0.726703 -0.182828 2 
0.140006 0.255088 -0.00636785 0.628126 0.754059 -0.19197 2 
0.139698 0.255272 -0.00616625 0.677491 0.714195 -0.175872 2 
0.139827 0.255099 -0.00645502 0.662932 0.721653 -0.199343 2 
0.139954 0.254826 -0.00675401 0.545576 0.811487 -0.209367 2 
0.136909 0.25926 -0.00838311 0.580191 0.502832 0.640733 1 
0.136529 0.260276 -0.00746559 0.756438 0.424984 0.497182 1 
0.136563 0.260056 -0.00825302 0.710683 0.432373 0.554962 1 
0.13619 0.261103 -0.00665797 0.809129 0.355889 0.467603 1 
0.135489 0.261409 -0.00563113 0.537483 -0.362111 -0.761569 1 
0.13579 0.261194 -0.00651023 0.722656 0.470142 0.50669 1 
0.135926 0.261518 -0.00674772 0.859456 0.28955 0.421302 1 
0.136404 0.261215 -0.00777227 0.775551 0.33559 0.534696 1 
0.136713 0.260908 -0.0077617 0.76649 0.358127 0.53314 1 
0.136408 0.261857 -0.00815558 0.798675 0.336368 0.498973 1 
0.136454 0.261621 -0.00782068 0.793152 0.30677 0.526119 1 
0.137503 0.26143 -0.0100076 0.397034 -0.565073 -0.723227 1 
0.134208 0.264717 -0.0082909 0.896328 0.423384 0.131688 1 
0.134036 0.264981 -0.00790244 0.913133 0.400259 0.0773382 1 
0.134709 0.265416 -0.00831297 0.864217 0.478171 0.156466 1 
0.135152 0.265456 -0.0087623 0.8248 0.518752 0.224946 1 
0.135592 0.264953 -0.00881806 0.842362 0.493275 0.217041 1 
0.135333 0.2652 -0.0082508 0.871483 0.457051 0.177824 1 
0.13563 0.262253 -0.00603977 0.907024 0.243918 0.343238 1 
0.136069 0.262339 -0.00693388 0.844716 0.292938 0.447932 1 
0.135549 0.2632 -0.00643592 0.919552 0.269102 0.286371 1 
0.136547 0.262503 -0.00858469 0.778415 0.401396 0.48265 1 
0.136211 0.263061 -0.00713035 0.872872 0.321424 0.367124 1 
0.136341 0.262988 -0.00740886 0.817742 0.363617 0.446185 1 
0.135156 0.263788 -0.00623688 0.858739 0.348137 0.375988 1 
0.134989 0.264695 -0.00623176 0.884344 0.414859 0.214073 1 
0.134855 0.265037 -0.00660002 0.873617 0.439041 0.209847 1 
0.134984 0.264863 -0.00688876 0.809416 0.424743 0.40551 1 
0.135429 0.264536 -0.00670157 0.92808 0.372004 0.0167338 1 
0.1353 0.264709 -0.00641283 0.892802 0.400221 0.206708 1 
0.135122 0.26482 -0.00648974 0.880306 0.424618 0.211569 1 
0.135254 0.264846 -0.00675799 0.811314 0.433661 0.392055 1 
0.135912 0.263942 -0.00685701 0.89586 0.349133 0.274849 1 
0.135694 0.264221 -0.00660159 0.88885 0.387295 0.244842 1 
0.135649 0.264457 -0.00693648 0.886172 0.415898 0.204275 1 
0.135683 0.264358 -0.00793608 0.848425 0.448079 0.281782 1 
0.135771 0.264253 -0.00790274 0.843946 0.447523 0.295768 1 
0.135763 0.264345 -0.0087924 0.820208 0.510111 0.258932 1 
0.135244 0.264839 -0.00765792 0.874513 0.451219 0.177842 1 
0.135514 0.264821 -0.00752714 0.879167 0.429979 0.205385 1 
0.135511 0.264967 -0.00796171 0.854193 0.46716 0.228289 1 
0.135653 0.265344 -0.0077441 0.884179 0.432622 0.176253 1 
0.135691 0.264488 -0.00724831 0.881158 0.414575 0.227348 1 
0.13573 0.26491 -0.00841907 0.852238 0.492305 0.176992 1 
0.135424 0.265171 -0.00798479 0.877893 0.439682 0.189695 1 
0.135512 0.265189 -0.00816362 0.874891 0.444085 0.193273 1 
0.135779 0.264972 -0.00805338 0.849004 0.467943 0.245403 1 
0.135641 0.265015 -0.00845239 0.848809 0.488253 0.202813 1 
0.136044 0.263968 -0.00712521 0.881852 0.383087 0.274921 1 
0.13604 0.263892 -0.00735793 0.872629 0.393062 0.289864 1 
0.136084 0.2639 -0.00744733 0.859635 0.404444 0.312175 1 
0.135777 0.264184 -0.00723551 0.86962 0.426521 0.248678 1 
0.135865 0.264201 -0.00741434 0.860973 0.431249 0.269721 1 
0.135781 0.264483 -0.00720474 0.881158 0.414575 0.227348 1 
0.135388 0.263519 -0.00950389 0.788725 0.519951 0.327969 1 
0.135617 0.263569 -0.00905104 0.807417 0.490161 0.32836 1 
0.135879 0.26421 -0.010426 0.756872 0.521474 0.393966 1 
0.135501 0.265326 -0.00949815 0.80555 0.527127 0.270602 1 
0.135806 0.264721 -0.00951831 0.790679 0.533986 0.299476 1 
0.135853 0.264806 -0.00937507 0.797703 0.536522 0.275341 1 
0.13585 0.265074 -0.0100218 0.773905 0.532563 0.342706 1 
0.136428 0.265216 -0.0105067 0.758191 0.529919 0.379911 1 
0.13656 0.265242 -0.0107749 0.747495 0.520782 0.412355 1 
0.136421 0.265308 -0.0113963 0.74764 0.541507 0.384454 1 
0.136467 0.265516 -0.0114653 0.732797 0.572855 0.367214 1 
0.136557 0.265165 -0.0110076 0.751121 0.531839 0.391107 1 
0.13669 0.265291 -0.0112656 0.674654 0.483809 0.557468 1 
0.136648 0.265259 -0.0109538 0.751121 0.531839 0.391107 1 
0.136872 0.265723 -0.0115822 0.734749 0.550651 0.39614 1 
0.136915 0.26551 -0.0114697 0.762499 0.511054 0.396761 1 
0.136547 0.262847 -0.0089988 0.809765 0.44561 0.381723 1 
0.13708 0.262537 -0.00899047 0.770556 0.480579 0.418674 1 
0.137218 0.262839 -0.00900555 0.775903 0.486363 0.401778 1 
0.13735 0.262864 -0.00927375 0.824922 0.472955 0.309542 1 
0.137439 0.262981 -0.00944234 0.857679 0.443312 0.260503 1 
0.137569 0.262907 -0.00972083 0.91784 0.376301 0.126359 1 
0.136821 0.263128 -0.00883727 0.800162 0.466627 0.37683 1 
0.137132 0.263143 -0.00901835 0.811462 0.451166 0.371455 1 
0.136967 0.263682 -0.00837673 0.781889 0.456779 0.424268 1 
0.13704 0.263171 -0.00928435 0.793418 0.48442 0.368545 1 
0.137305 0.263322 -0.0098106 0.969334 0.210725 -0.126435 1 
0.137468 0.263051 -0.0110989 -0.417867 0.473149 0.775575 1 
0.136939 0.263659 -0.0110765 0.628932 0.558114 0.541252 1 
0.137612 0.263283 -0.0104468 0.953193 0.294576 0.0681771 1 
0.137572 0.263573 -0.0103266 0.978085 0.208177 -0.00348901 1 
0.137617 0.263337 -0.00999163 0.940513 0.329378 0.0833366 1 
0.137747 0.263263 -0.0102701 0.910509 0.391421 0.133279 1 
0.136161 0.264399 -0.00937471 0.788731 0.534814 0.303114 1 
0.136163 0.264721 -0.0095664 0.794744 0.517619 0.316942 1 
0.136786 0.264749 -0.00992857 0.797324 0.486095 0.357753 1 
0.136299 0.265045 -0.00980388 0.786299 0.51726 0.3379 1 
0.13652 0.264032 -0.00878634 0.811779 0.496525 0.307373 1 
0.136946 0.264279 -0.0112374 0.628189 0.584401 0.513667 1 
0.136832 0.265079 -0.0102096 0.777756 0.512575 0.363815 1 
0.13696 0.264807 -0.0105086 0.712996 0.540148 0.447076 1 
0.13674 0.265231 -0.0106878 0.752347 0.506482 0.421249 1 
0.137087 0.265001 -0.0114338 0.732889 0.535256 0.41997 1 
0.136579 0.260216 -0.00688773 0.749197 0.414764 0.516405 1 
0.136808 0.260267 -0.00643489 0.754572 0.414114 0.509049 1 
0.13652 0.259458 -0.0073252 0.740466 0.430427 0.516182 1 
0.13679 0.259662 -0.00739631 0.73898 0.426271 0.52173 1 
0.136708 0.260043 -0.00717649 0.741733 0.425962 0.518062 1 
0.136747 0.259998 -0.00772098 0.753969 0.428728 0.497718 1 
0.136966 0.259697 -0.00775398 0.734757 0.450761 0.5069 1 
0.137241 0.260077 -0.0075822 0.752542 0.390146 0.530534 1 
0.137144 0.259708 -0.00788926 0.702687 0.475691 0.529102 1 
0.137467 0.260396 -0.00777611 0.752879 0.393588 0.527505 1 
0.138312 0.259978 -0.0077367 0.647856 0.431349 0.62787 1 
0.138136 0.260288 -0.00779307 0.70964 0.40858 0.573998 1 
0.13575 0.260795 -0.0055619 0.821182 0.411385 0.395502 1 
0.136555 0.261011 -0.00581636 0.829813 0.365118 0.422019 1 
0.136273 0.2606 -0.00666563 0.784779 0.369023 0.49794 1 
0.136405 0.260625 -0.00693387 0.774013 0.378082 0.507895 1 
0.136542 0.260582 -0.00653489 0.781653 0.377071 0.496827 1 
0.136683 0.260738 -0.00611536 0.771646 0.394758 0.498727 1 
0.136417 0.261054 -0.00621538 0.800334 0.36408 0.476351 1 
0.13602 0.261344 -0.0060471 0.845689 0.354846 0.398615 1 
0.135982 0.261733 -0.00591668 0.882206 0.288037 0.372487 1 
0.13616 0.261622 -0.00583977 0.868046 0.332215 0.368958 1 
0.136426 0.261306 -0.00573976 0.820768 0.379427 0.427054 1 
0.13629 0.261326 -0.00591637 0.820768 0.379427 0.427054 1 
0.136333 0.261458 -0.00621794 0.833292 0.351274 0.426885 1 
0.137114 0.260916 -0.00789917 0.756096 0.372357 0.53821 1 
0.136939 0.261226 -0.0079556 0.765165 0.357508 0.535454 1 
0.137381 0.2607 -0.00778894 0.758861 0.39983 0.514067 1 
0.137426 0.260586 -0.00766619 0.768819 0.378721 0.515255 1 
0.137603 0.26072 -0.00801361 0.732213 0.384944 0.561855 1 
0.137072 0.261351 -0.00821358 0.764126 0.340868 0.54765 1 
0.137782 0.260709 -0.00792642 0.738523 0.366816 0.565712 1 
0.138665 0.260146 -0.00844175 0.378442 0.34137 0.860377 1 
0.138268 0.260314 -0.00806133 0.61331 0.423832 0.666497 1 
0.137653 0.261348 -0.00826389 0.690135 0.365559 0.624564 1 
0.137744 0.261564 -0.00842223 0.700459 0.384017 0.601571 1 
0.137965 0.261585 -0.00864689 0.72199 0.365088 0.587742 1 
0.138148 0.262239 -0.00916542 0.993516 0.0888876 -0.0708851 1 
0.137917 0.260933 -0.00817415 0.62787 0.431349 0.647856 1 
0.138184 0.260717 -0.0080639 0.61311 0.439368 0.656546 1 
0.138092 0.260746 -0.00832993 0.532073 0.449196 0.717719 1 
0.138009 0.261249 -0.00832221 0.652029 0.381313 0.655331 1 
0.138227 0.260971 -0.00857763 0.551259 0.399869 0.732269 1 
0.138361 0.260729 -0.00819914 0.47308 0.443615 0.761184 1 
0.138492 0.260655 -0.00847764 0.392788 0.386478 0.834477 1 
0.138282 0.261997 -0.00878692 0.986889 0.154238 0.0475469 1 
0.138326 0.262005 -0.00887634 0.988721 0.149262 0.012345 1 
0.138921 0.259234 -0.00840327 0.735007 -0.674358 -0.070757 1 
0.138617 0.259717 -0.00817089 0.443902 0.418075 0.792568 1 
0.138106 0.262207 -0.00885358 0.985676 0.168617 0.00339498 1 
0.134304 0.266265 -0.00966066 0.793466 0.568523 0.21724 1 
0.133908 0.267121 -0.0101084 0.790835 0.575851 0.207306 1 
0.134316 0.26716 -0.0095683 0.803957 0.572538 0.160791 1 
0.134354 0.266893 -0.00991093 0.808814 0.56572 0.160562 1 
0.134399 0.267124 -0.0102023 0.784072 0.579935 0.221149 1 
0.134876 0.267409 -0.0120653 0.684125 0.677746 0.269504 1 
0.133865 0.267556 -0.0104228 0.641449 0.68715 0.341127 1 
0.133643 0.267781 -0.0106224 0.65205 0.690882 0.312272 1 
0.134045 0.267889 -0.0107497 0.632729 0.688317 0.354786 1 
0.133778 0.268227 -0.0110721 0.444741 0.697927 0.56134 1 
0.134092 0.267408 -0.00999042 0.789724 0.581982 0.193994 1 
0.134312 0.267206 -0.0100132 0.798878 0.570627 0.190209 1 
0.133955 0.26755 -0.0103792 0.701551 0.656805 0.276465 1 
0.134225 0.267533 -0.0102484 0.746336 0.620637 0.240399 1 
0.134357 0.267559 -0.0105167 0.634154 0.686591 0.355585 1 
0.134092 0.267752 -0.0104045 0.641449 0.68715 0.341127 1 
0.134181 0.267869 -0.0105731 0.62914 0.70067 0.336517 1 
0.134403 0.267766 -0.0105856 0.641449 0.68715 0.341127 1 
0.134447 0.26743 -0.0102609 0.751998 0.613844 0.2402 1 
0.134448 0.26753 -0.0102507 0.74525 0.619203 0.247366 1 
0.134538 0.267524 -0.0102071 0.759032 0.609408 0.229112 1 
0.134626 0.267541 -0.0103859 0.74348 0.62402 0.240491 1 
0.134005 0.268423 -0.0110538 0.444741 0.697927 0.56134 1 
0.13445 0.268096 -0.0108666 0.541972 0.702062 0.461927 1 
0.134537 0.268113 -0.0110455 0.966514 0.212917 -0.143235 1 
0.134892 0.26757 -0.0107 0.731074 0.622767 0.278732 1 
0.13498 0.267587 -0.0108788 0.715535 0.672449 0.18927 1 
0.134804 0.267897 -0.0109352 0.888992 0.455997 0.0419464 1 
0.135114 0.267812 -0.0111265 0.71328 0.666457 0.21695 1 
0.134271 0.268207 -0.0109436 0.519313 0.702993 0.485917 1 
0.134334 0.266831 -0.00735444 0.922679 0.378981 0.0709753 1 
0.134601 0.266615 -0.00724417 0.914054 0.396408 0.0858203 1 
0.134629 0.266118 -0.00828479 0.828162 0.52536 0.195307 1 
0.1345 0.266291 -0.00799604 0.852667 0.495049 0.166987 1 
0.134453 0.266428 -0.00834122 0.833844 0.522463 0.178146 1 
0.134373 0.266663 -0.00768678 0.877978 0.465314 0.112415 1 
0.134332 0.266854 -0.00757685 0.889336 0.448158 0.0907486 1 
0.134457 0.266727 -0.00831044 0.81974 0.545992 0.172973 1 
0.134894 0.265803 -0.00818481 0.838472 0.510309 0.191178 1 
0.134855 0.26597 -0.00785244 0.840645 0.506793 0.190987 1 
0.135163 0.265785 -0.00805405 0.851285 0.490495 0.186358 1 
0.135126 0.266052 -0.00771143 0.84915 0.492717 0.190198 1 
0.134846 0.26584 -0.0085402 0.829119 0.51877 0.208421 1 
0.134898 0.266101 -0.00815405 0.82621 0.526046 0.201626 1 
0.13498 0.265498 -0.00817196 0.857399 0.479965 0.185745 1 
0.135381 0.265507 -0.00830947 0.870761 0.459609 0.17474 1 
0.134984 0.265797 -0.00814119 0.83984 0.509313 0.1878 1 
0.135253 0.26578 -0.00801043 0.840922 0.498492 0.210609 1 
0.134591 0.266385 -0.00794218 0.856277 0.492029 0.157155 1 
0.13477 0.266374 -0.00785501 0.857448 0.491017 0.153901 1 
0.134463 0.266658 -0.00764321 0.879816 0.463285 0.106258 1 
0.134422 0.266848 -0.00753328 0.890796 0.444701 0.0934011 1 
0.134466 0.266857 -0.00762267 0.886849 0.451155 0.0997881 1 
0.134646 0.266845 -0.00753553 0.884199 0.452744 0.11496 1 
0.134908 0.266331 -0.007456 0.895015 0.432801 0.10785 1 
0.135001 0.266524 -0.0073919 0.89826 0.427544 0.101664 1 
0.13486 0.266368 -0.00781143 0.859449 0.487558 0.153735 1 
0.13513 0.266351 -0.00768067 0.954597 0.263474 -0.139019 1 
0.134733 0.26664 -0.00751241 0.890793 0.439044 0.117172 1 
0.135173 0.266948 -0.00860848 0.808532 0.555771 0.193378 1 
0.13447 0.267277 -0.00780407 0.883869 0.459388 0.087968 1 
0.134462 0.267025 -0.00827967 0.816466 0.551829 0.169909 1 
0.134506 0.267255 -0.00857097 0.812128 0.55503 0.179969 1 
0.134558 0.267172 -0.00777073 0.87587 0.468555 0.115359 1 
0.135431 0.265669 -0.00793353 0.884565 0.440118 0.154402 1 
0.135305 0.266041 -0.00762425 0.846714 0.491786 0.203031 1 
0.135606 0.265481 -0.0080893 0.867218 0.462418 0.184672 1 
0.135132 0.266205 -0.00724611 0.937111 0.34607 0.045365 1 
0.135265 0.26633 -0.00750408 0.884818 0.447412 0.130078 1 
0.134795 0.266267 -0.00975454 0.805583 0.553935 0.210219 1 
0.135064 0.26625 -0.00962377 0.796802 0.558535 0.230531 1 
0.135367 0.265668 -0.00986637 0.781781 0.546132 0.30093 1 
0.135503 0.265992 -0.0101039 0.764459 0.569753 0.301634 1 
0.135634 0.265918 -0.0103823 0.751108 0.577404 0.320065 1 
0.135196 0.266276 -0.00989203 0.776588 0.575774 0.255725 1 
0.135328 0.266302 -0.0101603 0.751849 0.599254 0.274989 1 
0.134529 0.266583 -0.00985456 0.793876 0.572758 0.204227 1 
0.134588 0.26712 -0.00921518 0.811558 0.55368 0.186582 1 
0.134661 0.266609 -0.0101228 0.774054 0.590275 0.228946 1 
0.134929 0.266492 -0.0100023 0.778424 0.581868 0.235555 1 
0.134973 0.266501 -0.0100917 0.776848 0.579901 0.245403 1 
0.134797 0.266933 -0.0103603 0.763527 0.586477 0.270317 1 
0.135111 0.266924 -0.0103189 0.739905 0.608863 0.286054 1 
0.135375 0.266509 -0.0102292 0.742101 0.604852 0.288861 1 
0.135369 0.265645 -0.00964396 0.804897 0.529825 0.267257 1 
0.135745 0.266471 -0.00893246 0.795987 0.561055 0.227204 1 
0.135422 0.266939 -0.0105 0.72507 0.646429 0.237496 1 
0.136424 0.265851 -0.0117899 0.745528 0.563613 0.355709 1 
0.136603 0.26584 -0.0117027 0.748326 0.560027 0.355496 1 
0.134592 0.267418 -0.00918442 0.789456 0.589441 0.171226 1 
0.134453 0.267362 -0.00959365 0.794646 0.583544 0.167373 1 
0.134948 0.267318 -0.00924276 0.79299 0.58375 0.174367 1 
0.134845 0.26724 -0.0104189 0.757075 0.599022 0.260788 1 
0.135247 0.267249 -0.0105564 0.707727 0.670232 0.223411 1 
0.137042 0.265237 -0.0117688 0.710496 0.537448 0.454252 1 
0.137084 0.265269 -0.0120806 0.747382 0.507563 0.428718 1 
0.137088 0.265345 -0.0118479 0.775681 0.489476 0.398411 1 
0.136466 0.265883 -0.0121017 0.690943 0.434545 0.577728 1 
0.136506 0.265937 -0.012636 0.744666 0.618718 0.250321 1 
0.136515 0.266067 -0.0119482 0.652597 0.330367 0.681891 1 
0.136644 0.265894 -0.012237 0.77111 0.557179 0.308125 1 
0.136825 0.26586 -0.0119274 0.757332 0.557099 0.340719 1 
0.146513 0.259442 -0.0143825 0.79803 0.467257 0.38055 1 
0.146465 0.259013 -0.0141117 0.76464 0.40596 0.500521 1 
0.146684 0.258834 -0.0143569 0.778794 0.408094 0.476381 1 
0.146823 0.259357 -0.0145738 0.795423 0.456602 0.398518 1 
0.147733 0.256898 -0.0142511 0.776213 0.387296 0.497489 1 
0.147083 0.258399 -0.0140905 0.770016 0.408613 0.49001 1 
0.146863 0.258478 -0.0138556 0.781269 0.407689 0.47266 1 
0.147124 0.257864 -0.0137864 0.776109 0.405138 0.483237 1 
0.14673 0.258697 -0.0140117 0.781096 0.404351 0.475803 1 
0.147042 0.258711 -0.0141927 0.774126 0.415583 0.477514 1 
0.146904 0.258877 -0.0148039 0.802517 0.442269 0.400455 1 
0.146988 0.258818 -0.0152154 0.807122 0.455505 0.375592 1 
0.147169 0.258906 -0.015118 0.805392 0.449931 0.385884 1 
0.146775 0.259394 -0.0149292 0.7978 0.470333 0.377229 1 
0.146954 0.259505 -0.0150543 0.797644 0.48308 0.361106 1 
0.147298 0.259199 -0.016033 0.77479 0.519222 0.360706 1 
0.147343 0.258963 -0.0156981 0.78571 0.49853 0.366234 1 
0.147478 0.259188 -0.0159458 0.77479 0.519222 0.360706 1 
0.147248 0.259726 -0.017237 0.561354 0.713698 0.418946 1 
0.14738 0.25963 -0.0172931 0.564691 0.707106 0.425588 1 
0.14721 0.259526 -0.0162682 0.773077 0.530986 0.346997 1 
0.147338 0.259598 -0.0169813 0.671048 0.638073 0.377568 1 
0.147388 0.25966 -0.0166156 0.700287 0.615006 0.362444 1 
0.147698 0.259575 -0.016807 0.671048 0.638073 0.377568 1 
0.147699 0.259208 -0.0161705 0.760671 0.536849 0.364928 1 
0.14748 0.259509 -0.0161374 0.773077 0.530986 0.346997 1 
0.147653 0.259345 -0.0165157 0.715181 0.594075 0.368228 1 
0.147741 0.259362 -0.0166945 0.68612 0.620305 0.380081 1 
0.147336 0.259399 -0.0170018 0.632013 0.661872 0.403095 1 
0.147785 0.259592 -0.0169858 0.62724 0.66696 0.402162 1 
0.147645 0.259436 -0.0174053 0.50582 0.728049 0.462701 1 
0.147602 0.25965 -0.0175178 0.46471 0.753717 0.46471 1 
0.148046 0.259445 -0.0175427 0.378389 0.764898 0.5213 1 
0.148183 0.259302 -0.017154 0.509984 0.715972 0.476761 1 
0.147875 0.259586 -0.0169422 0.62724 0.66696 0.402162 1 
0.147915 0.259419 -0.0172745 0.503001 0.72545 0.4698 1 
0.14787 0.259655 -0.0176094 0.304801 0.777163 0.550557 1 
0.148089 0.259354 -0.0176425 0.283517 0.774523 0.565449 1 
0.147821 0.257038 -0.014642 0.776213 0.387296 0.497489 1 
0.147823 0.257703 -0.0152477 0.771293 0.451687 0.448426 1 
0.147911 0.25772 -0.0154266 0.774818 0.455104 0.438792 1 
0.148133 0.257741 -0.0156513 0.774406 0.471165 0.422255 1 
0.147773 0.256608 -0.0143713 0.788258 0.399794 0.467775 1 
0.147906 0.256733 -0.0146292 0.791307 0.388401 0.472206 1 
0.14808 0.256791 -0.0152093 0.779004 0.390312 0.490724 1 
0.147959 0.257561 -0.014859 0.777914 0.41413 0.472595 1 
0.148176 0.257405 -0.0153266 0.774126 0.415583 0.477514 1 
0.148265 0.257766 -0.0159195 0.761315 0.496082 0.417495 1 
0.14743 0.258292 -0.0150487 0.78882 0.455151 0.413037 1 
0.147607 0.258203 -0.0151943 0.78882 0.455151 0.413037 1 
0.147298 0.258266 -0.0147805 0.793801 0.428426 0.43166 1 
0.147341 0.258519 -0.0152943 0.794902 0.465977 0.388583 1 
0.147695 0.257976 -0.0149488 0.789168 0.432665 0.435906 1 
0.14765 0.258335 -0.0154958 0.789875 0.476509 0.386053 1 
0.14805 0.258244 -0.0156436 0.762028 0.504211 0.406306 1 
0.146994 0.258749 -0.0145482 0.806551 0.447371 0.386439 1 
0.148314 0.25864 -0.0165941 0.670495 0.603945 0.430914 1 
0.148362 0.258602 -0.0162387 0.735115 0.547636 0.399626 1 
0.148493 0.258628 -0.016507 0.670495 0.603945 0.430914 1 
0.148443 0.258466 -0.0168829 0.592553 0.652983 0.471692 1 
0.148667 0.258808 -0.0172992 0.424444 0.73163 0.533446 1 
0.147966 0.258992 -0.0160602 0.751038 0.542507 0.376334 1 
0.147921 0.259228 -0.0163951 0.711092 0.596135 0.372789 1 
0.14805 0.259055 -0.0166839 0.667846 0.628073 0.399382 1 
0.148098 0.259017 -0.0163285 0.721039 0.573217 0.389262 1 
0.148234 0.258875 -0.0159397 0.749813 0.53418 0.390425 1 
0.145813 0.261003 -0.0147998 0.819844 0.383655 0.425046 1 
0.145859 0.260644 -0.0142527 0.620255 0.282224 0.731869 1 
0.14599 0.26067 -0.014521 0.81379 0.417287 0.404497 1 
0.146647 0.259667 -0.0146302 0.796447 0.45856 0.394201 1 
0.14603 0.260036 -0.0142271 0.81788 0.422492 0.390606 1 
0.146389 0.260013 -0.0140527 0.800627 0.423672 0.423672 1 
0.146162 0.260062 -0.0144953 0.820928 0.453962 0.346403 1 
0.146298 0.260386 -0.0147328 0.814228 0.438185 0.380823 1 
0.145685 0.261276 -0.0145008 0.807122 0.375592 0.455505 1 
0.146085 0.261185 -0.0146485 0.818841 0.386366 0.424525 1 
0.146466 0.259701 -0.0149398 0.799923 0.469694 0.373511 1 
0.147161 0.260398 -0.0178864 0.362585 0.781572 0.507619 1 
0.147161 0.260275 -0.0176742 0.320355 0.788934 0.524362 1 
0.1472 0.259763 -0.0175924 0.460083 0.761347 0.456808 1 
0.147514 0.259977 -0.017753 0.320355 0.788934 0.524362 1 
0.147427 0.259959 -0.0175742 0.435719 0.768629 0.468358 1 
0.146982 0.260975 -0.0185895 0.168687 0.76745 0.618519 1 
0.147113 0.260779 -0.0186558 0.181294 0.775451 0.604821 1 
0.147253 0.261057 -0.0184485 0.276803 0.779795 0.561516 1 
0.147115 0.261101 -0.0188475 0.123404 0.744887 0.655679 1 
0.147201 0.260796 -0.0188347 0.168687 0.76745 0.618519 1 
0.147382 0.260418 -0.018111 0.33847 0.781208 0.524549 1 
0.147381 0.260662 -0.0185353 0.325106 0.783136 0.530098 1 
0.147427 0.260648 -0.0184023 0.325106 0.783136 0.530098 1 
0.147604 0.259971 -0.0177094 0.320355 0.788934 0.524362 1 
0.147648 0.260102 -0.018011 0.320355 0.788934 0.524362 1 
0.147784 0.260426 -0.0182485 0.33847 0.781208 0.524549 1 
0.147872 0.260321 -0.0182152 0.310408 0.784774 0.536448 1 
0.147736 0.260463 -0.0186039 0.325106 0.783136 0.530098 1 
0.147206 0.260628 -0.0181777 0.340688 0.791739 0.507033 1 
0.147916 0.259985 -0.0178905 0.320355 0.788934 0.524362 1 
0.12693 0.261256 0.0018909 0.630513 0.637203 0.443199 1 
0.127317 0.260737 0.0010246 0.551909 0.616045 0.562036 1 
0.127496 0.260725 0.00111179 0.527044 0.641546 0.557354 1 
0.128041 0.260622 0.00204058 0.539178 0.673552 0.505584 1 
0.128461 0.259315 0.00100285 0.503813 0.641983 0.577953 1 
0.127451 0.260739 0.000978827 0.531886 0.633198 0.562279 1 
0.127542 0.260833 0.00103265 0.527044 0.641546 0.557354 1 
0.127898 0.260734 0.000974298 0.507737 0.625816 0.592079 1 
0.127672 0.260759 0.000754118 0.510096 0.631307 0.584169 1 
0.128074 0.260768 0.000616655 0.503202 0.624375 0.597448 1 
0.127636 0.261126 0.00110699 0.531886 0.633198 0.562279 1 
0.127814 0.261015 0.0011839 0.517434 0.601707 0.608449 1 
0.127906 0.26133 0.00103584 0.517434 0.601707 0.608449 1 
0.128424 0.260148 0.000729486 0.504318 0.605519 0.615639 1 
0.128601 0.259938 0.000796154 0.507789 0.595514 0.622506 1 
0.128474 0.26021 0.00109516 0.500722 0.622109 0.601878 1 
0.128695 0.26023 0.000870496 0.507789 0.595514 0.622506 1 
0.128514 0.260265 0.000560895 0.507789 0.595514 0.622506 1 
0.128732 0.259864 0.000517651 0.510009 0.580704 0.634566 1 
0.129001 0.259969 0.000436261 0.505042 0.465301 0.72693 1 
0.128872 0.260487 0.000310928 0.511509 0.458537 0.726707 1 
0.128962 0.260481 0.000354514 0.510854 0.444724 0.735696 1 
0.128121 0.260731 0.000972077 0.507737 0.625816 0.592079 1 
0.128163 0.260762 0.000660211 0.503202 0.624375 0.597448 1 
0.128213 0.261046 0.00082399 0.503202 0.624375 0.597448 1 
0.12835 0.260781 0.00142492 0.503288 0.654779 0.563884 1 
0.128704 0.260827 0.000932023 0.504157 0.591837 0.628932 1 
0.128573 0.261023 0.000998363 0.500682 0.598459 0.625431 1 
0.128251 0.26078 0.000481397 0.504157 0.591837 0.628932 1 
0.12856 0.260595 0.000279814 0.508569 0.498564 0.701991 1 
0.128782 0.260615 5.51641e-005 0.507307 0.40291 0.761776 1 
0.128926 0.261069 0.000505462 0.51774 0.400146 0.756194 1 
0.129185 0.260601 0.000140116 0.514556 0.419207 0.747996 1 
0.131558 0.257232 0.0003113 0.344667 0.635428 0.690967 1 
0.131519 0.258088 -0.000184461 0.576704 0.643958 0.502724 1 
0.131694 0.257556 7.38204e-005 0.365245 0.59127 0.719024 1 
0.131607 0.257883 -0.000161424 0.546305 0.573366 0.610576 1 
0.131921 0.258096 -0.000321969 0.569436 0.582954 0.579575 1 
0.132006 0.257792 -0.000309184 0.49329 0.520044 0.697294 1 
0.132273 0.257576 -0.000198916 0.490532 0.500509 0.71335 1 
0.133044 0.258135 0.000121921 0.467988 0.537937 0.70115 1 
0.128867 0.259622 0.000896156 0.496044 0.596934 0.630564 1 
0.129757 0.259656 0.000442326 0.536339 0.427421 0.727771 1 
0.128879 0.260051 0.00161465 0.503271 0.617727 0.604262 1 
0.129272 0.259929 0.000789419 0.500875 0.494219 0.710544 1 
0.12936 0.259946 0.000610575 0.501214 0.454897 0.736107 1 
0.129492 0.259972 0.000342354 0.512288 0.436515 0.739605 1 
0.129093 0.260163 0.000500336 0.505042 0.465301 0.72693 1 
0.129226 0.260288 0.000242338 0.516527 0.408303 0.752654 1 
0.129229 0.260487 0.000262842 0.514556 0.419207 0.747996 1 
0.12954 0.259935 0.000697747 0.501214 0.454897 0.736107 1 
0.129941 0.259943 0.000560299 0.533557 0.408787 0.740413 1 
0.129536 0.259981 0.000252932 0.522004 0.404185 0.751097 1 
0.129626 0.260197 9.45926e-005 0.531839 0.391107 0.751121 1 
0.129631 0.260495 0.000125363 0.531839 0.391107 0.751121 1 
0.129758 0.260223 -0.000173628 0.535241 0.375808 0.756496 1 
0.129894 0.260547 -0.000411123 0.548372 0.362869 0.753401 1 
0.129715 0.259969 0.000340119 0.529418 0.398293 0.749053 1 
0.129893 0.259981 0.000204846 0.531839 0.391107 0.751121 1 
0.12985 0.260194 9.23723e-005 0.529919 0.379911 0.758191 1 
0.130071 0.25987 0.000281766 0.539136 0.391652 0.745614 1 
0.130115 0.259878 0.000192359 0.541455 0.39096 0.744296 1 
0.130028 0.260205 -4.28855e-005 0.547671 0.359155 0.755688 1 
0.130072 0.260214 -0.000132293 0.544749 0.362624 0.756144 1 
0.130032 0.260504 -1.21444e-005 0.54994 0.358515 0.754342 1 
0.130022 0.260274 -0.00071013 0.557145 0.358977 0.748816 1 
0.130159 0.260231 -0.000311121 0.559203 0.363563 0.74506 1 
0.130295 0.260555 -0.000548586 0.558538 0.366388 0.744174 1 
0.130335 0.260266 -0.000668794 0.556297 0.373584 0.742273 1 
0.130424 0.260382 -0.000837371 0.559893 0.367277 0.742716 1 
0.129364 0.260589 0.000227273 0.514556 0.419207 0.747996 1 
0.129365 0.260811 2.53618e-005 0.521474 0.393966 0.756872 1 
0.129764 0.260621 -0.00013265 0.530568 0.383641 0.755855 1 
0.130473 0.260689 -0.000896022 0.565746 0.348525 0.747303 1 
0.130338 0.259998 -2.20537e-005 0.554014 0.380782 0.74032 1 
0.130473 0.260223 -0.000269756 0.554014 0.380782 0.74032 1 
0.130561 0.26024 -0.000448614 0.549323 0.395184 0.736257 1 
0.13069 0.260067 -0.000737369 0.538503 0.410053 0.736119 1 
0.130609 0.260547 -0.000507265 0.5468 0.373783 0.749197 1 
0.130929 0.261158 -0.000626817 0.553358 0.377067 0.742708 1 
0.130972 0.260945 -0.000514314 0.553358 0.377067 0.742708 1 
0.131655 0.258412 -0.000421971 0.541562 0.406583 0.7358 1 
0.132732 0.258121 0.00030297 0.490532 0.500509 0.71335 1 
0.133098 0.258718 0.000316426 0.478821 0.522199 0.705719 1 
0.132054 0.258222 -0.000579953 0.528261 0.478268 0.70157 1 
0.132318 0.257806 -0.000490233 0.479109 0.525852 0.702805 1 
0.132405 0.257602 -0.000467151 0.475691 0.529102 0.702687 1 
0.132451 0.257932 -0.000748217 0.594486 0.49344 0.634904 1 
0.132763 0.25829 -0.00134337 0.566827 0.496184 0.657654 1 
0.133296 0.257858 -0.00112285 0.575507 0.488258 0.656045 1 
0.133077 0.258159 -0.00108986 0.572623 0.495377 0.653226 1 
0.133384 0.257875 -0.00130171 0.575507 0.488258 0.656045 1 
0.133548 0.258047 -0.00299385 0.602958 0.676043 0.423565 1 
0.133818 0.25803 -0.00286308 0.664472 0.513073 0.543353 1 
0.13404 0.257805 -0.0026634 0.701656 0.454993 0.548325 1 
0.133128 0.258198 -0.000501767 0.5817 0.507512 0.635655 1 
0.133561 0.257542 -0.00102286 0.577468 0.513492 0.63471 1 
0.133654 0.257858 -0.00117095 0.572623 0.495377 0.653226 1 
0.13365 0.257904 -0.00161578 0.63536 0.471072 0.61189 1 
0.133739 0.258021 -0.00178434 0.647167 0.502605 0.573205 1 
0.133829 0.257892 -0.00152861 0.641226 0.489755 0.590736 1 
0.133919 0.258009 -0.00169715 0.647167 0.502605 0.573205 1 
0.133786 0.258228 -0.00185324 0.651856 0.510368 0.560899 1 
0.13405 0.258035 -0.00196539 0.67017 0.495489 0.552596 1 
0.134608 0.257496 -0.00364441 0.782822 0.211532 0.585187 1 
0.13074 0.260695 -0.000987679 0.559893 0.373806 0.739451 1 
0.130824 0.260291 -0.000985101 0.543278 0.417779 0.728224 1 
0.131268 0.260332 -0.00143442 0.568265 0.425784 0.704118 1 
0.130873 0.260598 -0.00104374 0.551857 0.403597 0.729769 1 
0.131405 0.260288 -0.00103539 0.559127 0.455647 0.69265 1 
0.131623 0.26001 -0.00129084 0.489327 0.167051 0.855952 1 
0.131667 0.260019 -0.00138025 0.575446 0.518071 0.632822 1 
0.13167 0.26044 -0.00156166 0.578292 0.448302 0.681618 1 
0.131805 0.260664 -0.00180937 0.562499 0.41074 0.717557 1 
0.131144 0.260902 -0.00110464 0.562083 0.400546 0.72362 1 
0.131094 0.260741 -0.00148056 0.567911 0.400007 0.719355 1 
0.130881 0.261195 -0.000982225 0.556297 0.373584 0.742273 1 
0.130973 0.261511 -0.00113027 0.561247 0.37471 0.737966 1 
0.131408 0.260954 -0.00164115 0.565722 0.433001 0.701761 1 
0.131456 0.261261 -0.00169978 0.590561 0.368078 0.718162 1 
0.131544 0.261278 -0.00187862 0.594075 0.368228 0.715181 1 
0.132022 0.260386 -0.00206481 0.510255 0.370947 0.775911 1 
0.131673 0.261105 -0.00216736 0.549418 0.315555 0.77367 1 
0.131971 0.259069 -0.000986353 0.55157 0.48451 0.678985 1 
0.132189 0.258446 -0.0008277 0.592768 0.58939 0.548859 1 
0.132322 0.258572 -0.00108571 0.600758 0.556759 0.573681 1 
0.132014 0.258856 -0.000873864 0.547977 0.484298 0.682039 1 
0.132281 0.259106 -0.00138985 0.570951 0.477187 0.668063 1 
0.132325 0.259115 -0.00147927 0.586951 0.486042 0.647496 1 
0.132456 0.258796 -0.00133343 0.56588 0.498713 0.656555 1 
0.132502 0.258904 -0.00141262 0.529047 0.426864 0.733414 1 
0.132636 0.259129 -0.0016603 0.543298 0.44361 0.712767 1 
0.131749 0.259171 -0.00097385 0.55157 0.48451 0.678985 1 
0.1318 0.2598 -0.00122416 0.482771 0.179739 0.857104 1 
0.13206 0.25943 -0.00157924 0.57058 0.473531 0.670975 1 
0.132017 0.259521 -0.00147958 0.560402 0.466723 0.684192 1 
0.132196 0.259755 -0.00181672 0.566283 0.456033 0.686555 1 
0.132407 0.258267 -0.00107288 0.580888 0.496701 0.64487 1 
0.132631 0.258265 -0.0010751 0.566827 0.496184 0.657654 1 
0.132854 0.258507 -0.00150168 0.579013 0.488385 0.652858 1 
0.133173 0.258429 -0.00079307 0.579013 0.488385 0.652858 1 
0.132912 0.259043 -0.00086233 0.55992 0.473007 0.680261 1 
0.133528 0.258796 -0.00147764 0.593497 0.495982 0.633848 1 
0.133133 0.259063 -0.00108698 0.569972 0.506081 0.647313 1 
0.132588 0.259289 -0.00222792 0.583396 0.499333 0.640559 1 
0.13255 0.259556 -0.00188531 0.594725 0.470754 0.651685 1 
0.133386 0.258319 -0.00170551 0.623951 0.496133 0.603769 1 
0.133428 0.258351 -0.00201733 0.635655 0.507512 0.5817 1 
0.13384 0.259155 -0.00207278 0.647885 0.550281 0.526722 1 
0.13343 0.259016 -0.00262305 0.64528 0.611759 0.457563 1 
0.133523 0.259209 -0.00255893 0.641692 0.540638 0.544006 1 
0.133349 0.259274 -0.00219104 0.638504 0.550899 0.537422 1 
0.133576 0.25957 -0.00216255 0.630964 0.590582 0.503088 1 
0.13388 0.259209 -0.00260702 0.654053 0.549808 0.519544 1 
0.132067 0.26015 -0.00172988 0.518337 0.403878 0.753796 1 
0.132114 0.260357 -0.00179876 0.518337 0.403878 0.753796 1 
0.133102 0.25995 -0.000905275 0.587263 0.489667 0.644475 1 
0.130835 0.261554 -0.00152928 0.603619 0.307443 0.73561 1 
0.130708 0.261826 -0.0012303 0.592563 0.309931 0.743513 1 
0.130754 0.262156 -0.00151135 0.613061 0.275479 0.740451 1 
0.13115 0.261645 -0.0014777 0.570694 0.34957 0.74304 1 
0.133219 0.258415 -0.000660077 0.58279 0.47866 0.656689 1 
0.133575 0.258537 -0.000920326 0.57739 0.496589 0.64809 1 
0.133482 0.258466 -0.00119658 0.577678 0.500205 0.645045 1 
0.13371 0.258762 -0.00116806 0.577678 0.500205 0.645045 1 
0.134107 0.258939 -0.00196253 0.658474 0.530484 0.533852 1 
0.134159 0.259888 -0.0024045 0.647445 0.566724 0.509547 1 
0.134939 0.258436 -0.00305569 0.483343 0.694074 0.533517 1 
0.134986 0.258644 -0.00312459 0.487967 0.67913 0.548334 1 
0.135281 0.251613 -0.000301063 0.470825 -0.0736098 0.879151 1 
0.136735 0.251851 -0.00280693 0.996878 0.00105267 -0.0789502 1 
0.137398 0.251811 -0.00349115 0.765819 -0.642616 -0.0238006 1 
0.132893 0.252954 0.000667408 0.389447 0.718095 0.576776 1 
0.133467 0.252331 0.000777975 0.489219 0.764098 0.420499 1 
0.132941 0.252916 0.00102283 0.389447 0.718095 0.576776 1 
0.133072 0.252942 0.000754565 0.433227 0.76346 0.479002 1 
0.133434 0.253118 0.000949457 0.373055 0.603133 0.705025 1 
0.133614 0.253107 0.00103658 0.452505 0.592765 0.666235 1 
0.133294 0.252962 0.0005299 0.452505 0.592765 0.666235 1 
0.133695 0.252971 0.000392467 0.377262 0.182176 0.908012 1 
0.133566 0.253144 0.000681207 0.377262 0.182176 0.908012 1 
0.133746 0.253132 0.000768378 0.377262 0.182176 0.908012 1 
0.133878 0.253158 0.000500128 0.323699 -0.0291964 0.945709 1 
0.134278 0.252134 0.00160484 0.452505 0.592765 0.666235 1 
0.13418 0.252354 0.000459418 0.310362 0.0851203 0.9468 1 
0.134405 0.252328 0.000679627 0.291476 0.0235661 0.956288 1 
0.134495 0.252322 0.000723183 0.277483 0.0754447 0.957764 1 
0.133881 0.253235 0.00073278 0.159515 0.177381 0.971129 1 
0.134015 0.253115 0.000899106 -0.32998 0.877412 0.348227 1 
0.134147 0.253141 0.000630915 -0.334311 0.913206 0.233005 1 
0.134097 0.252979 0.000254959 -0.334311 0.913206 0.233005 1 
0.13437 0.253261 0.000416487 -0.50356 0.85562 0.119758 1 
0.134414 0.252925 0.000741139 -0.383078 0.903486 0.192262 1 
0.134546 0.252951 0.000472888 -0.318711 0.899803 0.297958 1 
0.134497 0.251955 0.00135967 0.452505 0.592765 0.666235 1 
0.134455 0.252268 0.00125742 0.366 0.435714 0.822312 1 
0.134765 0.252305 0.000853971 0.368021 -0.389946 0.844099 1 
0.134986 0.252325 0.000629276 0.376553 -0.169094 0.910832 1 
0.134547 0.252583 0.00110938 -0.334311 0.913206 0.233005 1 
0.134138 0.253011 -5.68628e-005 -0.316725 0.924609 0.211623 1 
0.135242 0.252124 -0.000382781 0.45374 -0.139723 0.880112 1 
0.134448 0.252704 -4.62979e-005 0.466539 -0.301144 0.831657 1 
0.134228 0.253005 -1.3262e-005 0.406246 -0.118663 0.906026 1 
0.134498 0.252988 0.000117481 0.404743 -0.187139 0.895077 1 
0.134848 0.252613 -0.000194043 0.438885 -0.138671 0.887778 1 
0.134721 0.252985 0.000115201 0.455235 -0.29365 0.840554 1 
0.134767 0.252971 0.000248253 0.428418 -0.209021 0.879072 1 
0.134991 0.252968 0.000245988 0.444195 -0.230379 0.865804 1 
0.135156 0.251962 0.00023061 0.431873 -0.12319 0.893482 1 
0.135113 0.252297 -9.40263e-005 0.419665 -0.201734 0.884977 1 
0.134947 0.252959 0.00033541 0.407462 -0.194238 0.892327 1 
0.136164 0.251961 -0.0018464 0.552609 -0.176172 0.814608 1 
0.13572 0.25384 0.000464588 0.500304 -0.180707 0.846783 1 
0.135859 0.254363 0.000247613 0.533833 -0.189034 0.82419 1 
0.136281 0.253722 -0.00139588 0.694788 -0.0768763 0.715095 1 
0.136597 0.254035 -0.00154616 0.859228 -0.0398682 0.510038 1 
0.136651 0.254617 -0.00135162 0.871063 0.0682913 0.486401 1 
0.135585 0.254029 -0.00428052 0.440487 0.0875416 -0.893481 1 
0.134977 0.258514 -0.00381236 0.403518 0.719745 0.564925 1 
0.13493 0.258551 -0.00416778 0.274394 0.835585 0.475927 1 
0.135066 0.258409 -0.00377902 0.468457 0.636362 0.612855 1 
0.137275 0.255335 -0.0025419 0.920061 0.117249 0.373818 1 
0.13715 0.255806 -0.00222237 0.920706 0.120092 0.371319 1 
0.137582 0.255395 -0.00316779 0.959713 0.0386881 0.278304 1 
0.137199 0.256213 -0.00227076 0.920144 0.164362 0.355415 1 
0.137631 0.255924 -0.00342837 0.893196 0.332525 0.302702 1 
0.137669 0.255779 -0.00398314 0.912839 0.331284 0.238698 1 
0.137759 0.256118 -0.00435361 0.910865 0.362912 0.196517 1 
0.137847 0.256013 -0.00432028 0.908744 0.362631 0.206598 1 
0.138027 0.256001 -0.00423311 0.904573 0.367347 0.216343 1 
0.137721 0.25604 -0.00359696 0.912383 0.315769 0.260473 1 
0.137757 0.256141 -0.00457603 0.901431 0.389222 0.189547 1 
0.1375 0.256931 -0.00440232 0.911362 0.373929 0.172036 1 
0.137899 0.25674 -0.00456032 0.910427 0.374714 0.175247 1 
0.137899 0.25674 -0.00456032 0.910427 0.374714 0.175247 1 
0.138121 0.256294 -0.00415875 0.904573 0.367347 0.216343 1 
0.13798 0.256138 -0.00457826 0.887327 0.415064 0.200932 1 
0.138164 0.256425 -0.00446033 0.896179 0.399431 0.19318 1 
0.138164 0.256425 -0.00446033 0.896179 0.399431 0.19318 1 
0.138256 0.25674 -0.00460842 0.900027 0.403362 0.165077 1 
0.137344 0.257134 -0.00244674 0.888646 0.34317 0.304208 1 
0.137388 0.257364 -0.00273807 0.886135 0.36435 0.286382 1 
0.13752 0.25739 -0.00300631 0.865711 0.404609 0.294678 1 
0.137593 0.257591 -0.00496446 0.904581 0.423392 0.0497318 1 
0.137385 0.258098 -0.00401106 0.940585 0.314428 -0.1282 1 
0.137068 0.258153 -0.0044972 0.856551 0.498806 0.132336 1 
0.137066 0.25852 -0.00513369 0.749053 0.529418 0.398293 1 
0.137201 0.257934 -0.00434114 0.882515 0.467856 0.0477404 1 
0.137335 0.257937 -0.00438696 0.773901 0.556889 0.301582 1 
0.137375 0.257869 -0.00470906 0.790822 0.537252 0.293191 1 
0.13729 0.25724 -0.00346941 0.749286 0.57127 0.334994 1 
0.137466 0.257152 -0.00361492 0.86369 0.43564 0.253491 1 
0.137768 0.257281 -0.00490807 0.901674 0.40908 0.140135 1 
0.137555 0.257513 -0.00420779 0.911923 0.405449 0.0633093 1 
0.137638 0.257354 -0.00462957 0.90766 0.399819 0.127662 1 
0.13813 0.25699 -0.00408694 0.906539 0.377844 0.188204 1 
0.137295 0.25776 -0.00364052 0.606344 0.629859 0.485411 1 
0.137472 0.257894 -0.00398795 0.948557 0.295844 -0.112766 1 
0.137215 0.258462 -0.00361235 0.836064 0.523099 0.165424 1 
0.138357 0.255389 -0.00614256 0.79213 0.608571 -0.0465959 1 
0.138579 0.255409 -0.00636719 0.783674 0.61869 -0.0554688 1 
0.138673 0.255235 -0.00566664 0.818966 0.571731 0.0491661 1 
0.138658 0.255074 -0.00703187 0.66931 0.712792 -0.209645 1 
0.13853 0.255347 -0.00673288 0.763175 0.64199 -0.0735764 1 
0.138785 0.254802 -0.00733088 0.694745 0.706749 -0.133547 1 
0.13871 0.255335 -0.00664571 0.748472 0.658713 -0.0767292 1 
0.137863 0.256121 -0.00732163 0.0356375 0.402571 -0.914695 1 
0.137456 0.258322 -0.00619163 0.859981 0.454928 0.231243 1 
0.137501 0.25843 -0.00627078 0.864149 0.456786 0.21117 1 
0.137865 0.255753 -0.00668511 0.279473 0.72663 -0.627617 1 
0.138404 0.255719 -0.00642359 0.795871 0.602933 -0.0553279 1 
0.138096 0.256003 -0.00621177 0.876933 0.422781 0.22857 1 
0.137975 0.256895 -0.00607367 0.88362 0.439634 0.161054 1 
0.137976 0.256773 -0.00586148 0.877809 0.454139 0.152347 1 
0.138018 0.256805 -0.00617333 0.878391 0.441395 0.183304 1 
0.138593 0.255593 -0.00522436 0.841639 0.531939 0.0931968 1 
0.138318 0.255679 -0.00602236 0.805308 0.592585 -0.0179571 1 
0.1382 0.256525 -0.00543942 0.861936 0.499612 0.0863352 1 
0.138119 0.256783 -0.0050074 0.88772 0.448784 0.1027 1 
0.138033 0.256965 -0.00480807 0.908619 0.40213 0.112708 1 
0.138296 0.256451 -0.0047286 0.883512 0.435206 0.173209 1 
0.138384 0.256468 -0.00490741 0.868605 0.480963 0.119164 1 
0.138379 0.256414 -0.0053625 0.853944 0.514066 0.0807211 1 
0.138083 0.256041 -0.00755653 -0.199894 0.197247 -0.959758 1 
0.137668 0.257179 -0.0058618 0.90449 0.409607 0.118828 1 
0.137413 0.257725 -0.00526382 0.81705 0.464846 0.341098 1 
0.137585 0.257683 -0.00585411 0.901906 0.430181 0.0388637 1 
0.137678 0.257409 -0.00516382 0.896099 0.43052 0.107981 1 
0.137758 0.257518 -0.00623231 0.913367 0.405794 0.0330451 1 
0.137714 0.257509 -0.0061429 0.913367 0.405794 0.0330451 1 
0.137459 0.258055 -0.00554487 0.831015 0.479969 0.281147 1 
0.137853 0.257099 -0.0051074 0.900001 0.41831 0.122535 1 
0.134715 0.259028 -0.00389184 -0.0063054 0.936983 0.349319 1 
0.136734 0.250695 -0.00135256 0.504628 -0.714473 0.484643 1 
0.136749 0.251223 -0.000623763 0.500606 -0.258827 0.826077 1 
0.136932 0.25151 -0.00050582 0.519473 -0.249657 0.817202 1 
0.13706 0.251582 -0.0012189 0.614918 -0.297023 0.730516 1 
0.137108 0.251544 -0.000863478 0.625115 -0.31175 0.715571 1 
0.137247 0.251601 -0.000454247 0.512389 -0.309337 0.801104 1 
0.136558 0.253269 3.86387e-005 0.527208 -0.129977 0.839736 1 
0.136939 0.252474 -0.00108081 0.648742 -0.152734 0.745524 1 
0.137064 0.25188 -0.00118816 0.666545 -0.196406 0.719126 1 
0.137025 0.25217 -0.00106795 0.667001 -0.159533 0.727776 1 
0.137383 0.252392 -0.00131795 0.837093 -0.102295 0.537411 1 
0.136676 0.252767 -0.000958383 0.564306 -0.177007 0.806367 1 
0.137081 0.252729 -0.000651017 0.630345 -0.178572 0.755498 1 
0.136945 0.252749 -0.000827625 0.616257 -0.162014 0.7707 1 
0.136905 0.253039 -0.000707448 0.638758 -0.155537 0.753523 1 
0.137129 0.253036 -0.000709698 0.694464 -0.136493 0.706463 1 
0.137426 0.252178 -0.00120546 0.809925 -0.112774 0.575589 1 
0.137648 0.252076 -0.00121795 0.882469 -0.0971139 0.460235 1 
0.137561 0.252403 -0.00145319 0.931783 -0.0323986 0.361568 1 
0.13783 0.252386 -0.00132243 0.975327 -0.00116806 0.220763 1 
0.13735 0.252712 -0.000520274 0.663834 -0.159502 0.730673 1 
0.137534 0.253343 -0.000816375 0.860556 -0.0259121 0.508696 1 
0.136472 0.253573 2.58237e-005 0.536517 -0.114864 0.836036 1 
0.136523 0.253857 0.000189602 0.539335 -0.0811137 0.838175 1 
0.136044 0.254627 0.00058794 0.54776 -0.237414 0.802243 1 
0.136046 0.254726 0.000598207 0.552489 -0.255115 0.793519 1 
0.136211 0.254187 -4.34369e-005 0.583162 -0.106694 0.805319 1 
0.136308 0.254801 -0.000160694 0.751689 -0.1015 0.65166 1 
0.136529 0.254354 0.000240847 0.680377 -0.13968 0.719428 1 
0.136838 0.25417 3.92795e-005 0.664433 -0.0617076 0.744796 1 
0.136885 0.254377 -2.96086e-005 0.780176 -0.00690421 0.625522 1 
0.136711 0.254787 -7.57873e-005 0.85078 0.00134404 0.525521 1 
0.136804 0.254735 0.000412628 0.821545 -0.0290935 0.569401 1 
0.136644 0.253653 -0.000776678 0.668211 -0.0498665 0.742299 1 
0.137089 0.253326 -0.00058949 0.691199 -0.0862172 0.717503 1 
0.137137 0.253633 -0.000648171 0.763446 -0.0352794 0.644907 1 
0.137273 0.253957 -0.000885621 0.865374 0.0313443 0.500145 1 
0.136434 0.254429 -0.000469968 0.697468 -0.0529904 0.714654 1 
0.136566 0.254455 -0.000738233 0.788962 0.0152523 0.614253 1 
0.13661 0.254463 -0.00082764 0.788962 0.0152523 0.614253 1 
0.136828 0.254285 -0.00107282 0.862019 0.0230777 0.506351 1 
0.136657 0.254548 -0.000684395 0.801983 0.0207768 0.596986 1 
0.136709 0.25481 -0.000298217 0.853175 0.00404348 0.521609 1 
0.136789 0.254574 -0.000952646 0.864554 0.0714623 0.497434 1 
0.136974 0.254494 -0.000198185 0.831486 0.0290536 0.554785 1 
0.136931 0.25483 -0.000522837 0.860606 0.0483487 0.50697 1 
0.137061 0.254756 -0.000801355 0.865246 0.062699 0.497412 1 
0.13687 0.254316 -0.00138462 0.873858 0.0312578 0.485175 1 
0.137232 0.254614 -0.00140193 0.871063 0.0682913 0.486401 1 
0.137011 0.254939 -0.00159135 0.889282 0.0589201 0.453548 1 
0.13719 0.254583 -0.00109009 0.860694 0.0716075 0.504061 1 
0.13737 0.254916 -0.001417 0.874063 0.0769175 0.479686 1 
0.137545 0.254606 -0.00136058 0.87472 0.0767299 0.478515 1 
0.137318 0.253843 -0.000762895 0.862019 0.0230777 0.506351 1 
0.137625 0.253559 -0.00097473 0.875906 -0.00132914 0.482479 1 
0.137857 0.254964 -0.00195575 0.915355 0.0800088 0.39462 1 
0.138165 0.255025 -0.00258163 0.933502 0.0841354 0.348561 1 
0.138434 0.255007 -0.00245087 0.92989 0.090163 0.356615 1 
0.138636 0.254224 -0.00365748 0.923868 0.249887 0.289869 1 
0.136137 0.254943 0.000439897 0.716388 -0.156 0.680038 1 
0.136406 0.254925 0.000570625 0.73851 -0.0892062 0.668315 1 
0.136362 0.255039 0.000447929 0.791265 -0.119353 0.599711 1 
0.136184 0.255372 0.000169054 0.870237 0.0313231 0.491636 1 
0.136274 0.255366 0.000212654 0.870237 0.0313231 0.491636 1 
0.136316 0.255398 -9.9197e-005 0.869727 0.0424591 0.491704 1 
0.136539 0.255051 0.000312641 0.822505 -0.0262649 0.568151 1 
0.136674 0.255275 6.49244e-005 0.864418 0.048253 0.500453 1 
0.136851 0.255409 -0.000282481 0.869727 0.0424591 0.491704 1 
0.137243 0.25541 -0.0013199 0.878559 0.0882763 0.469405 1 
0.137462 0.255231 -0.00156507 0.890456 0.0674379 0.450045 1 
0.137466 0.25553 -0.0015343 0.887384 0.117469 0.445815 1 
0.137731 0.255214 -0.00143431 0.893046 0.0701777 0.444459 1 
0.137233 0.255181 -0.00201793 0.909358 0.0979734 0.404313 1 
0.137498 0.255332 -0.00254415 0.935628 0.0727858 0.345402 1 
0.137151 0.255561 -0.00179808 0.909772 0.0919377 0.4048 1 
0.137155 0.25586 -0.00176732 0.922511 0.0516182 0.382504 1 
0.137241 0.255555 -0.00175448 0.901442 0.101395 0.420858 1 
0.137506 0.25524 -0.00165446 0.888128 0.0847822 0.451708 1 
0.137686 0.255573 -0.00198139 0.919115 0.0939539 0.382624 1 
0.137514 0.255837 -0.00159295 0.894181 0.110895 0.433755 1 
0.13769 0.255527 -0.00153653 0.889211 0.126624 0.439626 1 
0.137782 0.255842 -0.00168462 0.914265 0.083115 0.396499 1 
0.13773 0.255581 -0.00207077 0.928799 0.0706261 0.363791 1 
0.137997 0.255587 -0.00216246 0.928069 0.0989037 0.359034 1 
0.137722 0.255673 -0.00296046 0.918954 0.203737 0.337662 1 
0.137864 0.255806 -0.00231855 0.920633 0.146687 0.361827 1 
0.1376 0.255877 -0.00199419 0.915872 0.117775 0.383807 1 
0.137779 0.25611 -0.00233136 0.91423 0.171507 0.367109 1 
0.137557 0.256213 -0.00231884 0.909967 0.190592 0.368286 1 
0.137734 0.25588 -0.00204003 0.918118 0.141141 0.370322 1 
0.137514 0.256426 -0.00243133 0.901991 0.254559 0.34873 1 
0.137647 0.256551 -0.00268935 0.881342 0.334093 0.334093 1 
0.137915 0.256434 -0.00256881 0.893665 0.290926 0.341651 1 
0.138136 0.25611 -0.00237942 0.912006 0.208911 0.352988 1 
0.138313 0.256244 -0.00272684 0.901801 0.299616 0.311424 1 
0.138138 0.256554 -0.00278324 0.889557 0.340522 0.30452 1 
0.138421 0.255512 -0.00442186 0.87908 0.425457 0.214952 1 
0.138122 0.256049 -0.00373444 0.907519 0.33758 0.249897 1 
0.13839 0.256276 -0.00402799 0.906287 0.359314 0.222571 1 
0.138565 0.256433 -0.00459781 0.873043 0.447601 0.193517 1 
0.138438 0.256706 -0.00429882 0.906517 0.380708 0.182453 1 
0.137787 0.257174 -0.00289603 0.882206 0.372487 0.288037 1 
0.138574 0.25703 -0.00453632 0.895712 0.41857 0.15 1 
0.138902 0.255286 -0.00521377 0.829469 0.549613 0.0995362 1 
0.138939 0.254919 -0.00556663 0.782598 0.62249 0.00690121 1 
0.138557 0.255837 -0.00465937 0.875895 0.447484 0.180461 1 
0.138689 0.255862 -0.00492759 0.858729 0.496702 0.125986 1 
0.126943 0.249601 -0.00403319 0.638943 0.474595 0.605402 1 
0.126761 0.249635 -0.00434276 0.638943 0.474595 0.605402 1 
0.126676 0.249939 -0.00435556 0.613132 0.485466 0.623211 1 
0.127035 0.249916 -0.00418124 0.638381 0.496893 0.58785 1 
0.126901 0.250258 -0.00454947 0.613132 0.485466 0.623211 1 
0.127032 0.250062 -0.00461583 0.581367 0.444771 0.681316 1 
0.127212 0.25005 -0.00452866 0.612842 0.481878 0.626274 1 
0.127434 0.250292 -0.00495519 0.555716 0.351575 0.753376 1 
0.128195 0.247325 -0.00553781 0.913387 0.0887446 0.397303 1 
0.12886 0.247385 -0.00621182 0.877417 -0.031191 0.478714 1 
0.129485 0.247047 -0.00593744 0.883236 -0.202009 0.423186 1 
0.128301 0.24748 -0.00412896 0.816511 0.522133 0.246348 1 
0.12857 0.247463 -0.00399822 0.960808 0.0284409 0.275753 1 
0.128309 0.248077 -0.00406744 0.535108 0.133411 0.834183 1 
0.128259 0.247793 -0.0042312 0.74929 0.362455 0.554247 1 
0.128529 0.247776 -0.00410043 0.774633 0.384881 0.501807 1 
0.128353 0.248086 -0.00415687 0.535108 0.133411 0.834183 1 
0.128708 0.247887 -0.00422546 0.774633 0.384881 0.501807 1 
0.128752 0.248117 -0.00451675 0.724864 0.353473 0.591294 1 
0.128397 0.248217 -0.00445844 0.713223 0.375467 0.591893 1 
0.128824 0.247752 -0.00585893 0.84121 0.114381 0.528471 1 
0.128663 0.248467 -0.0049744 0.711092 0.372789 0.596135 1 
0.128624 0.249101 -0.00526829 0.692989 0.272416 0.6675 1 
0.129016 0.248513 -0.00546733 0.731502 0.233391 0.640651 1 
0.128832 0.248349 -0.00579742 0.763173 0.208983 0.611468 1 
0.129277 0.248955 -0.00686269 0.787262 -0.0380252 0.615445 1 
0.129799 0.247727 -0.00672424 0.843737 -0.0991786 0.527515 1 
0.129776 0.24921 -0.00648101 0.758067 -0.0707529 0.648328 1 
