0.122946 0.242751 -0.00340582 -0.24629 -0.588272 0.770245 1 
0.121729 0.243289 -0.00198799 -0.172596 -0.694966 0.698021 1 
0.120743 0.243961 -0.00152345 0.691818 -0.555121 -0.461767 1 
0.121547 0.243684 -0.00195545 -0.187768 -0.584677 0.789237 1 
0.121896 0.243673 -0.00171511 -0.139154 -0.761605 0.632925 1 
0.12284 0.243214 -0.00223334 -0.244836 -0.677642 0.693438 1 
0.122789 0.242827 -0.00242612 -0.237731 -0.662813 0.710044 1 
0.123402 0.243438 -0.00179309 -0.210191 -0.695965 0.686624 1 
0.123024 0.243295 -0.00187328 -0.244261 -0.701266 0.669748 1 
0.125189 0.242426 -0.00256291 0.564925 -0.487814 -0.665505 1 
0.124035 0.246406 0.000162825 0.179013 -0.732883 0.656382 1 
0.123726 0.246617 0.000495538 0.225923 -0.752557 0.618561 1 
0.124371 0.246145 0.000910282 0.165942 -0.68965 0.704874 1 
0.124884 0.245775 0.000898078 0.11082 -0.642758 0.758011 1 
0.124856 0.245209 0.000538915 0.110819 -0.666394 0.737318 1 
0.12436 0.245482 0.000897989 0.139731 -0.704663 0.695648 1 
0.121418 0.244118 -0.000876307 -0.0728986 -0.816178 0.573183 1 
0.122358 0.243803 -0.00100815 -0.165483 -0.748467 0.642194 1 
0.122074 0.244517 -0.000189587 -0.00958811 -0.81499 0.579396 1 
0.124033 0.243539 -0.0013326 -0.176049 -0.656738 0.733281 1 
0.122798 0.243905 -0.000394464 -0.0767827 -0.760583 0.644685 1 
0.123057 0.243782 -0.000527367 -0.14981 -0.703652 0.694573 1 
0.122004 0.245051 0.000309512 -0.0799889 -0.740261 0.667544 1 
0.122258 0.245485 0.00108239 0.098553 -0.731057 0.675161 1 
0.122685 0.245747 0.00122243 0.104664 -0.712012 0.694323 1 
0.122922 0.245596 0.000996307 -0.0923231 -0.67264 0.734188 1 
0.122726 0.245058 0.000883594 0.273427 -0.769704 0.576883 1 
0.122489 0.245209 0.00110973 0.101384 -0.742016 0.662672 1 
0.122563 0.245419 0.0011362 0.101712 -0.723774 0.6825 1 
0.122845 0.245324 0.00109662 -0.0769631 -0.672338 0.736232 1 
0.12277 0.244433 0.000417978 0.0238006 -0.765819 0.642616 1 
0.122581 0.244702 0.000704005 0.0588336 -0.747617 0.661519 1 
0.122959 0.244845 0.000784174 0.104582 -0.732071 0.673152 1 
0.123863 0.244868 0.000345096 0.0353276 -0.693833 0.719269 1 
0.123815 0.244749 0.000285238 0.0238846 -0.689844 0.723564 1 
0.12467 0.244859 4.5985e-005 0.0767827 -0.644685 0.760583 1 
0.123677 0.245406 0.000764042 0.142967 -0.708814 0.690755 1 
0.1236 0.245134 0.000864387 0.111149 -0.721727 0.683195 1 
0.12405 0.245217 0.000838101 0.0921917 -0.686316 0.721437 1 
0.123994 0.24518 0.00129141 0.136716 -0.72264 0.677569 1 
0.123267 0.244841 0.000711188 0.0860081 -0.727425 0.680776 1 
0.124497 0.245032 0.000678837 0.149409 -0.674606 0.7229 1 
0.12412 0.245364 0.000991255 0.126825 -0.714697 0.68784 1 
0.124308 0.245301 0.000964895 0.123896 -0.71203 0.691132 1 
0.124186 0.244973 0.000878632 0.0768569 -0.685911 0.723615 1 
0.124545 0.24515 0.00073871 0.12383 -0.675843 0.726569 1 
0.123051 0.244338 0.000378445 0.0295246 -0.743739 0.667818 1 
0.123243 0.244338 0.000225291 0.0209852 -0.731685 0.68132 1 
0.123337 0.244306 0.000212118 -0.0013835 -0.720806 0.693136 1 
0.123174 0.244666 0.000464693 0.0649252 -0.717063 0.693978 1 
0.123362 0.244603 0.000438303 0.0441503 -0.710677 0.702132 1 
0.123241 0.244751 0.000744641 0.0860081 -0.727425 0.680776 1 
0.124997 0.245025 -0.00104728 0.00688319 -0.618111 0.786061 1 
0.124635 0.244785 -0.000780627 0.00137867 -0.643838 0.765161 1 
0.126166 0.244846 -0.00063242 -0.058154 -0.591469 0.804228 1 
0.12559 0.245466 0.000605986 0.0674284 -0.62694 0.776144 1 
0.125472 0.244995 0.000133306 0.0380065 -0.612327 0.789691 1 
0.125375 0.244964 0.000273228 0.0613528 -0.614955 0.786172 1 
0.126061 0.245102 0.000280395 -0.00411067 -0.601528 0.798841 1 
0.126664 0.244638 0.000381798 -0.0436295 -0.589702 0.806442 1 
0.126946 0.244543 0.000342235 -0.0759425 -0.586047 0.80671 1 
0.127519 0.244748 0.000142545 -0.0463197 -0.576891 0.815507 1 
0.127658 0.244772 0.000315964 -0.0233615 -0.551056 0.834141 1 
0.127137 0.244542 0.000189096 -0.0551312 -0.583826 0.810005 1 
0.127442 0.244476 0.000242889 -0.237031 -0.540679 0.807145 1 
0.127134 0.24448 0.00031586 -0.0551312 -0.583826 0.810005 1 
0.127907 0.244462 0.000563368 -0.0578458 -0.56576 0.822539 1 
0.127743 0.244347 0.000423387 -0.0643176 -0.601726 0.796108 1 
0.124528 0.243678 -0.00117229 -0.0618397 -0.665855 0.743514 1 
0.124519 0.243077 -0.00131136 -0.091815 -0.619387 0.779699 1 
0.124655 0.243039 -0.00101113 -0.0765714 -0.622685 0.778717 1 
0.124937 0.242945 -0.00105068 0.0153449 -0.66541 0.74632 1 
0.125148 0.24291 -0.00098376 0.061932 -0.701415 0.710057 1 
0.125407 0.242787 -0.0011166 0.17196 -0.768494 0.616317 1 
0.124518 0.24349 -0.000792012 -0.05274 -0.65141 0.75689 1 
0.124748 0.243214 -0.000764668 -0.0498556 -0.665216 0.744985 1 
0.124294 0.243481 -9.22233e-005 -0.104274 -0.638859 0.762225 1 
0.124988 0.243332 -0.000857934 -0.0409447 -0.633936 0.772301 1 
0.125574 0.243171 -0.000843689 0.36486 -0.844033 0.393047 1 
0.126715 0.243043 -0.00150897 -0.645476 0.474467 0.598533 1 
0.126791 0.243728 -0.00108999 -0.209003 -0.47364 0.85556 1 
0.12621 0.242922 -0.00102933 0.205742 -0.821445 0.531882 1 
0.126183 0.243038 -0.000736207 0.252828 -0.864458 0.4345 1 
0.125805 0.242895 -0.00081633 0.200162 -0.79912 0.566871 1 
0.126064 0.242773 -0.000949234 0.168968 -0.756551 0.631728 1 
0.125302 0.244548 -1.28597e-005 0.0351167 -0.61103 0.790828 1 
0.125583 0.24466 0.00020726 0.0180497 -0.623407 0.781689 1 
0.126044 0.244108 0.000261962 -0.0294386 -0.637836 0.769609 1 
0.125932 0.244649 0.000447646 -0.00412105 -0.616784 0.787121 1 
0.124704 0.244046 -3.93689e-005 0.0209263 -0.645926 0.763113 1 
0.127139 0.243923 -0.000589922 -0.175187 -0.460787 0.870049 1 
0.126419 0.244188 0.00046888 -0.032255 -0.612844 0.789545 1 
0.126633 0.244009 0.000149414 -0.11192 -0.55088 0.827046 1 
0.126895 0.244362 0.000409156 -0.0912669 -0.595408 0.798223 1 
0.127579 0.244025 2.37077e-005 -0.0848708 -0.568203 0.8185 1 
0.121731 0.24267 -0.002767 -0.209425 -0.628274 0.749275 1 
0.121369 0.24243 -0.00250031 -0.199324 -0.635056 0.746307 1 
0.121884 0.242533 -0.00361995 -0.205238 -0.615715 0.760771 1 
0.122066 0.242344 -0.00339277 -0.212538 -0.615893 0.758619 1 
0.121968 0.242519 -0.00299318 -0.209171 -0.618217 0.757664 1 
0.122467 0.242515 -0.00321929 -0.188572 -0.627039 0.755819 1 
0.122442 0.242218 -0.00344551 -0.191365 -0.604712 0.773113 1 
0.122455 0.242058 -0.00297195 -0.229898 -0.639648 0.733483 1 
0.122604 0.242064 -0.00343844 -0.210839 -0.567881 0.795649 1 
0.122778 0.241957 -0.00269809 -0.226411 -0.638636 0.735447 1 
0.122764 0.241025 -0.00284326 -0.324809 -0.536015 0.779222 1 
0.122883 0.24129 -0.00263022 -0.270748 -0.596911 0.755243 1 
0.12053 0.243521 -0.00198297 -0.0831329 -0.68694 0.721943 1 
0.120985 0.242844 -0.00167473 -0.12045 -0.712291 0.691472 1 
0.121591 0.243058 -0.00242111 -0.199458 -0.675682 0.709698 1 
0.121873 0.242964 -0.00246063 -0.206609 -0.663323 0.719247 1 
0.121513 0.242786 -0.00232075 -0.196437 -0.66974 0.716143 1 
0.121199 0.242665 -0.00199422 -0.192884 -0.655806 0.729873 1 
0.121344 0.243021 -0.00181466 -0.176297 -0.688324 0.703654 1 
0.121207 0.243472 -0.00159551 -0.101481 -0.728014 0.678009 1 
0.121203 0.243616 -0.00120908 -0.0916493 -0.778292 0.621179 1 
0.121129 0.243406 -0.00123546 -0.0736697 -0.752586 0.65436 1 
0.120984 0.24305 -0.00141507 -0.123651 -0.70168 0.70168 1 
0.12113 0.2432 -0.00149517 -0.123651 -0.70168 0.70168 1 
0.12146 0.243224 -0.00147484 -0.130013 -0.718809 0.682943 1 
0.122994 0.24246 -0.00236531 -0.24057 -0.652526 0.718565 1 
0.123113 0.242725 -0.00215229 -0.2412 -0.660542 0.71099 1 
0.122872 0.242132 -0.0024516 -0.212675 -0.641129 0.737376 1 
0.122729 0.242045 -0.0024983 -0.216392 -0.658515 0.720786 1 
0.123128 0.241947 -0.00245771 -0.264619 -0.625895 0.733644 1 
0.123417 0.242659 -0.00209853 -0.258278 -0.667086 0.698777 1 
0.123076 0.241765 -0.00239079 -0.272546 -0.635942 0.722009 1 
0.123539 0.240801 -0.00285545 -0.618804 -0.329704 0.713005 1 
0.123165 0.241196 -0.00266978 -0.370947 -0.510255 0.775911 1 
0.12357 0.242111 -0.00197081 -0.339056 -0.595375 0.728402 1 
0.123803 0.242104 -0.00181058 -0.30658 -0.598714 0.739966 1 
0.12406 0.241919 -0.00181669 -0.296638 -0.623741 0.723155 1 
0.124784 0.241988 -0.00136933 0.27886 -0.90958 0.30806 1 
0.123403 0.241727 -0.00224371 -0.348983 -0.519454 0.779986 1 
0.123281 0.241399 -0.00232999 -0.354844 -0.502562 0.788364 1 
0.12352 0.241517 -0.00242326 -0.427921 -0.427921 0.796095 1 
0.123659 0.241748 -0.00199015 -0.363563 -0.559203 0.74506 1 
0.123847 0.241478 -0.00227618 -0.450917 -0.464035 0.76246 1 
0.123443 0.241245 -0.0023229 -0.47774 -0.378009 0.793016 1 
0.123703 0.241122 -0.00245577 -0.579597 -0.32451 0.747503 1 
0.12438 0.241755 -0.00141606 0.187139 -0.895077 0.404743 1 
0.124474 0.241723 -0.00142924 0.218652 -0.893686 0.391813 1 
0.123259 0.240276 -0.00359489 -0.0145612 -0.896178 -0.443456 1 
0.123141 0.240692 -0.00315565 -0.522884 -0.361001 0.772185 1 
0.124476 0.241992 -0.00129634 0.233494 -0.884897 0.403037 1 
0.12582 0.246901 0.00108393 0.12911 -0.59806 0.790983 1 
0.126436 0.247575 0.00159021 0.138338 -0.593517 0.792843 1 
0.126022 0.247154 0.00192377 0.181198 -0.601456 0.778086 1 
0.126263 0.247066 0.00157082 0.178105 -0.610428 0.771788 1 
0.126615 0.247118 0.00168444 0.125447 -0.588865 0.798436 1 
0.128526 0.246909 0.00139347 0.0911754 -0.467099 0.879492 1 
0.12686 0.247774 0.00185697 0.0197801 -0.428569 0.903292 1 
0.127076 0.24807 0.00193009 0.0499853 -0.436358 0.898384 1 
0.127303 0.247732 0.0020842 0.00915501 -0.422438 0.906345 1 
0.127661 0.248115 0.00220396 -0.217582 -0.259158 0.941008 1 
0.126452 0.247478 0.00193705 0.151492 -0.589469 0.793458 1 
0.12645 0.247209 0.00180413 0.151485 -0.601441 0.784424 1 
0.126834 0.247683 0.00189044 0.0799563 -0.489557 0.868298 1 
0.126757 0.247411 0.0019908 0.111818 -0.53876 0.835006 1 
0.127039 0.247316 0.00195125 0.00653219 -0.424592 0.905361 1 
0.126947 0.247617 0.00209737 0.0197801 -0.428569 0.903292 1 
0.127158 0.247582 0.00216429 0.0303786 -0.413413 0.910037 1 
0.127178 0.247341 0.00212471 0.0197801 -0.428569 0.903292 1 
0.126777 0.24717 0.0019512 0.111829 -0.547529 0.829281 1 
0.126799 0.247198 0.00204451 0.105489 -0.541897 0.833798 1 
0.126773 0.247108 0.00207795 0.121391 -0.554305 0.823414 1 
0.126961 0.247045 0.00205159 0.114585 -0.535215 0.836908 1 
0.127749 0.247959 0.0024443 -0.217582 -0.259158 0.941008 1 
0.127553 0.247421 0.00233161 -0.106744 -0.341851 0.933672 1 
0.127741 0.247358 0.00230525 0.381697 -0.840361 0.384838 1 
0.127312 0.246828 0.00203234 0.0750775 -0.528376 0.845685 1 
0.127499 0.246765 0.00200595 0.173228 -0.490073 0.854296 1 
0.127618 0.24703 0.00221898 0.272237 -0.708452 0.651139 1 
0.127826 0.246726 0.00215302 0.144724 -0.492646 0.858111 1 
0.127627 0.24763 0.002358 -0.131964 -0.322427 0.937351 1 
0.123863 0.24685 0.00242861 0.225398 -0.766353 0.60158 1 
0.123741 0.246522 0.00234234 0.216096 -0.754005 0.620305 1 
0.124554 0.246432 0.00152999 0.139618 -0.644046 0.752138 1 
0.124318 0.246583 0.00175616 0.162879 -0.671306 0.723062 1 
0.124673 0.246698 0.00174305 0.156037 -0.649902 0.743828 1 
0.124126 0.24679 0.00216898 0.206314 -0.699607 0.684094 1 
0.124077 0.246877 0.00236879 0.223349 -0.713781 0.663801 1 
0.124741 0.246782 0.002023 0.165178 -0.625859 0.762245 1 
0.12441 0.246076 0.00135043 0.139504 -0.658519 0.739521 1 
0.124147 0.246136 0.00161004 0.139537 -0.661674 0.736694 1 
0.124333 0.245804 0.00145078 0.139642 -0.674187 0.725239 1 
0.124092 0.245892 0.0018037 0.136674 -0.671354 0.728426 1 
0.124743 0.246163 0.00124399 0.126503 -0.6474 0.751579 1 
0.124477 0.24616 0.00163037 0.132819 -0.640219 0.756623 1 
0.124316 0.245901 0.00110397 0.136748 -0.683739 0.716799 1 
0.124521 0.245535 0.00116475 0.146541 -0.702488 0.696445 1 
0.124384 0.245986 0.00138389 0.143043 -0.657999 0.739308 1 
0.124307 0.245714 0.00148423 0.117368 -0.664095 0.738378 1 
0.124314 0.24652 0.00188296 0.169193 -0.675246 0.717925 1 
0.124263 0.246339 0.00194985 0.172906 -0.677853 0.714576 1 
0.1241 0.246699 0.00220245 0.213595 -0.703148 0.678203 1 
0.124051 0.246787 0.00240225 0.219848 -0.718795 0.659545 1 
0.124145 0.246755 0.00238907 0.216499 -0.711797 0.668186 1 
0.124093 0.246574 0.00245596 0.199458 -0.709698 0.675682 1 
0.123904 0.246162 0.00208975 0.206064 -0.726648 0.655378 1 
0.123923 0.246127 0.00230986 0.205966 -0.732494 0.648869 1 
0.124237 0.246248 0.0019833 0.172548 -0.679502 0.713095 1 
0.12416 0.245977 0.00208364 0.390562 -0.8146 0.428821 1 
0.124023 0.246427 0.00230281 0.196373 -0.722095 0.663338 1 
0.125221 0.246195 0.00229777 0.148858 -0.614981 0.774364 1 
0.124449 0.246895 0.0027025 0.226876 -0.705664 0.671241 1 
0.124808 0.246866 0.00230291 0.16837 -0.62039 0.766008 1 
0.125161 0.246918 0.00241655 0.161711 -0.61813 0.769262 1 
0.1244 0.246776 0.00264263 0.206322 -0.696531 0.687223 1 
0.124233 0.245504 0.00145783 0.162569 -0.718647 0.676105 1 
0.124041 0.245711 0.00187062 0.12381 -0.672752 0.729436 1 
0.12435 0.245294 0.0012783 0.133271 -0.6993 0.702295 1 
0.12371 0.245893 0.00210996 0.241993 -0.785306 0.569854 1 
0.124014 0.245827 0.00216374 0.186301 -0.715948 0.672837 1 
0.125999 0.246444 0.00117819 0.129153 -0.613106 0.779372 1 
0.125922 0.246172 0.00127853 0.110292 -0.60734 0.786749 1 
0.126017 0.245728 0.000746027 0.0378621 -0.601587 0.797909 1 
0.126366 0.245717 0.000986397 0.0434474 -0.578832 0.814289 1 
0.126626 0.245595 0.000853553 0.029052 -0.563056 0.825908 1 
0.126204 0.246077 0.00123897 0.0881736 -0.582524 0.808017 1 
0.126485 0.245983 0.00119941 0.0754057 -0.553449 0.829462 1 
0.126144 0.2468 0.00135778 0.138665 -0.594919 0.791734 1 
0.125731 0.246854 0.00208391 0.152151 -0.616135 0.772805 1 
0.126425 0.246705 0.00131823 0.121931 -0.574397 0.809445 1 
0.126326 0.246405 0.00132525 0.109769 -0.581044 0.806436 1 
0.12642 0.246374 0.00131208 0.100265 -0.582699 0.806479 1 
0.126775 0.246695 0.00155862 0.0758113 -0.567869 0.81962 1 
0.126792 0.246391 0.00164579 0.0664317 -0.541348 0.83817 1 
0.126624 0.246007 0.00137287 0.0634216 -0.545426 0.835756 1 
0.125803 0.2457 0.000805855 0.0705678 -0.626469 0.776245 1 
0.125475 0.245535 0.00189908 0.116511 -0.603204 0.789032 1 
0.127022 0.246115 0.00167315 0.117147 -0.510528 0.851844 1 
0.128059 0.244943 0.000489429 -0.0123131 -0.565033 0.824976 1 
0.128007 0.244762 0.000556365 -0.012358 -0.572589 0.81975 1 
0.125799 0.246938 0.00236385 0.174367 -0.58375 0.79299 1 
0.126136 0.247088 0.00213066 0.177948 -0.59164 0.786318 1 
0.125887 0.246575 0.0023445 0.171226 -0.589441 0.789456 1 
0.126936 0.246748 0.00182538 0.0907375 -0.557388 0.825279 1 
0.127141 0.246381 0.00188619 0.13795 -0.489361 0.861101 1 
0.127957 0.244168 0.000103906 -0.121197 -0.547575 0.827933 1 
0.128265 0.244164 3.0905e-005 -0.0975104 -0.589428 0.801914 1 
0.128074 0.244164 0.000184059 -0.0705046 -0.620153 0.781306 1 
0.128366 0.244939 0.000416443 -0.269671 -0.572459 0.774318 1 
0.128888 0.244963 0.000283614 0.0992886 -0.539612 0.836039 1 
0.128292 0.244936 0.00064972 -0.407805 -0.57621 0.708292 1 
0.128529 0.244785 0.000423536 0.0349009 -0.58773 0.808304 1 
0.128263 0.244577 0.000550255 -0.00136155 -0.578659 0.815569 1 
0.130286 0.23364 -0.00361684 -0.0587678 -0.649312 0.758248 1 
0.129888 0.233532 -0.00391711 -0.192297 -0.64458 0.739959 1 
0.130099 0.233291 -0.00410984 -0.165672 -0.655089 0.737165 1 
0.130494 0.233336 -0.00368279 -0.0768078 -0.647794 0.757934 1 
0.129577 0.231698 -0.00554118 -0.196335 -0.660119 0.725049 1 
0.129787 0.232757 -0.00430262 -0.182604 -0.646019 0.741158 1 
0.129553 0.23297 -0.00420323 -0.162753 -0.658615 0.734668 1 
0.129341 0.23253 -0.00466274 -0.175654 -0.655266 0.734692 1 
0.129744 0.233176 -0.00409669 -0.169383 -0.657695 0.733994 1 
0.129974 0.2329 -0.00406934 -0.169251 -0.648032 0.742569 1 
0.130569 0.233133 -0.00417577 -0.0829995 -0.659628 0.746996 1 
0.130948 0.233069 -0.00435522 -0.0558529 -0.66021 0.749002 1 
0.130919 0.232916 -0.00419502 -0.0678091 -0.659335 0.748785 1 
0.130827 0.233423 -0.00378925 -0.0557706 -0.644937 0.762198 1 
0.131012 0.233297 -0.00368884 -0.0351912 -0.64048 0.767168 1 
0.131887 0.23296 -0.00422741 -0.0293076 -0.607086 0.794096 1 
0.131509 0.232817 -0.00430758 -0.0380107 -0.626473 0.778516 1 
0.131836 0.232779 -0.00416051 -0.0293076 -0.607086 0.794096 1 
0.133166 0.233269 -0.00419986 -0.0562506 -0.349277 0.93533 1 
0.133211 0.233119 -0.00427291 -0.0648006 -0.355742 0.932335 1 
0.132194 0.233163 -0.0040407 -0.00962816 -0.601072 0.799137 1 
0.132904 0.233123 -0.00419991 -0.0228706 -0.47221 0.881189 1 
0.132593 0.233064 -0.00400016 -0.012158 -0.509283 0.860513 1 
0.132801 0.23276 -0.00406609 -0.0228706 -0.47221 0.881189 1 
0.132092 0.232594 -0.00416662 -0.0292081 -0.588334 0.80809 1 
0.132117 0.232891 -0.00394036 -0.00962816 -0.601072 0.799137 1 
0.132448 0.232708 -0.00417972 -0.0204954 -0.528782 0.84851 1 
0.132636 0.232645 -0.00420608 -0.0258102 -0.495827 0.868038 1 
0.132859 0.233067 -0.00438651 -0.0443214 -0.431127 0.901202 1 
0.132989 0.232697 -0.00409245 -0.046996 -0.42565 0.903667 1 
0.133303 0.232819 -0.00441898 -0.104206 -0.299429 0.948411 1 
0.133468 0.232934 -0.004279 -0.106892 -0.251133 0.962032 1 
0.133507 0.232452 -0.00435819 -0.167944 -0.173072 0.970485 1 
0.133126 0.232247 -0.00431164 -0.121849 -0.306632 0.943997 1 
0.132963 0.232607 -0.004059 -0.046996 -0.42565 0.903667 1 
0.133226 0.232547 -0.00431862 -0.115384 -0.295754 0.94827 1 
0.133604 0.232689 -0.00423846 -0.206201 -0.0987263 0.973517 1 
0.133579 0.232392 -0.00446473 -0.226627 -0.0838894 0.970362 1 
0.130001 0.23169 -0.00553404 -0.192965 -0.662255 0.724004 1 
0.130777 0.231941 -0.00515363 -0.126567 -0.632837 0.763871 1 
0.130965 0.231878 -0.00517999 -0.119927 -0.632208 0.765461 1 
0.131221 0.231693 -0.0051861 -0.10102 -0.628083 0.771561 1 
0.129603 0.231582 -0.0058343 -0.162493 -0.666675 0.72742 1 
0.129908 0.231515 -0.00578053 -0.169169 -0.672104 0.720873 1 
0.130497 0.231417 -0.0058931 -0.185796 -0.661801 0.726292 1 
0.130395 0.231736 -0.00510702 -0.162671 -0.652205 0.740382 1 
0.13082 0.231522 -0.00535956 -0.165583 -0.648661 0.742846 1 
0.131503 0.231598 -0.00522563 -0.0914698 -0.608347 0.788383 1 
0.130707 0.232476 -0.00465454 -0.0919361 -0.646472 0.757379 1 
0.130847 0.232294 -0.00474079 -0.0919361 -0.646472 0.757379 1 
0.130425 0.23257 -0.00461498 -0.117312 -0.657839 0.743967 1 
0.130992 0.23265 -0.0045612 -0.0675821 -0.645625 0.760658 1 
0.130562 0.23212 -0.00483413 -0.120441 -0.652763 0.747927 1 
0.131177 0.232318 -0.00472046 -0.0616512 -0.635151 0.769924 1 
0.131359 0.231923 -0.00475298 -0.0733496 -0.605493 0.792463 1 
0.130307 0.232987 -0.0041758 -0.0648125 -0.661088 0.747504 1 
0.132418 0.231873 -0.00467177 -0.0828564 -0.487308 0.86929 1 
0.132085 0.231787 -0.00456531 -0.0608958 -0.565057 0.822802 1 
0.132367 0.231692 -0.00460486 -0.0828564 -0.487308 0.86929 1 
0.132655 0.231723 -0.00489794 -0.121552 -0.403775 0.906747 1 
0.133192 0.231649 -0.00468396 -0.179801 -0.225084 0.957606 1 
0.13197 0.232266 -0.00425288 -0.0377026 -0.579503 0.814097 1 
0.132348 0.232408 -0.00417273 -0.0259951 -0.526742 0.849628 1 
0.132585 0.232258 -0.00439888 -0.0480152 -0.47878 0.876621 1 
0.132252 0.232171 -0.00429243 -0.0431956 -0.544822 0.837438 1 
0.13187 0.231966 -0.00424583 -0.0552222 -0.581957 0.811342 1 
0.131043 0.234814 -0.0025446 -0.120461 -0.697482 0.706405 1 
0.130428 0.234615 -0.00265828 -0.474264 -0.56476 0.675366 1 
0.13071 0.234521 -0.00269781 -0.0921696 -0.680299 0.727116 1 
0.130613 0.233602 -0.00346978 -0.0707529 -0.648328 0.758067 1 
0.130242 0.234266 -0.00315122 -0.0769891 -0.678376 0.73067 1 
0.130139 0.233903 -0.00301743 -0.110819 -0.666394 0.737318 1 
0.130524 0.234171 -0.00319076 -0.0238596 -0.669472 0.742454 1 
0.130873 0.234161 -0.00295039 -0.0648685 -0.673191 0.736618 1 
0.130829 0.234992 -0.0022251 -0.15308 -0.68962 0.707807 1 
0.131011 0.234598 -0.00225763 -0.120711 -0.69595 0.707872 1 
0.130878 0.23381 -0.00359648 -0.0498811 -0.648454 0.759618 1 
0.133967 0.233611 -0.0038529 -0.156604 -0.151593 0.975958 1 
0.133731 0.233555 -0.00388642 -0.174001 -0.10983 0.978602 1 
0.133499 0.233356 -0.00430632 -0.0954484 -0.24053 0.965937 1 
0.133774 0.233136 -0.00409235 -0.174001 -0.10983 0.978602 1 
0.133586 0.233199 -0.00406601 -0.107479 -0.218752 0.969843 1 
0.134772 0.234015 -0.00363268 -0.299 0.01861 0.954072 1 
0.134796 0.233837 -0.00379905 -0.280022 0.0134508 0.959899 1 
0.134718 0.233771 -0.00343904 -0.218314 -0.0727713 0.973162 1 
0.135077 0.233948 -0.00357895 -0.346178 0.0535595 0.936639 1 
0.134984 0.233774 -0.00382541 -0.299 0.01861 0.954072 1 
0.134224 0.233426 -0.003859 -0.175815 -0.125938 0.976334 1 
0.134696 0.233537 -0.003792 -0.183271 -0.115947 0.976201 1 
0.134576 0.233478 -0.00374536 -0.183271 -0.115947 0.976201 1 
0.133749 0.233045 -0.0040589 -0.174001 -0.10983 0.978602 1 
0.134079 0.233069 -0.0040386 -0.174001 -0.10983 0.978602 1 
0.134428 0.233059 -0.00379819 -0.175815 -0.125938 0.976334 1 
0.13438 0.23294 -0.00385804 -0.19226 -0.100472 0.976187 1 
0.134762 0.233146 -0.00390464 -0.183271 -0.115947 0.976201 1 
0.13432 0.233663 -0.00373927 -0.156473 -0.126903 0.979496 1 
0.133979 0.232769 -0.00403152 -0.174001 -0.10983 0.978602 1 
0.11212 0.251403 -0.00114445 -0.0932845 -0.441361 0.892468 1 
0.112831 0.25095 -0.00182299 -0.224997 -0.383819 0.895578 1 
0.11278 0.250769 -0.00175612 -0.214976 -0.353485 0.910403 1 
0.111984 0.250142 -0.00137594 -0.154842 -0.347347 0.924864 1 
0.112609 0.249435 -0.00281413 -0.238698 -0.331284 0.912839 1 
0.112899 0.250828 -0.00180271 -0.222571 -0.359314 0.906287 1 
0.112896 0.250766 -0.00167593 -0.214976 -0.353485 0.910403 1 
0.112984 0.250403 -0.00169529 -0.256466 -0.341466 0.904227 1 
0.113156 0.250643 -0.00180882 -0.250312 -0.341068 0.9061 1 
0.11336 0.250276 -0.00174801 -0.260149 -0.339517 0.903908 1 
0.112938 0.250759 -0.00136256 -0.222571 -0.359314 0.906287 1 
0.112864 0.25055 -0.00138898 -0.276176 -0.359776 0.891228 1 
0.113119 0.250571 -0.00113542 -0.276176 -0.359776 0.891228 1 
0.113122 0.249745 -0.00217406 -0.28713 -0.343664 0.894121 1 
0.113026 0.249508 -0.00229378 -0.295876 -0.352949 0.887629 1 
0.112811 0.249687 -0.00197431 -0.266589 -0.337286 0.902867 1 
0.113068 0.249502 -0.00198042 -0.295876 -0.352949 0.887629 1 
0.113333 0.24971 -0.00210716 -0.295876 -0.352949 0.887629 1 
0.113285 0.249385 -0.00242667 -0.310212 -0.361662 0.879187 1 
0.113444 0.249169 -0.00229281 -0.433688 -0.398481 0.808163 1 
0.113702 0.249459 -0.00190634 -0.432754 -0.410231 0.802767 1 
0.113677 0.249368 -0.0018729 -0.44654 -0.411075 0.794745 1 
0.113027 0.25019 -0.00164157 -0.256466 -0.341466 0.904227 1 
0.113335 0.250186 -0.00171459 -0.260149 -0.339517 0.903908 1 
0.113282 0.250211 -0.00138797 -0.260149 -0.339517 0.903908 1 
0.112665 0.24995 -0.0013749 -0.221654 -0.324616 0.919507 1 
0.113203 0.24967 -0.00142053 -0.298613 -0.352634 0.886837 1 
0.113179 0.249848 -0.00125416 -0.294614 -0.348452 0.889823 1 
0.113523 0.250123 -0.00174095 -0.298613 -0.352634 0.886837 1 
0.113708 0.249791 -0.00190018 -0.399707 -0.390228 0.829431 1 
0.113964 0.249605 -0.00190631 -0.486051 -0.423862 0.764261 1 
0.113718 0.249568 -0.00129981 -0.479002 -0.433227 0.76346 1 
0.113955 0.249211 -0.00178567 -0.466794 -0.424506 0.775821 1 
0.113159 0.245921 -0.00414129 -0.375944 -0.194454 0.90601 1 
0.113886 0.246259 -0.003561 -0.155023 -0.393958 0.905961 1 
0.113508 0.24591 -0.00390092 -0.411829 -0.230446 0.881641 1 
0.113815 0.246113 -0.00371422 -0.283197 -0.395265 0.873822 1 
0.11409 0.245893 -0.00350022 -0.247325 -0.412208 0.876878 1 
0.113997 0.245718 -0.00374676 -0.389946 -0.368021 0.844099 1 
0.113875 0.24539 -0.00383303 -0.41164 -0.373788 0.831165 1 
0.113898 0.244801 -0.00301868 -0.392462 -0.33972 0.85473 1 
0.112881 0.249152 -0.00247335 -0.30502 -0.344086 0.888013 1 
0.113479 0.248356 -0.00237815 -0.44064 -0.44064 0.782095 1 
0.112353 0.249209 -0.00182739 -0.269769 -0.340528 0.900703 1 
0.113153 0.24887 -0.00213265 -0.40969 -0.384381 0.827288 1 
0.113341 0.248806 -0.00215901 -0.444851 -0.399884 0.801374 1 
0.113623 0.248712 -0.00219856 -0.451968 -0.416329 0.78892 1 
0.113464 0.249134 -0.00207275 -0.433688 -0.398481 0.808163 1 
0.113768 0.249068 -0.00201899 -0.471045 -0.428667 0.770948 1 
0.113813 0.249124 -0.00183235 -0.466794 -0.424506 0.775821 1 
0.11329 0.248625 -0.00209212 -0.444851 -0.399884 0.801374 1 
0.113495 0.248259 -0.00203131 -0.459335 -0.442989 0.769917 1 
0.113717 0.24868 -0.00221175 -0.472079 -0.436142 0.766108 1 
0.11395 0.248673 -0.00205149 -0.474747 -0.448463 0.757295 1 
0.114018 0.248757 -0.00177157 -0.474747 -0.448463 0.757295 1 
0.114232 0.248579 -0.00209104 -0.485658 -0.456025 0.745773 1 
0.114582 0.248568 -0.00185066 -0.480445 -0.473841 0.738003 1 
0.113666 0.248499 -0.00214484 -0.470533 -0.444301 0.762362 1 
0.113828 0.248345 -0.00213777 -0.474747 -0.448463 0.757295 1 
0.113993 0.24846 -0.00199777 -0.486386 -0.453411 0.746891 1 
0.113754 0.248136 -0.00216419 -0.468237 -0.455093 0.757393 1 
0.113848 0.248104 -0.00217736 -0.467536 -0.457693 0.756259 1 
0.114155 0.248307 -0.00199069 -0.487858 -0.474628 0.732614 1 
0.114249 0.248275 -0.00200388 -0.484911 -0.471671 0.736469 1 
0.114222 0.248391 -0.00171076 -0.485332 -0.475393 0.733795 1 
0.114796 0.248389 -0.00217012 -0.477951 -0.484566 0.732638 1 
0.114437 0.248212 -0.00203024 -0.474239 -0.484153 0.735318 1 
0.114786 0.248201 -0.00178985 -0.473841 -0.480445 0.738003 1 
0.114813 0.248086 -0.00208299 -0.469715 -0.476307 0.743303 1 
0.115023 0.248051 -0.00201602 -0.471274 -0.481196 0.739156 1 
0.113904 0.24903 -0.00171877 -0.466794 -0.424506 0.775821 1 
0.114162 0.249113 -0.00159198 -0.479515 -0.436964 0.761005 1 
0.114322 0.248691 -0.00171781 -0.482669 -0.453017 0.749537 1 
0.115185 0.248103 -0.00174928 -0.478716 -0.491968 0.727185 1 
0.114127 0.247947 -0.00209016 -0.465575 -0.472155 0.748539 1 
0.114454 0.247908 -0.00194307 -0.461849 -0.471711 0.751122 1 
0.114641 0.247845 -0.00196943 -0.457255 -0.46381 0.758814 1 
0.114878 0.247695 -0.00219564 -0.452825 -0.449556 0.769967 1 
0.114803 0.247898 -0.0017027 -0.476307 -0.469715 0.743303 1 
0.115168 0.24779 -0.00111544 -0.466723 -0.47332 0.747086 1 
0.115004 0.247675 -0.00125545 -0.466723 -0.47332 0.747086 1 
0.114235 0.246249 -0.00332066 -0.45589 -0.452622 0.766353 1 
0.113668 0.245077 -0.00304605 -0.41164 -0.373788 0.831165 1 
0.113913 0.24491 -0.0024122 -0.4023 -0.355339 0.843735 1 
0.114395 0.245826 -0.00344646 -0.403446 -0.416203 0.814866 1 
0.114228 0.245442 -0.0037194 -0.394933 -0.354347 0.847624 1 
0.114157 0.245295 -0.00387256 -0.394323 -0.350682 0.84943 1 
0.114532 0.245375 -0.0036656 -0.322619 -0.467405 0.823073 1 
0.115257 0.245239 -0.00347796 -0.348852 -0.443563 0.825563 1 
0.115013 0.244583 -0.00365053 -0.345998 -0.450272 0.823128 1 
0.115038 0.24488 -0.0034243 -0.34649 -0.447747 0.824298 1 
0.115201 0.244519 -0.00367689 -0.345998 -0.450272 0.823128 1 
0.116859 0.244559 -0.00408851 -0.0632226 -0.402203 0.913365 1 
0.116782 0.244287 -0.00398818 -0.218222 -0.520377 0.825583 1 
0.116566 0.24399 -0.00406125 -0.234684 -0.573499 0.784871 1 
0.114513 0.244793 -0.00316471 -0.321589 -0.450224 0.832994 1 
0.114868 0.244226 -0.00383009 -0.320361 -0.44538 0.836065 1 
0.115124 0.244247 -0.00357655 -0.342804 -0.447067 0.826206 1 
0.115551 0.244303 -0.00369617 -0.301271 -0.50948 0.806019 1 
0.115762 0.244268 -0.00362921 -0.251845 -0.508325 0.823517 1 
0.1155 0.244121 -0.00362927 -0.273378 -0.507702 0.817009 1 
0.11571 0.244086 -0.00356229 -0.251845 -0.508325 0.823517 1 
0.115901 0.244292 -0.00345577 -0.238615 -0.50956 0.826687 1 
0.115992 0.243992 -0.00360186 -0.229819 -0.535217 0.812851 1 
0.117483 0.24344 -0.00454608 -0.332647 -0.728578 0.598765 1 
0.115321 0.247859 -0.00170873 -0.463818 -0.480324 0.74442 1 
0.115205 0.247656 -0.00204855 -0.444692 -0.451208 0.773732 1 
0.115718 0.247286 -0.00206074 -0.41102 -0.469506 0.781426 1 
0.115367 0.247709 -0.00178181 -0.446058 -0.462397 0.766304 1 
0.115359 0.247108 -0.00192082 -0.394344 -0.452288 0.799955 1 
0.115547 0.246839 -0.00220688 -0.65072 -0.485938 0.583462 1 
0.115641 0.246807 -0.00222005 -0.317162 -0.442151 0.838994 1 
0.115945 0.246947 -0.00190665 -0.384273 -0.46788 0.795879 1 
0.116272 0.246908 -0.00175956 -0.43307 -0.469022 0.76972 1 
0.115571 0.247548 -0.00146133 -0.439879 -0.472584 0.763656 1 
0.115859 0.247579 -0.00175439 -0.433227 -0.479002 0.76346 1 
0.115502 0.247877 -0.00122188 -0.469715 -0.476307 0.743303 1 
0.115757 0.247898 -0.000968337 -0.463082 -0.482858 0.743238 1 
0.116135 0.247359 -0.00154044 -0.409557 -0.464597 0.78512 1 
0.116296 0.247412 -0.00127363 -0.440652 -0.506668 0.741022 1 
0.116484 0.247349 -0.00130002 -0.436515 -0.512288 0.739605 1 
0.116461 0.246639 -0.00204557 -0.509852 -0.437251 0.740852 1 
0.116721 0.247198 -0.00152619 -0.515181 -0.49184 0.701913 1 
0.115028 0.246196 -0.00285302 -0.372949 -0.433255 0.820487 1 
0.114722 0.245788 -0.0032994 -0.212406 -0.429268 0.877846 1 
0.115026 0.245721 -0.00324565 -0.24363 -0.446403 0.861028 1 
0.114863 0.246081 -0.00299306 -0.377173 -0.431282 0.819595 1 
0.115472 0.245948 -0.00288554 -0.360762 -0.452939 0.81529 1 
0.115566 0.245916 -0.00289871 -0.340216 -0.463643 0.8181 1 
0.115353 0.245682 -0.00309858 -0.345653 -0.440353 0.828621 1 
0.11547 0.245679 -0.00301844 -0.447125 -0.434118 0.782062 1 
0.115797 0.24564 -0.00287135 -0.421933 -0.438099 0.793752 1 
0.115008 0.246437 -0.00281346 -0.373922 -0.434386 0.819446 1 
0.115451 0.246601 -0.00232658 -0.650015 -0.475334 0.592907 1 
0.115711 0.246272 -0.00271913 -0.365409 -0.454766 0.812197 1 
0.115639 0.246332 -0.00261267 -0.382713 -0.446765 0.808661 1 
0.11606 0.246262 -0.00247873 -0.386749 -0.457359 0.80078 1 
0.114933 0.245546 -0.00349213 -0.332101 -0.454869 0.826319 1 
0.114975 0.245333 -0.00343838 -0.348852 -0.443563 0.825563 1 
0.11549 0.245232 -0.0033177 -0.344012 -0.458154 0.819604 1 
0.114866 0.244845 -0.00305107 -0.344012 -0.458154 0.819604 1 
0.115078 0.245286 -0.00259154 -0.378009 -0.444998 0.811841 1 
0.115685 0.244677 -0.00287661 -0.323094 -0.46494 0.824283 1 
0.115334 0.2451 -0.00259764 -0.334165 -0.440847 0.833059 1 
0.116366 0.245783 -0.00294434 -0.326013 -0.458308 0.826843 1 
0.116126 0.245871 -0.00259139 -0.345023 -0.4754 0.809293 1 
0.115718 0.244687 -0.00342326 -0.289992 -0.49377 0.819815 1 
0.116026 0.244683 -0.00349624 -0.26145 -0.4966 0.827667 1 
0.116411 0.244541 -0.00268896 -0.193574 -0.493687 0.847822 1 
0.116802 0.244934 -0.00311582 -0.109058 -0.463144 0.879548 1 
0.116821 0.244899 -0.00289573 -0.213053 -0.491081 0.844659 1 
0.116468 0.245053 -0.00274971 -0.205992 -0.48566 0.84953 1 
0.116578 0.244925 -0.00241607 -0.162045 -0.462777 0.871538 1 
0.116932 0.244564 -0.00282179 -0.186754 -0.497512 0.847115 1 
0.116082 0.246496 -0.00212575 -0.475285 -0.43282 0.76601 1 
0.116221 0.246521 -0.00195229 -0.475285 -0.43282 0.76601 1 
0.115443 0.245384 -0.00174466 -0.332868 -0.462229 0.821915 1 
0.116116 0.248075 -0.00110823 -0.476472 -0.540002 0.69381 1 
0.115902 0.248254 -0.000788763 -0.482222 -0.53228 0.695802 1 
0.116277 0.248334 -0.000581801 -0.487644 -0.561377 0.668625 1 
0.116156 0.2478 -0.000927731 -0.473167 -0.49973 0.725522 1 
0.114746 0.244786 -0.00300443 -0.348097 -0.46254 0.815405 1 
0.115093 0.244507 -0.00289699 -0.335376 -0.451891 0.82663 1 
0.11531 0.244597 -0.00308354 -0.331711 -0.451189 0.82849 1 
0.11542 0.244468 -0.00274989 -0.331711 -0.451189 0.82849 1 
0.116288 0.244212 -0.00277521 -0.20729 -0.506876 0.836724 1 
0.117012 0.244488 -0.00206824 -0.173479 -0.487818 0.855534 1 
0.117298 0.243362 -0.00340614 -0.183864 -0.291694 0.938674 1 
0.117437 0.243387 -0.00323269 -0.203145 -0.301215 0.931666 1 
0.112621 0.240732 -0.00845356 -0.754281 -0.542496 0.369809 1 
0.115295 0.239636 -0.00876901 0.260713 -0.938288 0.227253 1 
0.116041 0.239052 -0.0088806 -0.043666 -0.919632 -0.390347 1 
0.111708 0.243324 -0.00751205 -0.236737 -0.198859 0.951005 1 
0.111512 0.24258 -0.00788437 -0.0539034 -0.269517 0.961486 1 
0.111374 0.243237 -0.00740558 -0.236737 -0.198859 0.951005 1 
0.111656 0.243143 -0.00744513 -0.118689 -0.218234 0.968652 1 
0.111598 0.242836 -0.00712468 -0.391367 -0.231867 0.890545 1 
0.111547 0.242655 -0.00705782 -0.346732 -0.304704 0.887092 1 
0.111912 0.242957 -0.00745125 -0.346732 -0.304704 0.887092 1 
0.112117 0.242591 -0.00739042 -0.716703 -0.378852 0.585499 1 
0.11188 0.242742 -0.00716424 -0.716703 -0.378852 0.585499 1 
0.111829 0.24256 -0.00709733 -0.716703 -0.378852 0.585499 1 
0.112111 0.242466 -0.0071369 -0.828458 -0.397597 0.394429 1 
0.110831 0.241681 -0.00755702 -0.346732 -0.304704 0.887092 1 
0.111947 0.241938 -0.00779624 -0.796267 -0.347666 0.495063 1 
0.111776 0.241697 -0.00768268 -0.827714 -0.348428 0.439871 1 
0.11175 0.241607 -0.00764924 -0.814838 -0.321188 0.482574 1 
0.111919 0.242466 -0.00698376 -0.816879 -0.179683 0.548109 1 
0.111751 0.242288 -0.00699697 -0.105918 0.549905 0.828484 1 
0.112033 0.242194 -0.00703654 0.0123663 0.575722 0.817552 1 
0.112322 0.242224 -0.0073296 0.0123663 0.575722 0.817552 1 
0.112312 0.242036 -0.00694929 0.0679132 0.726816 0.683467 1 
0.111911 0.241866 -0.00712283 0.0380608 0.62166 0.782362 1 
0.112193 0.241771 -0.00716238 -0.0489487 0.552421 0.832127 1 
0.111042 0.24144 -0.00774974 -0.346732 -0.304704 0.887092 1 
0.111229 0.241583 -0.00751643 -0.557043 -0.28725 0.779225 1 
0.111673 0.241335 -0.00754887 -0.840695 -0.539551 0.0460082 1 
0.111929 0.241149 -0.00755498 -0.831621 -0.484725 0.271012 1 
0.111485 0.241604 -0.00726286 0.0123663 0.575722 0.817552 1 
0.112629 0.24222 -0.00740261 0.0405077 0.562918 0.82552 1 
0.112853 0.240931 -0.00803366 -0.777766 -0.54779 0.308232 1 
0.112579 0.241833 -0.0075954 -0.78336 -0.603622 0.148284 1 
0.112604 0.24213 -0.00736916 -0.804617 -0.496736 0.325338 1 
0.112526 0.241858 -0.0072688 -0.815545 -0.517288 0.259421 1 
0.112761 0.241438 -0.00762789 -0.789304 -0.532026 0.30651 1 
0.112569 0.241645 -0.00721511 -0.790572 -0.592554 0.154514 1 
0.112449 0.241586 -0.00716846 -0.805792 -0.542866 0.236634 1 
0.112492 0.241373 -0.00711475 -0.795989 -0.565044 0.217088 1 
0.112215 0.240911 -0.00798096 -0.788934 -0.524362 0.320355 1 
0.112616 0.241082 -0.00780749 -0.808637 -0.53547 0.243677 1 
0.112398 0.241404 -0.00710158 -0.815884 -0.521732 0.249255 1 
0.114332 0.240129 -0.00847082 -0.709301 -0.648732 0.275751 1 
0.112702 0.240927 -0.00606714 -0.751067 -0.601806 0.271527 1 
0.113097 0.240973 -0.00564009 -0.726277 -0.634102 0.265401 1 
0.114497 0.240516 -0.00669789 -0.559893 -0.742716 0.367277 1 
0.114795 0.240324 -0.00639063 -0.32898 -0.870651 0.365704 1 
0.114811 0.240433 -0.00578411 -0.268872 -0.846564 0.459388 1 
0.117148 0.241513 -0.00763668 0.939626 -0.31592 -0.13152 1 
0.118033 0.243413 -0.00359878 -0.220141 -0.212038 0.952144 1 
0.118366 0.2435 -0.00370522 -0.123761 -0.0465521 0.99122 1 
0.117985 0.243295 -0.00365862 -0.278369 -0.304603 0.910894 1 
0.116261 0.24016 -0.00540878 -0.140722 -0.868993 0.474392 1 
0.116092 0.240395 -0.00490269 -0.137686 -0.868146 0.476828 1 
0.116919 0.239939 -0.00550108 -0.0682402 -0.921912 0.381342 1 
0.116276 0.240475 -0.00454257 -0.107883 -0.852996 0.510647 1 
0.117339 0.240075 -0.00510752 -0.00967742 -0.772811 0.634562 1 
0.117816 0.240043 -0.00542696 0.0555664 -0.785054 0.61693 1 
0.118285 0.240091 -0.00523321 0.101249 -0.770372 0.629504 1 
0.118236 0.239973 -0.00529306 0.0919745 -0.769374 0.632142 1 
0.118185 0.239791 -0.00522618 0.0826644 -0.764283 0.639561 1 
0.11755 0.24004 -0.00504059 0.0293227 -0.791712 0.610191 1 
0.118498 0.240119 -0.00529303 0.11403 -0.753781 0.647156 1 
0.118542 0.240588 -0.00458705 0.129444 -0.766251 0.629367 1 
0.118702 0.240165 -0.00471288 0.123123 -0.763955 0.633415 1 
0.118702 0.240165 -0.00471288 0.123123 -0.763955 0.633415 1 
0.118227 0.239785 -0.00491279 0.0858615 -0.766933 0.635957 1 
0.118541 0.239906 -0.00523931 0.111083 -0.733145 0.670939 1 
0.118557 0.239809 -0.00489245 0.113877 -0.746856 0.655163 1 
0.118557 0.239809 -0.00489245 0.113877 -0.746856 0.655163 1 
0.118812 0.23983 -0.0046389 0.142968 -0.744939 0.651633 1 
0.11676 0.240633 -0.00374234 -0.00690543 -0.766502 0.642205 1 
0.117113 0.240685 -0.00362873 0.0153054 -0.752747 0.658132 1 
0.117395 0.240591 -0.00366829 0.015365 -0.724949 0.688631 1 
0.119292 0.240748 -0.00417317 0.257596 -0.734859 0.627396 1 
0.11853 0.241019 -0.0034278 0.392527 -0.786669 0.476524 1 
0.118941 0.241377 -0.00363457 0.192658 -0.673534 0.713607 1 
0.119649 0.241544 -0.00353406 -0.0611465 -0.584447 0.809125 1 
0.11875 0.241172 -0.00374112 0.269408 -0.699823 0.661564 1 
0.118818 0.241049 -0.00372085 0.040684 -0.593426 0.80386 1 
0.119104 0.241017 -0.00388716 0.0466197 -0.611707 0.78971 1 
0.117735 0.240802 -0.00402825 0.00682554 -0.56379 0.82589 1 
0.117874 0.240621 -0.00411449 0.0648007 -0.709927 0.701287 1 
0.119173 0.240482 -0.00438625 0.169251 -0.742569 0.648032 1 
0.118557 0.240697 -0.00398053 0.240399 -0.746336 0.620637 1 
0.118914 0.240605 -0.00425337 0.178702 -0.749938 0.636913 1 
0.118384 0.239981 -0.00425959 0.113913 -0.761885 0.637617 1 
0.118061 0.24097 -0.00362149 -0.137946 -0.425216 0.894518 1 
0.118459 0.240872 -0.00358093 0.37683 -0.800162 0.466627 1 
0.118244 0.241257 -0.00300176 0.168917 -0.649796 0.741102 1 
0.119825 0.239452 -0.00637724 0.384944 -0.561855 0.732213 1 
0.120081 0.239267 -0.00638333 0.392412 -0.550033 0.737209 1 
0.119392 0.239066 -0.00626375 0.288984 -0.608304 0.739225 1 
0.120607 0.239147 -0.00690258 0.544006 -0.399376 0.737941 1 
0.120392 0.239326 -0.00658309 0.416094 -0.521351 0.745022 1 
0.120821 0.238968 -0.0072221 0.479679 -0.430565 0.76454 1 
0.120341 0.239144 -0.00651617 0.421249 -0.506482 0.752347 1 
0.121063 0.240243 -0.00627053 0.985511 0.164058 0.0430507 1 
0.120641 0.241204 -0.0039925 0.0891277 -0.696949 0.71156 1 
0.120758 0.2412 -0.00391234 0.11119 -0.701238 0.704203 1 
0.120355 0.240077 -0.00637099 0.867461 0.00938521 0.497416 1 
0.1202 0.239533 -0.00617027 0.389797 -0.567426 0.725318 1 
0.120037 0.239893 -0.00591771 0.0831237 -0.72478 0.683948 1 
0.120172 0.240267 -0.00509818 0.15271 -0.718192 0.678881 1 
0.119936 0.240212 -0.00513165 0.165933 -0.707879 0.686567 1 
0.120243 0.240208 -0.00520463 0.133247 -0.714146 0.687197 1 
0.11908 0.239213 -0.00580429 0.237496 -0.646429 0.72507 1 
0.119799 0.239568 -0.00608408 0.353151 -0.584245 0.730713 1 
0.119506 0.239888 -0.00514491 0.237816 -0.672499 0.700848 1 
0.119172 0.240007 -0.00477882 0.213053 -0.713805 0.667151 1 
0.119029 0.240126 -0.00456582 0.188714 -0.750252 0.633648 1 
0.118839 0.239714 -0.00493202 0.142915 -0.720592 0.67847 1 
0.119027 0.239651 -0.00495838 0.206322 -0.687223 0.696531 1 
0.119432 0.239678 -0.00517133 0.248196 -0.65922 0.709808 1 
0.121297 0.24003 -0.0063699 0.916423 0.332329 -0.222992 1 
0.120009 0.240627 -0.00484557 0.189274 -0.743247 0.641685 1 
0.11958 0.240985 -0.0042066 -0.0181677 -0.66382 0.747671 1 
0.120147 0.240858 -0.00441244 0.268892 -0.727122 0.631657 1 
0.119435 0.240629 -0.00438619 0.202637 -0.728566 0.654317 1 
0.120478 0.240676 -0.00465183 0.268306 -0.744588 0.611229 1 
0.120384 0.240707 -0.00463863 0.268306 -0.744588 0.611229 1 
0.119955 0.241065 -0.00399965 0.0470235 -0.668303 0.742401 1 
0.119316 0.240363 -0.00459921 0.185621 -0.73788 0.648905 1 
0.118223 0.243825 -0.00323258 -0.0256433 0.257654 0.965897 1 
0.113574 0.239162 -0.00928341 -0.588354 -0.734227 -0.338749 1 
0.113068 0.239248 -0.00854409 -0.755514 -0.626261 0.192341 1 
0.113084 0.239151 -0.00819725 -0.743465 -0.63836 0.199391 1 
0.113793 0.239111 -0.00835641 -0.658339 -0.737037 0.152856 1 
0.11346 0.239024 -0.00824998 -0.650991 -0.746769 0.136184 1 
0.113123 0.238875 -0.00801675 -0.746274 -0.650174 0.142648 1 
0.11307 0.239994 -0.0065186 -0.722984 -0.613 0.318631 1 
0.113927 0.239486 -0.00753689 -0.621776 -0.724602 0.297231 1 
0.113861 0.239195 -0.0080765 -0.607468 -0.752629 0.254032 1 
0.113834 0.239311 -0.00778337 -0.601942 -0.745642 0.285803 1 
0.114204 0.23906 -0.00758258 -0.377719 -0.870129 0.31655 1 
0.113858 0.239814 -0.00729747 -0.702312 -0.657721 0.272325 1 
0.113636 0.239393 -0.00711706 -0.641178 -0.717546 0.272063 1 
0.113781 0.239542 -0.00719714 -0.65554 -0.697213 0.290105 1 
0.113755 0.239658 -0.00690401 -0.631129 -0.717849 0.293885 1 
0.113797 0.239445 -0.00685032 -0.571421 -0.760294 0.308919 1 
0.114039 0.238944 -0.00772257 -0.419441 -0.852811 0.311098 1 
0.114059 0.238703 -0.00776216 -0.295884 -0.905318 0.304717 1 
0.114366 0.238906 -0.00757548 -0.175838 -0.924202 0.339015 1 
0.114289 0.238634 -0.00747514 -0.021497 -0.944602 0.327513 1 
0.113559 0.239121 -0.00701669 -0.608304 -0.739225 0.288984 1 
0.114069 0.239163 -0.00650953 -0.320148 -0.868534 0.378356 1 
0.113164 0.240169 -0.00627212 -0.715906 -0.612011 0.336038 1 
0.113111 0.240194 -0.00594555 -0.706984 -0.605283 0.365795 1 
0.112899 0.240848 -0.00523347 -0.721269 -0.658956 0.213421 1 
0.112921 0.240876 -0.00514017 -0.715705 -0.669331 0.199408 1 
0.113376 0.240609 -0.00581262 -0.67438 -0.654786 0.341272 1 
0.113699 0.240715 -0.00527908 -0.499506 -0.799529 0.333536 1 
0.113224 0.240334 -0.00547895 -0.586127 -0.749921 0.306713 1 
0.113409 0.240002 -0.00563827 -0.586775 -0.711691 0.386253 1 
0.113548 0.240027 -0.00546481 -0.437569 -0.79602 0.418193 1 
0.11369 0.24032 -0.00515847 -0.330684 -0.852325 0.405204 1 
0.113237 0.240175 -0.00500539 -0.384922 -0.837402 0.388064 1 
0.113967 0.240098 -0.00644447 -0.582306 -0.710974 0.394253 1 
0.113771 0.239561 -0.00655717 -0.56719 -0.742711 0.355916 1 
0.113932 0.239613 -0.00629042 -0.470303 -0.790304 0.392728 1 
0.114282 0.239603 -0.00605005 -0.297487 -0.852386 0.430046 1 
0.113891 0.240508 -0.00569184 -0.552388 -0.73925 0.385197 1 
0.114173 0.240413 -0.00573143 -0.421444 -0.796062 0.434362 1 
0.114267 0.240382 -0.00574459 -0.421444 -0.796062 0.434362 1 
0.114478 0.24014 -0.00593734 -0.301086 -0.853848 0.424608 1 
0.11417 0.240351 -0.00560465 -0.399987 -0.804794 0.43854 1 
0.113904 0.240348 -0.0052183 -0.3275 -0.85212 0.40821 1 
0.114451 0.240256 -0.00564422 -0.279886 -0.839657 0.465445 1 
0.113759 0.239992 -0.00539786 -0.351679 -0.827945 0.436839 1 
0.11416 0.240163 -0.00522438 -0.296177 -0.845114 0.445041 1 
0.114419 0.24004 -0.00535724 -0.282468 -0.844318 0.455345 1 
0.114786 0.240136 -0.00601034 -0.27999 -0.861389 0.42381 1 
0.114964 0.239885 -0.00565642 -0.269573 -0.84569 0.460585 1 
0.115202 0.24021 -0.00549002 -0.239849 -0.864362 0.441986 1 
0.114656 0.239889 -0.00558341 -0.286725 -0.838476 0.463409 1 
0.1151 0.239847 -0.00535622 -0.259549 -0.84622 0.465344 1 
0.114981 0.239582 -0.00556923 -0.259243 -0.848292 0.461729 1 
0.114139 0.239516 -0.00609671 -0.301086 -0.853848 0.424608 1 
0.114302 0.239156 -0.00634928 -0.283948 -0.873103 0.396313 1 
0.115706 0.239445 -0.00538161 -0.173878 -0.878157 0.445654 1 
0.116364 0.239224 -0.0054739 -0.123198 -0.890707 0.437565 1 
0.116286 0.238952 -0.00537354 -0.130078 -0.884818 0.447412 1 
0.117195 0.238625 -0.00645873 -0.0178796 -0.82659 0.562521 1 
0.113154 0.240869 -0.00497988 -0.549897 -0.784436 0.286834 1 
0.113077 0.240597 -0.00487953 -0.512143 -0.785072 0.348386 1 
0.113219 0.240685 -0.00483285 -0.448034 -0.838307 0.310657 1 
0.113552 0.240977 -0.00467968 -0.283928 -0.857924 0.428195 1 
0.113526 0.240887 -0.0046462 -0.283928 -0.857924 0.428195 1 
0.113834 0.240883 -0.00471921 -0.280721 -0.854436 0.437189 1 
0.113382 0.240531 -0.00482577 -0.382779 -0.836442 0.39223 1 
0.113708 0.240492 -0.00467871 -0.29181 -0.847639 0.443119 1 
0.114107 0.240394 -0.00463814 -0.280721 -0.854436 0.437189 1 
0.115144 0.24011 -0.00490992 -0.242815 -0.847563 0.471887 1 
0.115355 0.239868 -0.00510263 -0.23067 -0.863882 0.447771 1 
0.115422 0.239952 -0.0048227 -0.213053 -0.844659 0.491081 1 
0.115278 0.239596 -0.00500228 -0.227504 -0.863309 0.450488 1 
0.115717 0.240108 -0.00536932 -0.175397 -0.868143 0.464287 1 
0.116304 0.239947 -0.00535508 -0.125812 -0.894822 0.428327 1 
0.115619 0.240283 -0.0049697 -0.178496 -0.868876 0.461729 1 
0.115687 0.240368 -0.00468975 -0.169041 -0.891437 0.420435 1 
0.115594 0.240193 -0.00493623 -0.191797 -0.860857 0.471316 1 
0.115449 0.239837 -0.00511581 -0.228611 -0.855398 0.464792 1 
0.115892 0.239795 -0.00488861 -0.155369 -0.875585 0.457395 1 
0.115584 0.240005 -0.00455596 -0.202886 -0.852121 0.482418 1 
0.115465 0.23974 -0.00476898 -0.207182 -0.842337 0.497538 1 
0.11572 0.239761 -0.00451542 -0.171032 -0.875623 0.451699 1 
0.115986 0.239763 -0.00490178 -0.144443 -0.890972 0.43047 1 
0.116123 0.239519 -0.00486127 -0.1304 -0.881278 0.454252 1 
0.116841 0.239873 -0.00514108 -0.0782854 -0.838366 0.539458 1 
0.116313 0.239725 -0.00475472 -0.119808 -0.858863 0.497996 1 
0.115986 0.239969 -0.00464213 -0.146939 -0.865628 0.478641 1 
0.116407 0.239899 -0.00450826 -0.114171 -0.845444 0.521718 1 
0.116387 0.24014 -0.00446863 -0.114864 -0.836036 0.536517 1 
0.116054 0.239847 -0.00462186 -0.128834 -0.858412 0.496518 1 
0.116551 0.240255 -0.00432864 -0.0761184 -0.805706 0.587404 1 
0.116856 0.240189 -0.00427489 -0.0380978 -0.763367 0.644841 1 
0.116756 0.239889 -0.00426784 -0.0555394 -0.78752 0.613781 1 
0.116517 0.239564 -0.00443427 -0.0905214 -0.831935 0.547439 1 
0.116916 0.239466 -0.00439368 -0.0293373 -0.789313 0.613289 1 
0.117035 0.239732 -0.00418064 -0.00970514 -0.766706 0.641925 1 
0.118277 0.239285 -0.00563192 0.0985939 -0.722532 0.684271 1 
0.117754 0.239674 -0.00497977 0.0438826 -0.779978 0.624266 1 
0.11815 0.239513 -0.00481243 0.0766996 -0.768443 0.635304 1 
0.118762 0.239442 -0.00483166 0.127104 -0.710286 0.692342 1 
0.118547 0.239621 -0.00451218 0.120018 -0.760112 0.638612 1 
0.117273 0.240262 -0.00375454 0.0125263 -0.750185 0.661109 1 
0.118897 0.239611 -0.00427181 0.162753 -0.734668 0.658615 1 
0.11903 0.238826 -0.00599708 0.236594 -0.628305 0.741118 1 
0.119247 0.23871 -0.00644332 0.337637 -0.554112 0.760895 1 
0.118627 0.239274 -0.00539155 0.13677 -0.710904 0.689862 1 
0.118909 0.239179 -0.00543112 0.199458 -0.675682 0.709698 1 
0.113905 0.248348 -0.013731 -0.295041 -0.512772 0.806235 1 
0.11417 0.248556 -0.0138578 -0.295041 -0.512772 0.806235 1 
0.114263 0.248731 -0.0136113 -0.310547 -0.483948 0.818141 1 
0.11416 0.248369 -0.0134775 -0.266216 -0.505966 0.820443 1 
0.114587 0.24863 -0.0133374 -0.310547 -0.483948 0.818141 1 
0.11461 0.248452 -0.0135038 -0.384675 -0.471589 0.793492 1 
0.114559 0.24827 -0.0134369 -0.314526 -0.488385 0.813974 1 
0.115074 0.248169 -0.0133161 -0.486143 -0.482825 0.728385 1 
0.114808 0.246594 -0.015994 -0.171243 -0.873776 0.455183 1 
0.115577 0.246038 -0.0160123 -0.293882 -0.881645 0.369236 1 
0.115329 0.24532 -0.016058 -0.293517 -0.936194 0.19336 1 
0.113568 0.246422 -0.0153217 0.0887826 -0.638944 0.764113 1 
0.11349 0.24615 -0.0152213 -0.0708377 -0.926236 0.370227 1 
0.113703 0.246591 -0.0147618 -0.633299 -0.538726 0.555614 1 
0.113755 0.246566 -0.0150883 -0.258029 -0.647448 0.7171 1 
0.113678 0.246294 -0.014988 -0.199752 -0.661194 0.723133 1 
0.113797 0.246559 -0.014775 -0.633299 -0.538726 0.555614 1 
0.113862 0.246168 -0.0148876 -0.199752 -0.661194 0.723133 1 
0.114215 0.24622 -0.014774 -0.30466 -0.630276 0.714097 1 
0.114127 0.246583 -0.0147547 -0.296327 -0.613477 0.732008 1 
0.115359 0.246155 -0.015566 -0.301271 -0.806019 0.50948 1 
0.114736 0.24645 -0.0146471 -0.303458 -0.611732 0.730546 1 
0.115204 0.246705 -0.0141937 -0.405868 -0.631166 0.660985 1 
0.115274 0.24617 -0.0146928 -0.388365 -0.67592 0.626342 1 
0.115494 0.246323 -0.0150061 -0.361977 -0.712488 0.601111 1 
0.11676 0.246175 -0.0147312 -0.436799 -0.811198 0.388799 1 
0.116335 0.245295 -0.0156502 -0.366859 -0.875286 0.315103 1 
0.116579 0.245747 -0.0142374 -0.485535 -0.796406 0.360546 1 
0.116982 0.245299 -0.0148429 -0.480024 -0.77292 0.414936 1 
0.116502 0.245475 -0.014137 -0.491229 -0.787576 0.372045 1 
0.114229 0.248246 -0.0134572 -0.314526 -0.488385 0.813974 1 
0.114741 0.247876 -0.0134694 -0.429489 -0.47848 0.765895 1 
0.115048 0.248078 -0.0132827 -0.486143 -0.482825 0.728385 1 
0.115045 0.247809 -0.0134156 -0.464966 -0.458394 0.757418 1 
0.115211 0.247718 -0.0135353 -0.427944 -0.543604 0.722052 1 
0.115652 0.247201 -0.0137007 -0.471103 -0.63205 0.615284 1 
0.116695 0.245743 -0.0141572 -0.491229 -0.787576 0.372045 1 
0.117404 0.24591 -0.0140568 -0.453332 -0.849805 0.268926 1 
0.117356 0.245792 -0.0141166 -0.454955 -0.850169 0.265008 1 
0.117654 0.2456 -0.0138093 -0.434829 -0.868154 0.239231 1 
