0.0525758 0.230186 0.0448516 -0.480228 -0.857869 0.182873 1 
0.052662 0.229927 0.0450402 -0.334638 -0.872502 0.35603 1 
0.0528007 0.22982 0.0444578 -0.475318 -0.87719 0.0679025 1 
0.0520761 0.231141 0.0399203 -0.203181 -0.969904 0.134176 1 
0.0521054 0.231058 0.0396336 -0.477605 -0.658593 0.581506 1 
0.0517959 0.230985 0.0397278 -0.154567 -0.939715 0.305031 1 
0.0518351 0.230964 0.039947 -0.150676 -0.973693 0.170934 1 
0.0515549 0.230808 0.0397545 0.0898936 -0.976516 0.195796 1 
0.0539069 0.230971 0.0463289 -0.150568 -0.91326 0.378531 1 
0.0537834 0.230642 0.0464116 -0.184599 -0.893923 0.408443 1 
0.0539499 0.230442 0.0465912 -0.0966403 -0.886569 0.452388 1 
0.0540376 0.230193 0.045731 -0.10311 -0.914246 0.39182 1 
0.0535424 0.230466 0.0464383 -0.210662 -0.888315 0.408065 1 
0.0538577 0.230221 0.0465415 -0.090523 -0.892696 0.441474 1 
0.0535914 0.230418 0.0465619 -0.231478 -0.854803 0.464468 1 
0.0537302 0.23031 0.0459795 -0.25984 -0.864615 0.430028 1 
0.0534088 0.230075 0.0460151 -0.279995 -0.858345 0.429938 1 
0.0537594 0.230227 0.0456927 -0.276444 -0.859877 0.429175 1 
0.0537691 0.230199 0.0455971 -0.276444 -0.859877 0.429175 1 
0.0539061 0.229992 0.045462 -0.251802 -0.873015 0.41766 1 
0.0537082 0.230085 0.0454149 -0.314819 -0.864601 0.391604 1 
0.0532618 0.230219 0.0456443 -0.348137 -0.858739 0.375988 1 
0.0530424 0.230177 0.0456341 -0.336078 -0.856457 0.391833 1 
0.053614 0.229673 0.0452109 -0.467767 -0.759916 0.451354 1 
0.0537 0.230122 0.0444617 -0.254765 -0.957018 0.138603 1 
0.0537667 0.229918 0.0448414 -0.563958 -0.700373 0.437525 1 
0.0533203 0.230053 0.0450708 -0.403044 -0.848104 0.34391 1 
0.0532907 0.230045 0.044756 -0.403474 -0.84901 0.341162 1 
0.0528111 0.229973 0.0455652 -0.299735 -0.840189 0.451931 1 
0.05305 0.229959 0.0453843 -0.387153 -0.850492 0.356056 1 
0.0529186 0.229758 0.0451153 -0.379428 -0.808487 0.449871 1 
0.0530594 0.229841 0.0446872 -0.463374 -0.810506 0.358279 1 
0.0515693 0.237453 0.0445239 -0.938416 -0.177762 0.296269 1 
0.0544356 0.236046 0.0464795 0.78833 0.614082 0.037941 1 
0.0541498 0.236298 0.0466911 0.738047 0.62789 0.247065 1 
0.0542673 0.236146 0.0467472 0.778622 0.622027 0.082647 1 
0.0541262 0.235973 0.0465738 0.778622 0.622027 0.082647 1 
0.0515752 0.237135 0.0447212 -0.842064 -0.017742 0.539085 1 
0.0514398 0.236644 0.0447453 0.177317 -0.261238 0.948848 1 
0.0497034 0.232263 0.0461533 -0.112482 -0.948822 -0.295101 1 
0.0508639 0.238274 0.0435862 -0.942476 -0.205606 0.263562 1 
0.0512362 0.237853 0.0441646 -0.938416 -0.177762 0.296269 1 
0.0513538 0.237701 0.0442206 -0.938416 -0.177762 0.296269 1 
0.0516472 0.237231 0.0437592 -0.911639 0.0117378 0.410824 1 
0.0509091 0.237935 0.0440028 -0.938416 -0.177762 0.296269 1 
0.0508287 0.237876 0.0440117 -0.710585 0.0469926 0.702041 1 
0.0509462 0.237725 0.0440677 -0.710585 0.0469926 0.702041 1 
0.0505877 0.2377 0.0440384 -0.657486 0.05277 0.751616 1 
0.0507052 0.237548 0.0440944 -0.657486 0.05277 0.751616 1 
0.0505446 0.23743 0.0441122 -0.622525 0.0643992 0.779945 1 
0.0512518 0.237508 0.0442664 -0.842064 -0.017742 0.539085 1 
0.0510108 0.237331 0.0442931 -0.64697 0.0266647 0.762049 1 
0.0511712 0.237358 0.0436738 -0.809125 -0.0611465 0.584447 1 
0.051289 0.237297 0.0443313 -0.662175 0.0237991 0.748971 1 
0.0511871 0.237103 0.0443772 -0.468717 -0.0677497 0.880746 1 
0.0505936 0.237382 0.0442358 -0.622525 0.0643992 0.779945 1 
0.0507403 0.237147 0.0440051 -0.636526 -0.00137479 0.771254 1 
0.0507991 0.237071 0.0440331 -0.676454 -0.0324811 0.735768 1 
0.051048 0.23712 0.044358 -0.509456 -0.0715765 0.857515 1 
0.0509166 0.236919 0.0440891 -0.675109 -0.0295977 0.737124 1 
0.051457 0.237106 0.0434622 -0.710479 -0.169598 0.682976 1 
0.051216 0.236929 0.0434889 -0.499731 -0.241408 0.83186 1 
0.0510338 0.236677 0.0435436 -0.510013 -0.194076 0.837986 1 
0.0509048 0.236757 0.0440304 -0.489862 -0.244163 0.836911 1 
0.0509096 0.236167 0.0424234 -0.392182 -0.205568 0.896624 1 
0.051234 0.236865 0.0443465 -0.836146 0.0723997 0.543708 1 
0.0513119 0.236643 0.0435819 -0.509977 -0.231251 0.828521 1 
0.0508814 0.236522 0.0445146 -0.629102 0.0237134 0.776961 1 
0.0511888 0.236405 0.0442661 -0.524511 -0.208284 0.825534 1 
0.0513456 0.236233 0.0445413 -0.939198 0.295648 -0.174639 1 
0.0508546 0.235735 0.0424385 -0.345438 -0.221138 0.912014 1 
0.0512739 0.235076 0.0429863 -0.189091 -0.351169 0.91702 1 
0.0488391 0.236875 0.0419023 -0.687593 0.0738257 0.722334 1 
0.0486315 0.236996 0.0419508 -0.666285 0.139875 0.732462 1 
0.048896 0.2367 0.0423776 -0.435968 0.239858 0.86741 1 
0.0489548 0.236624 0.0424056 -0.501804 0.0924001 0.860032 1 
0.0486607 0.236913 0.041664 -0.668182 0.185862 0.720408 1 
0.0487354 0.236582 0.0423954 -0.670821 -0.0267203 0.741138 1 
0.0483866 0.236529 0.0422705 -0.718006 -0.0266969 0.695525 1 
0.0496171 0.236332 0.0430809 -0.604782 -0.0350802 0.795618 1 
0.049864 0.236191 0.0432516 -0.660894 0.0469021 0.749013 1 
0.050099 0.235887 0.0433637 -0.473868 -0.27012 0.838144 1 
0.0496915 0.23591 0.0432108 -0.516708 -0.239074 0.822105 1 
0.0495524 0.235927 0.0431917 -0.578669 -0.10349 0.80897 1 
0.0496306 0.235796 0.0430285 -0.535323 -0.175442 0.826226 1 
0.0497481 0.235644 0.0430845 -0.505909 -0.203874 0.838148 1 
0.0492193 0.236327 0.0428324 -0.534235 -0.00676247 0.845309 1 
0.0491624 0.236503 0.0423572 -0.4243 0.134811 0.89543 1 
0.0492291 0.2363 0.0427368 -0.452509 0.0938641 0.886806 1 
0.0489116 0.236354 0.0424794 -0.4243 0.134811 0.89543 1 
0.0492447 0.235954 0.0428386 -0.450765 0.108805 0.885987 1 
0.0488351 0.235787 0.0425315 -0.613681 -0.0732968 0.786144 1 
0.0494797 0.235651 0.0429507 -0.343 0.0754865 0.936297 1 
0.0493406 0.235668 0.0429316 -0.39111 0.111943 0.913511 1 
0.0495363 0.235384 0.0428245 -0.216084 0.1637 0.962554 1 
0.0496049 0.235281 0.0427569 -0.227187 0.119369 0.966508 1 
0.0495812 0.234956 0.0426396 -0.481712 -0.353682 0.801787 1 
0.0490016 0.235587 0.0427111 -0.420372 0.141074 0.896318 1 
0.0491876 0.235332 0.0426995 -0.40402 0.146014 0.903021 1 
0.0503577 0.235908 0.0435931 -0.509042 -0.227769 0.830059 1 
0.0503712 0.235373 0.0435407 -0.433668 -0.315536 0.84402 1 
0.0504532 0.234733 0.0434207 -0.305077 -0.43516 0.847091 1 
0.0501654 0.235593 0.0431419 -0.461957 -0.245462 0.852258 1 
0.0499341 0.235389 0.043073 -0.451885 -0.237277 0.859942 1 
0.0500124 0.235257 0.0429098 -0.366023 -0.140564 0.919929 1 
0.0509605 0.234713 0.0433736 -0.251455 -0.414073 0.874822 1 
0.0512286 0.234616 0.0429058 0.00771887 -0.131221 0.991323 1 
0.0512384 0.234589 0.0428102 0.00771887 -0.131221 0.991323 1 
0.049979 0.23496 0.0428881 -0.39219 -0.30368 0.868312 1 
0.0499181 0.234846 0.0427058 -0.415099 -0.396014 0.819064 1 
0.0496868 0.234641 0.0426369 -0.376983 -0.40853 0.831256 1 
0.0502219 0.234529 0.0433518 -0.167995 -0.152838 0.973868 1 
0.0497521 0.232125 0.0456754 -0.126384 -0.960258 -0.248859 1 
0.0496937 0.233444 0.0415202 -0.610116 -0.442961 0.65692 1 
0.04987 0.233216 0.0416043 -0.473998 -0.520567 0.710166 1 
0.0501266 0.233048 0.0416794 -0.466655 -0.580392 0.667367 1 
0.049533 0.233326 0.041538 -0.619945 -0.439476 0.650023 1 
0.0497094 0.233099 0.0416221 -0.522828 -0.496102 0.693206 1 
0.0497973 0.23294 0.0413633 -0.455598 -0.772394 0.442535 1 
0.0493898 0.232963 0.0412104 -0.648123 -0.347733 0.677509 1 
0.0495268 0.232756 0.0410753 -0.596135 -0.372789 0.711092 1 
0.0498637 0.232646 0.0411415 -0.441761 -0.723031 0.531105 1 
0.0489722 0.232924 0.0405516 -0.746086 -0.067826 0.662386 1 
0.049031 0.232848 0.0405796 -0.737068 -0.0890319 0.669929 1 
0.0491387 0.232724 0.0407312 -0.648123 -0.347733 0.677509 1 
0.0495855 0.23268 0.0411033 -0.463741 -0.674684 0.574235 1 
0.049652 0.232386 0.0408815 -0.421671 -0.712706 0.560574 1 
0.0489857 0.232388 0.0404992 -0.532669 -0.660375 0.529309 1 
0.0501342 0.23283 0.0414296 -0.527732 -0.789207 0.314088 1 
0.050438 0.232513 0.0420756 -0.402174 0.0438011 0.914515 1 
0.0501675 0.232329 0.0417875 0.104671 0.656035 0.747437 1 
0.0501008 0.232532 0.0414078 -0.565546 -0.810268 0.153697 1 
0.0498285 0.232249 0.041567 0.0207337 0.576396 0.816907 1 
0.0506867 0.230523 0.0390166 0.655331 -0.652029 -0.381313 1 
0.0503653 0.230287 0.0390522 0.642394 -0.185512 -0.743583 1 
0.0503945 0.230204 0.0387654 0.61299 -0.0495489 -0.788535 1 
0.0553852 0.235511 0.0458945 0.723615 0.685911 -0.0768569 1 
0.0552635 0.235283 0.0455299 0.697692 0.697692 -0.162643 1 
0.0555186 0.235105 0.0466539 0.774524 0.626303 0.0886415 1 
0.0547002 0.23575 0.0469063 0.77995 0.623105 0.0584606 1 
0.0546198 0.235691 0.0469152 0.78833 0.614082 0.037941 1 
0.0544728 0.235835 0.0465445 0.77995 0.623105 0.0584606 1 
0.0546901 0.235687 0.0464004 0.77995 0.623105 0.0584606 1 
0.0546393 0.235635 0.0467241 0.77995 0.623105 0.0584606 1 
0.0542026 0.235742 0.0468579 0.778622 0.622027 0.082647 1 
0.0545746 0.235231 0.0468348 0.77995 0.623105 0.0584606 1 
0.0549248 0.235293 0.045911 0.723615 0.685911 -0.0768569 1 
0.0545663 0.235268 0.0458816 0.727309 0.68048 -0.0892673 1 
0.0553796 0.235122 0.0466347 0.774524 0.626303 0.0886415 1 
0.0550211 0.235097 0.0466054 0.774524 0.626303 0.0886415 1 
0.0551973 0.234869 0.0466895 0.774524 0.626303 0.0886415 1 
0.0553246 0.234689 0.0466499 0.80428 0.587687 0.0880809 1 
0.0548409 0.235034 0.0468144 0.77995 0.623105 0.0584606 1 
0.0549584 0.234883 0.0468704 0.773436 0.628868 0.0795121 1 
0.0552265 0.234786 0.0464027 0.81355 0.572821 0.100062 1 
0.0554126 0.23453 0.0463912 0.806665 0.591008 -0.00136491 1 
0.0510743 0.23126 0.0462703 -0.43916 -0.896105 0.0643007 1 
0.051533 0.231379 0.046701 -0.475196 -0.876535 0.0766446 1 
0.051621 0.23122 0.0464423 -0.477853 -0.871546 0.109835 1 
0.0515406 0.231161 0.0464512 -0.496045 -0.862003 0.104355 1 
0.0517778 0.231047 0.0467175 -0.457982 -0.870313 0.181131 1 
0.0557315 0.234485 0.0455998 0.785791 0.610195 -0.100968 1 
0.0553142 0.234536 0.0455424 0.769543 0.6272 -0.120102 1 
0.0549773 0.234646 0.0454762 0.738157 0.659982 -0.139814 1 
0.0563343 0.23329 0.0453803 0.815619 0.567577 -0.112348 1 
0.0561757 0.233362 0.0455523 0.809017 0.581165 -0.087968 1 
0.0564813 0.233145 0.045751 0.860374 0.505032 -0.0685501 1 
0.0562344 0.233286 0.0455803 0.817921 0.572967 -0.0520879 1 
0.056401 0.233086 0.0457599 0.860374 0.505032 -0.0685501 1 
0.0562244 0.233224 0.0450744 0.795444 0.576431 -0.187074 1 
0.0563927 0.233124 0.0448067 0.817009 0.527748 -0.232332 1 
0.0565689 0.232896 0.0448908 0.870525 0.447911 -0.203867 1 
0.0565689 0.232896 0.0448908 0.870525 0.447911 -0.203867 1 
0.055851 0.230626 0.0402451 0.0465411 0.285536 0.957237 1 
0.0557511 0.230622 0.0404452 0.108085 0.368035 0.923508 1 
0.0553202 0.230411 0.0407765 0.247869 0.639407 0.727819 1 
0.0566284 0.233001 0.0461218 0.868335 0.478234 -0.131478 1 
0.0566065 0.232776 0.0455572 0.883081 0.445142 -0.148381 1 
0.0566162 0.232748 0.0454617 0.883081 0.445142 -0.148381 1 
0.0566354 0.232602 0.044669 0.883854 0.426536 -0.192015 1 
0.0568923 0.232523 0.0453456 0.884818 0.447412 -0.130078 1 
0.0569312 0.232413 0.0449633 0.884451 0.444383 -0.142375 1 
0.0563944 0.232425 0.0446957 0.880819 0.433792 -0.189692 1 
0.0565999 0.232114 0.044493 0.839545 0.518586 -0.161965 1 
0.056739 0.230947 0.0413934 0.315852 0.691635 0.649522 1 
0.0565783 0.230829 0.0414113 0.30143 0.697963 0.649606 1 
0.0566076 0.230746 0.0411245 0.30143 0.649606 0.697963 1 
0.0564841 0.230417 0.0412072 0.210081 0.714275 0.66759 1 
0.0566368 0.230662 0.0408378 0.278182 0.605642 0.745528 1 
0.0568127 0.230344 0.0403203 -0.00131147 0.895734 0.444588 1 
0.0562567 0.230503 0.0408453 0.222664 0.608822 0.761417 1 
0.0565269 0.230596 0.0405319 0.205328 0.603634 0.770367 1 
0.0563662 0.230478 0.0405497 0.204391 0.507192 0.837246 1 
0.0561879 0.230516 0.0403114 0.148478 0.38887 0.909249 1 
0.0564445 0.230347 0.0403865 0.144647 0.577099 0.803763 1 
0.056782 0.230418 0.0416558 -0.880112 0.45374 -0.139723 1 
0.0564235 0.230393 0.0416265 -0.820889 0.570023 -0.0348425 1 
0.0565136 0.230424 0.041522 0.060711 0.8316 0.552047 1 
0.0565623 0.230286 0.0410441 0.070278 0.7874 0.612423 1 
0.0547742 0.229834 0.0421436 0.315972 0.66273 0.678934 1 
0.0551622 0.229867 0.0424877 -0.149484 0.744401 0.650785 1 
0.0549508 0.229697 0.0428292 -0.929109 0.081783 -0.36065 1 
0.0555502 0.229899 0.0428318 -0.0946815 0.790955 0.604505 1 
0.0556383 0.22974 0.0425731 -0.0526323 0.783795 0.618785 1 
0.0556675 0.229656 0.0422863 -0.154971 0.786892 0.597315 1 
0.055319 0.229694 0.0427629 -0.23601 0.758047 0.608 1 
0.0553775 0.229528 0.0421894 -0.242609 0.774783 0.583826 1 
0.0560376 0.230551 0.0414366 0.359187 0.687211 0.631447 1 
0.0559396 0.230648 0.0411894 0.333459 0.623 0.707585 1 
0.0555556 0.230198 0.04149 0.315892 0.688482 0.652843 1 
0.0555851 0.230205 0.0418048 0.226597 0.726673 0.648536 1 
0.0559392 0.230557 0.0405879 0.172462 0.476112 0.862308 1 
0.056096 0.230385 0.0408631 0.178353 0.620425 0.763717 1 
0.0557375 0.23036 0.0408338 0.268563 0.643598 0.716698 1 
0.0560272 0.230398 0.0403292 0.0773382 0.400259 0.913133 1 
0.0561545 0.230219 0.0402896 0.0839959 0.533872 0.841383 1 
0.0559274 0.230395 0.0405293 0.116548 0.493532 0.861883 1 
0.0559274 0.230395 0.0405293 0.116548 0.493532 0.861883 1 
0.0562723 0.230157 0.0409472 0.117248 0.749497 0.651543 1 
0.0556767 0.230246 0.0406515 0.160623 0.577943 0.800114 1 
0.0553772 0.230235 0.0412517 0.315627 0.704091 0.63611 1 
0.0552166 0.230118 0.0412696 0.268563 0.716698 0.643598 1 
0.0555045 0.230056 0.0412122 0.297711 0.706461 0.642091 1 
0.0552166 0.230118 0.0412696 0.268563 0.716698 0.643598 1 
0.055293 0.229887 0.0415536 0.195806 0.732346 0.652173 1 
0.0555496 0.229718 0.0416288 -0.899651 0.401604 -0.171294 1 
0.0553734 0.229945 0.0415448 0.195806 0.732346 0.652173 1 
0.0555496 0.229718 0.0416288 -0.899651 0.401604 -0.171294 1 
0.0552207 0.2297 0.0419142 -0.0526801 0.778811 0.625042 1 
0.0553086 0.229541 0.0416555 -0.112774 0.809925 0.575589 1 
0.0553769 0.230145 0.0406502 0.226015 0.621931 0.749746 1 
0.0551359 0.229968 0.040677 0.205575 0.629092 0.749655 1 
0.0554221 0.229807 0.0410668 0.204841 0.771618 0.602201 1 
0.0552103 0.229547 0.0408068 0.150781 0.810637 0.565803 1 
0.0554401 0.229742 0.0419244 -0.103348 0.813681 0.572051 1 
0.0556967 0.229573 0.0419996 0.0408373 0.787175 0.615376 1 
0.0557259 0.22949 0.0417128 0.0462287 0.827914 0.558947 1 
0.0554557 0.229396 0.0420263 -0.0885421 0.791073 0.60528 1 
0.0553281 0.229486 0.0414643 -0.0875307 0.825085 0.558188 1 
0.0555732 0.229245 0.0420823 -0.0764624 0.786264 0.613142 1 
0.057456 0.228692 0.0430621 -0.097713 0.280111 0.954982 1 
0.0570544 0.228398 0.0431066 -0.097713 0.280111 0.954982 1 
0.0511934 0.231916 0.0449414 -0.396395 -0.918036 -0.00903832 1 
0.0511798 0.231653 0.0453299 -0.423747 -0.901326 0.0897185 1 
0.0510563 0.231325 0.0454127 -0.388172 -0.918357 0.0770933 1 
0.0512173 0.231533 0.0459964 -0.440077 -0.895234 0.0699187 1 
0.0513366 0.231481 0.0456052 -0.461371 -0.878461 0.12427 1 
0.0514325 0.231194 0.0456981 -0.489965 -0.863546 0.119258 1 
0.0512326 0.231097 0.0454967 -0.447222 -0.881418 0.151969 1 
0.0511795 0.231563 0.0447284 -0.415336 -0.908962 -0.0358277 1 
0.0504924 0.231611 0.0455861 -0.274484 -0.957472 0.0889173 1 
0.0507626 0.231704 0.0452726 -0.3245 -0.941714 0.0887409 1 
0.0505236 0.231718 0.0454536 -0.280113 -0.953437 0.111782 1 
0.0500303 0.232091 0.0457137 -0.182153 -0.97191 -0.149035 1 
0.0499969 0.231793 0.0456919 -0.187739 -0.957334 -0.219694 1 
0.049799 0.231886 0.0456448 -0.176321 -0.958496 -0.224047 1 
0.0498185 0.231831 0.0454536 -0.156189 -0.987696 0.00786561 1 
0.0500848 0.231634 0.0454331 -0.221281 -0.971387 0.0862622 1 
0.0502357 0.23178 0.0455109 -0.230735 -0.97247 0.032617 1 
0.0507918 0.231621 0.0449859 -0.322947 -0.946043 0.0265956 1 
0.0507705 0.231577 0.0456243 -0.310946 -0.935602 0.16722 1 
0.0508804 0.231643 0.0459302 -0.357849 -0.917961 0.171145 1 
0.0509273 0.231404 0.0458995 -0.361248 -0.916579 0.171416 1 
0.0507197 0.231525 0.045948 -0.297024 -0.949158 0.104289 1 
0.0509502 0.23075 0.04515 -0.443065 -0.893031 0.078675 1 
0.0514836 0.231336 0.045976 -0.486566 -0.865484 0.11913 1 
0.0516502 0.231136 0.0461556 -0.481826 -0.867287 0.125131 1 
0.0518264 0.230909 0.0462396 -0.448799 -0.869268 0.207252 1 
0.0517774 0.230957 0.046116 -0.47033 -0.865466 0.172504 1 
0.0514676 0.230793 0.0456088 -0.52749 -0.841368 0.117704 1 
0.052501 0.229719 0.0444565 -0.529077 -0.815982 0.232917 1 
0.0528299 0.229736 0.044171 -0.542351 -0.839188 0.0402256 1 
0.0525594 0.229552 0.043883 -0.0970177 -0.978774 0.180527 1 
0.0532799 0.231307 0.0417733 -0.076217 -0.995239 0.0607526 1 
0.0533581 0.231176 0.0416101 0.00382371 -0.926612 0.375998 1 
0.0529166 0.231519 0.0398962 -0.0343995 -0.978608 0.202839 1 
0.0524935 0.23109 0.0399776 -0.317226 -0.739121 0.594195 1 
0.0525014 0.230963 0.0403293 -0.0817311 -0.991134 0.104754 1 
0.0533386 0.231232 0.0418013 0.00856233 -0.957757 0.28745 1 
0.0534854 0.230997 0.0415705 0.0544496 -0.850251 0.523554 1 
0.0530368 0.230941 0.0416457 0.252147 -0.421251 0.871189 1 
0.053213 0.230713 0.0417297 0.120018 -0.760112 0.638612 1 
0.0543416 0.230322 0.042586 0.375467 0.713223 0.591893 1 
0.053307 0.231034 0.0413322 0.0892543 -0.730129 0.677455 1 
0.0532715 0.230546 0.0411562 0.116425 -0.6116 0.782554 1 
0.0530229 0.230588 0.0414328 0.135575 -0.600403 0.788122 1 
0.0529718 0.230446 0.0411549 -0.189665 -0.958934 -0.210886 1 
0.0528406 0.230335 0.0414875 0.230699 -0.562039 0.794286 1 
0.0513362 0.229442 0.0422212 -0.967647 0.250148 0.0329464 1 
0.0514321 0.229155 0.0423141 -0.974011 0.205251 0.095784 1 
0.0520257 0.228876 0.0424555 -0.902119 0.214235 0.374547 1 
0.0544761 0.230186 0.0451499 -0.026862 -0.937611 0.346647 1 
0.054096 0.230026 0.0451575 -0.256989 -0.879173 0.401263 1 
0.0545351 0.230201 0.0457794 0.0217739 -0.933717 0.357349 1 
0.053941 0.230299 0.044435 -0.226067 -0.964982 0.133056 1 
0.0539645 0.229825 0.0448885 -0.586951 -0.647496 0.486042 1 
0.0538568 0.22995 0.0447369 -0.626373 -0.623014 0.46852 1 
0.0535647 0.229631 0.0444857 -0.585187 -0.782822 0.211532 1 
0.0535351 0.229624 0.044171 -0.787161 -0.585403 -0.194115 1 
0.0530166 0.229662 0.0453625 -0.355744 -0.787144 0.503836 1 
0.0530458 0.229579 0.0450757 -0.432784 -0.742151 0.511771 1 
0.052977 0.229592 0.0445418 -0.457563 -0.64528 0.611759 1 
0.0532808 0.229275 0.0451878 -0.49 -0.628075 0.604501 1 
0.0532492 0.229077 0.0447188 -0.126624 -0.439626 0.889211 1 
0.0528049 0.229402 0.0451025 -0.373164 -0.260174 0.890538 1 
0.0528341 0.229319 0.0448157 -0.337203 0.00626772 0.941411 1 
0.0525047 0.229211 0.0444997 -0.270701 0.00849733 0.962626 1 
0.052922 0.22916 0.0445569 -0.168777 -0.411124 0.895819 1 
0.0529259 0.22945 0.044264 -0.66724 -0.59366 0.449843 1 
0.0538228 0.227966 0.044786 -0.920746 -0.282975 -0.268611 1 
0.0545122 0.2274 0.0450203 -0.924178 0.375823 0.0682099 1 
0.0542125 0.227299 0.045019 -0.223927 0.674913 0.7031 1 
0.0531954 0.227058 0.0443575 0.30466 0.630276 0.714097 1 
0.0541102 0.227015 0.0444633 -0.824559 0.531046 0.195171 1 
0.0542865 0.226787 0.0445473 -0.800536 0.548717 0.240938 1 
0.0534913 0.226869 0.0446518 0.715571 0.31175 0.625115 1 
0.054504 0.229741 0.0424571 0.297311 0.660513 0.689441 1 
0.0543375 0.229941 0.0422775 0.323139 0.683626 0.654398 1 
0.0547234 0.229783 0.0424673 0.30447 0.65888 0.687877 1 
0.0545627 0.229665 0.0424851 0.336891 0.652625 0.678665 1 
0.0549289 0.229472 0.0422646 -0.230128 0.743609 0.627763 1 
0.0541747 0.229633 0.042141 0.355643 0.683424 0.637534 1 
0.0542119 0.229422 0.0422059 0.348429 0.682135 0.642876 1 
0.0544629 0.229662 0.0426852 0.354642 0.694575 0.625935 1 
0.0548704 0.229638 0.0428381 -0.735422 0.652514 0.182704 1 
0.0550467 0.22941 0.0429221 -0.88364 -0.0478012 -0.465721 1 
0.0547098 0.22952 0.0428559 -0.614329 0.729816 0.299947 1 
0.054886 0.229293 0.0429399 -0.613215 0.685941 0.39173 1 
0.0550327 0.229058 0.0427092 -0.490066 0.684085 0.540243 1 
0.0545157 0.229105 0.0428519 -0.936992 0.175255 -0.302211 1 
0.0544274 0.229174 0.0425092 -0.123896 0.691132 0.71203 1 
0.0547625 0.228964 0.0430226 -0.844105 0.00135057 -0.536176 1 
0.054692 0.228878 0.042936 -0.897454 0.440033 0.0307622 1 
0.0547702 0.228746 0.0427728 -0.481911 0.663257 0.572584 1 
0.0541335 0.228755 0.0427053 -0.867404 0.483166 0.118999 1 
0.054353 0.228797 0.0427155 -0.902835 0.0753505 -0.423333 1 
0.0546095 0.228628 0.0427906 -0.384942 0.659193 0.645976 1 
0.0544057 0.228241 0.0428822 -0.805847 0.480317 0.346275 1 
0.0540396 0.228434 0.0431028 0.272521 0.418677 0.866281 1 
0.0542392 0.228441 0.0427026 -0.918904 0.128896 -0.372828 1 
0.0541373 0.228247 0.0427485 -0.921907 0.352205 0.161369 1 
0.055212 0.228849 0.0406957 -0.788769 0.611902 -0.0584801 1 
0.0552512 0.228828 0.0409149 -0.914122 0.214495 -0.344055 1 
0.0546407 0.227937 0.0429943 -0.601885 0.520959 0.605257 1 
0.0544742 0.228137 0.0428147 -0.956523 0.215385 -0.196656 1 
0.053616 0.227915 0.0425826 -0.48497 0.481659 0.729937 1 
0.0540044 0.228037 0.0435283 -0.871951 -0.127848 -0.472606 1 
0.0542099 0.227726 0.0433256 0.00136155 0.578659 0.815569 1 
0.0542787 0.227713 0.0438595 -0.893327 -0.0961616 -0.438998 1 
0.0541984 0.227654 0.0438684 -0.84915 -0.190198 -0.492717 1 
0.0544686 0.227748 0.043555 -0.122799 0.613995 0.779699 1 
0.0542982 0.227658 0.0436683 -0.928436 -0.0166939 -0.371118 1 
0.0542179 0.227599 0.0436772 -0.920562 -0.0683386 -0.384572 1 
0.0542179 0.227599 0.0436772 -0.920562 -0.0683386 -0.384572 1 
0.0539104 0.227716 0.0439258 -0.861852 -0.182457 -0.473203 1 
0.0540085 0.22762 0.0441729 -0.909861 -0.151408 -0.386302 1 
0.0540572 0.227481 0.043695 -0.326239 0.709286 0.624886 1 
0.0539768 0.227422 0.0437039 -0.374923 -0.56484 -0.735111 1 
0.0541942 0.228072 0.0432237 -0.919947 -0.049117 -0.388953 1 
0.0543705 0.227844 0.0433078 0.04313 0.546778 0.836166 1 
0.0542568 0.227488 0.0432949 -0.0676802 0.660961 0.747362 1 
0.0543055 0.227349 0.042817 -0.787475 -0.177523 -0.590227 1 
0.0543454 0.22751 0.0442392 -0.914482 -0.144688 -0.377873 1 
0.0543941 0.227371 0.0437613 -0.0649333 0.702723 0.708495 1 
0.0542727 0.227233 0.0439982 0.155837 0.636965 0.754977 1 
0.053973 0.227132 0.0439969 -0.537145 0.691093 0.483598 1 
0.0541826 0.227202 0.0441027 0.104672 0.700268 0.706165 1 
0.0544097 0.227025 0.0438631 -0.142648 0.746274 0.650174 1 
0.0543294 0.226967 0.043872 -0.898045 0.431779 0.0841487 1 
0.0546252 0.226777 0.0441663 -0.908284 0.416018 0.0441434 1 
0.0541395 0.226932 0.0441765 0.47278 0.539604 0.69664 1 
0.0544389 0.226942 0.0435763 -0.0588031 0.724282 0.686992 1 
0.054674 0.226639 0.0436884 -0.954372 0.276991 -0.111584 1 
0.0536948 0.227166 0.0439587 -0.537145 0.691093 0.483598 1 
0.0536183 0.227397 0.0436746 -0.341305 0.664647 0.664647 1 
0.054174 0.227148 0.042548 -0.562081 0.528322 0.63635 1 
0.0547616 0.226389 0.0428282 -0.920087 -0.324821 -0.218932 1 
0.0561389 0.230564 0.0401878 0.13152 0.31592 0.939626 1 
0.0566343 0.230382 0.0400819 0.0221787 0.917155 0.397912 1 
0.0560564 0.230315 0.0400424 0.0682099 0.375823 0.924178 1 
0.0558154 0.230138 0.0400691 0.00661119 0.456172 0.889867 1 
0.0551689 0.229377 0.0404333 0.116483 0.779993 0.614852 1 
0.0522188 0.231324 0.0390449 -0.235829 -0.850504 0.470136 1 
0.057603 0.228548 0.0434329 -0.097713 0.280111 0.954982 1 
0.0578596 0.228379 0.043508 -0.097713 0.280111 0.954982 1 
0.0545285 0.227235 0.0463252 -0.097713 0.280111 0.954982 1 
0.0546228 0.226496 0.0434106 -0.921652 0.379186 0.0823144 1 
0.0485535 0.23261 0.0459355 0.291456 -0.953974 0.0706172 1 
0.0492274 0.23239 0.046068 -0.291982 -0.324589 -0.89966 1 
0.0493056 0.232259 0.0459048 -0.0477482 -0.986409 -0.15722 1 
0.04844 0.231546 0.0468603 0.367831 -0.929325 0.0324939 1 
0.0482478 0.232029 0.046073 0.291456 -0.953974 0.0706172 1 
0.0485906 0.231601 0.0463366 0.222265 -0.974364 0.0348416 1 
0.0485827 0.231729 0.0459849 0.208375 -0.976073 0.0621469 1 
0.0487099 0.231549 0.0459454 -0.405057 -0.146389 -0.902496 1 
0.0479932 0.23159 0.0464882 0.524122 -0.846878 0.0899718 1 
0.04843 0.231484 0.0463544 0.291456 -0.953974 0.0706172 1 
0.049411 0.231854 0.0453007 -0.0367476 -0.998485 0.0409473 1 
0.048984 0.231933 0.0453389 0.0116085 -0.997278 -0.0728171 1 
0.0488233 0.231815 0.0453567 0.0513363 -0.998439 -0.0220013 1 
0.049072 0.231774 0.0450802 0.00714487 -0.999261 0.0377657 1 
0.0489996 0.231587 0.0454408 0.0345112 -0.998734 0.0366028 1 
0.0492796 0.231653 0.0450317 -0.0324816 -0.998549 0.0429596 1 
0.0493675 0.231494 0.044773 -0.0887197 -0.980778 0.173793 1 
0.0491992 0.231594 0.0450407 -0.0298429 -0.999223 0.0257267 1 
0.0487725 0.231764 0.0456804 -0.382864 -0.195044 -0.90298 1 
0.0487391 0.231466 0.0456586 0.129118 -0.986743 0.0983189 1 
0.0489193 0.231528 0.0454497 0.0633314 -0.997202 0.0397163 1 
0.0483709 0.231469 0.0457249 0.291456 -0.953974 0.0706172 1 
0.0484293 0.231303 0.0451514 0.256396 -0.963695 0.074519 1 
0.0485286 0.231923 0.0434121 -0.289705 -0.904409 0.313234 1 
0.049218 0.231358 0.0436464 -0.125998 -0.950956 0.282502 1 
0.0489201 0.231357 0.0431979 0.228675 -0.951235 0.207026 1 
0.0492473 0.231275 0.0433597 -0.138889 -0.945253 0.295307 1 
0.0491255 0.231046 0.0429952 0.0932477 -0.982129 0.163486 1 
0.0484639 0.231519 0.0435229 -0.283214 -0.913547 0.291928 1 
0.048393 0.231342 0.0428347 -0.322809 -0.803046 0.50091 1 
0.0487083 0.231097 0.0429378 -0.361422 -0.831745 0.421396 1 
0.0494524 0.230873 0.0425555 0.133389 0.00551195 0.991048 1 
0.048281 0.231085 0.0423746 -0.322809 -0.803046 0.50091 1 
0.0486767 0.230899 0.0424688 0.27043 -0.860182 0.432383 1 
0.0488039 0.23072 0.0424293 0.27043 -0.860182 0.432383 1 
0.0489037 0.230723 0.0422292 0.623866 -0.686417 0.373661 1 
0.0488331 0.230637 0.0421425 0.27043 -0.860182 0.432383 1 
0.0492212 0.230669 0.0424866 0.027577 -0.993877 0.106999 1 
0.0492799 0.230593 0.0425146 0.0334474 -0.986121 0.162623 1 
0.0484378 0.230913 0.0426498 -0.322809 -0.803046 0.50091 1 
0.0489621 0.230557 0.0416557 -0.0934011 -0.890796 0.444701 1 
0.0493176 0.23012 0.0397263 0.554102 -0.816965 0.159809 1 
0.0475855 0.23117 0.042279 -0.305464 -0.799272 0.517548 1 
0.0496779 0.230245 0.0393083 0.726277 -0.634102 -0.265401 1 
0.0501243 0.23011 0.0390789 0.607653 -0.00137168 -0.794201 1 
0.0498833 0.229934 0.0391056 0.597845 0.0582225 -0.799494 1 
0.049852 0.229827 0.0392381 0.667179 -0.146086 -0.730432 1 
0.0502123 0.229951 0.0388201 0.641361 0.0616969 -0.764755 1 
0.0487192 0.229837 0.0380733 0.250069 -0.956614 -0.149512 1 
0.0484782 0.229661 0.0381 0.204508 -0.965228 -0.162825 1 
0.0494636 0.229704 0.0382925 -0.00917896 -0.90085 0.434034 1 
0.0496107 0.229559 0.0386633 0.606238 -0.324944 -0.72587 1 
0.0494285 0.229307 0.038718 -0.0177067 -0.976228 0.216021 1 
0.0494793 0.229359 0.0383944 0.00132202 -0.884429 0.466672 1 
0.0497339 0.229798 0.037979 0.552881 -0.230754 -0.800671 1 
0.0487327 0.229302 0.0380209 0.185775 -0.969873 -0.157588 1 
0.0471461 0.229755 0.037937 0.0540633 -0.979147 -0.195829 1 
0.0472639 0.229694 0.0385945 0.240818 -0.678382 0.694122 1 
0.047483 0.229645 0.0380031 -0.261126 0.0306486 -0.964818 1 
0.0473126 0.229555 0.0381165 0.0643331 -0.962474 -0.26364 1 
0.0471325 0.229493 0.0383255 0.195143 -0.918737 -0.34328 1 
0.0470424 0.229462 0.03843 0.195143 -0.918737 -0.34328 1 
0.0468151 0.229547 0.0380682 0.171746 -0.837822 -0.518225 1 
0.046774 0.229468 0.0382962 0.171746 -0.837822 -0.518225 1 
0.0478531 0.229742 0.0374897 0.134761 -0.989398 0.0541347 1 
0.0476729 0.22968 0.0376986 0.147382 -0.987575 0.0545429 1 
0.0475122 0.229562 0.0377164 0.129118 -0.986743 0.0983189 1 
0.0472201 0.229243 0.0374653 0.229869 -0.958009 0.171405 1 
0.0468655 0.229508 0.037143 0.0758715 -0.988664 -0.129565 1 
0.0474532 0.229547 0.0370869 0.227039 -0.963941 0.138818 1 
0.0474615 0.22951 0.0380401 0.090389 -0.994279 -0.0569116 1 
0.0472107 0.229361 0.0381624 0.21631 -0.976318 -0.00350773 1 
0.0470678 0.229088 0.0384363 0.151672 -0.788396 -0.596177 1 
0.0472068 0.229071 0.0384554 0.148439 -0.778179 -0.610248 1 
0.047485 0.229037 0.0384936 0.0614907 -0.785078 -0.616337 1 
0.0479727 0.22978 0.0377 0.136432 -0.989422 0.0492991 1 
0.0482196 0.229639 0.0378706 0.143284 -0.989449 0.0214362 1 
0.0480098 0.22957 0.0377649 0.129641 -0.990094 0.0539217 1 
0.048909 0.229074 0.038105 0.19864 -0.975925 -0.0900664 1 
0.0477469 0.229168 0.037227 0.208136 -0.973381 0.0959671 1 
0.0491597 0.229578 0.0335902 0.7912 -0.495904 -0.357886 1 
0.0491302 0.22957 0.0332754 0.848837 -0.406507 -0.337977 1 
0.0489875 0.229388 0.0341508 -0.00328221 -0.992323 -0.12363 1 
0.0490751 0.229138 0.0332906 0.848837 -0.406507 -0.337977 1 
0.0488342 0.228962 0.0333173 0.848837 -0.406507 -0.337977 1 
0.0501439 0.228904 0.0357691 -0.312705 -0.938116 -0.148842 1 
0.0495246 0.228668 0.0353561 -0.256897 -0.962407 -0.0881887 1 
0.0495012 0.228433 0.0358403 -0.271226 -0.953922 -0.128336 1 
0.0498418 0.229321 0.0346759 0.257088 -0.951629 -0.168251 1 
0.0500533 0.22949 0.0343344 0.673301 -0.663567 -0.326105 1 
0.0502295 0.229262 0.0344184 0.681472 -0.645519 -0.344821 1 
0.0500278 0.229065 0.0346643 0.706422 -0.60808 -0.362226 1 
0.0505528 0.22889 0.0348732 0.662963 -0.682319 -0.308092 1 
0.0491617 0.22897 0.0340806 0.773996 -0.543239 -0.325303 1 
0.0494871 0.228788 0.0346897 -0.078641 -0.996479 -0.0290864 1 
0.0493303 0.22896 0.0344145 -0.00328221 -0.992323 -0.12363 1 
0.0493102 0.228835 0.0334026 0.7912 -0.495904 -0.357886 1 
0.0493887 0.228794 0.033841 0.773996 -0.543239 -0.325303 1 
0.0494554 0.22859 0.0342207 0.773996 -0.543239 -0.325303 1 
0.0494474 0.228718 0.033869 0.773996 -0.543239 -0.325303 1 
0.0493376 0.228652 0.0335631 0.7912 -0.495904 -0.357886 1 
0.0486227 0.228792 0.0336587 0.84717 -0.427471 -0.315551 1 
0.0491477 0.228617 0.0338677 0.771354 -0.546843 -0.32554 1 
0.0490771 0.228531 0.033781 0.7912 -0.495904 -0.357886 1 
0.0492655 0.228556 0.0345252 -0.00543914 -0.993188 -0.116398 1 
0.0493632 0.228369 0.0341709 0.773996 -0.543239 -0.325303 1 
0.0477874 0.229066 0.0357959 -0.222247 -0.968996 0.107948 1 
0.0483969 0.22933 0.0363044 -0.111987 -0.964116 0.240707 1 
0.0483361 0.229216 0.0361222 -0.123172 -0.981717 0.145123 1 
0.0478972 0.229132 0.0361017 -0.098658 -0.948432 0.301236 1 
0.0481559 0.229154 0.0363311 -0.096326 -0.961976 0.255585 1 
0.0444705 0.23067 0.0378174 0.747378 0.622032 -0.233458 1 
0.0447365 0.230383 0.0371954 0.860973 0.431249 -0.269721 1 
0.0443095 0.230462 0.0372337 0.653345 0.676155 -0.340521 1 
0.0441586 0.230316 0.0371559 0.869171 0.360238 -0.338777 1 
0.0443543 0.230033 0.0370488 0.891912 0.22261 -0.393621 1 
0.0443933 0.229922 0.0366665 0.90369 0.257148 -0.342374 1 
0.0447282 0.23042 0.0362423 0.876602 0.380012 -0.295229 1 
0.0444793 0.230371 0.0359173 0.876602 0.380012 -0.295229 1 
0.044158 0.230135 0.0359529 0.991178 0.0419127 -0.125738 1 
0.0448148 0.230251 0.0370323 0.868331 0.353764 -0.347639 1 
0.0447814 0.229954 0.0370106 0.866725 0.204374 -0.454993 1 
0.0451694 0.229986 0.0373546 0.667469 -0.143137 -0.730751 1 
0.0446186 0.229646 0.0368741 0.904826 0.207024 -0.372064 1 
0.0443717 0.229787 0.0367034 0.920121 0.191397 -0.341678 1 
0.0450004 0.229905 0.0364193 0.831478 0.341079 -0.43853 1 
0.045016 0.22956 0.0365211 0.860936 0.220868 -0.458264 1 
0.045 0.229017 0.0361539 0.918118 0.141141 -0.370322 1 
0.0441346 0.229901 0.036437 0.954617 0.133726 -0.266128 1 
0.0443047 0.2299 0.0357222 0.986752 0.0287181 -0.159672 1 
0.0443927 0.229741 0.0354635 0.986752 0.0287181 -0.159672 1 
0.0446176 0.229375 0.0350696 0.976456 -0.0395375 -0.212065 1 
0.0443397 0.229499 0.0356328 0.986752 0.0287181 -0.159672 1 
0.0454771 0.229959 0.0377076 0.370664 -0.43748 -0.81928 1 
0.046259 0.229706 0.0385932 0.185875 -0.88547 -0.425904 1 
0.0466547 0.22952 0.0386874 0.188952 -0.883239 -0.429169 1 
0.046533 0.229291 0.0383229 0.188952 -0.883239 -0.429169 1 
0.0465622 0.229208 0.0380362 0.188952 -0.883239 -0.429169 1 
0.0464819 0.229149 0.0380451 0.188952 -0.883239 -0.429169 1 
0.0460865 0.229426 0.0385523 0.172382 -0.752074 -0.636136 1 
0.0462333 0.22919 0.0383216 0.260969 -0.887294 -0.380269 1 
0.046204 0.229274 0.0386083 0.194547 -0.887895 -0.416886 1 
0.046292 0.229115 0.0383496 0.260969 -0.887294 -0.380269 1 
0.0461529 0.229132 0.0383305 0.211625 -0.770808 -0.600891 1 
0.0459923 0.229014 0.0383483 0.240827 -0.681557 -0.691001 1 
0.0459411 0.228872 0.0380705 0.244836 -0.677642 -0.693438 1 
0.0455239 0.228923 0.0380131 0.459453 -0.221441 -0.860155 1 
0.0453925 0.228722 0.0377442 0.498744 -0.265686 -0.825025 1 
0.0453121 0.228663 0.0377531 0.540944 -0.229631 -0.809104 1 
0.0454884 0.228435 0.0378371 0.504863 -0.387981 -0.771093 1 
0.0454804 0.228563 0.0374854 0.535876 -0.19583 -0.821272 1 
0.046856 0.228828 0.0381762 0.130083 -0.743117 -0.656395 1 
0.0471345 0.228885 0.038816 0.120369 -0.753421 -0.646427 1 
0.0472225 0.228726 0.0385572 0.175615 -0.755907 -0.630686 1 
0.0467913 0.228424 0.038287 0.219146 -0.750693 -0.623246 1 
0.0473692 0.228491 0.0383265 0.159093 -0.756072 -0.634858 1 
0.0466442 0.228569 0.0379162 0.333515 -0.940382 -0.066703 1 
0.0445141 0.228373 0.0365003 0.923403 0.119726 -0.364682 1 
0.0447575 0.228033 0.0375655 0.719814 -0.117248 -0.684194 1 
0.0440458 0.228282 0.0361651 0.952204 0.114581 -0.283159 1 
0.0493492 0.229522 0.0326841 0.869122 -0.380336 -0.316183 1 
0.0491594 0.229487 0.0329887 0.848837 -0.406507 -0.337977 1 
0.0492571 0.2293 0.0326344 0.869122 -0.380336 -0.316183 1 
0.0492765 0.229245 0.0324432 0.931845 -0.257984 -0.255165 1 
0.0487497 0.22932 0.0326815 0.978431 -0.124932 -0.164515 1 
0.0491475 0.229325 0.03293 0.848837 -0.406507 -0.337977 1 
0.049024 0.228996 0.0330127 0.848837 -0.406507 -0.337977 1 
0.0491178 0.228519 0.0329515 0.848837 -0.406507 -0.337977 1 
0.0487159 0.228134 0.0323944 0.945905 -0.221031 -0.237506 1 
0.0492645 0.231382 0.0464691 -0.049039 -0.979584 -0.19496 1 
0.0485575 0.231395 0.0469164 0.367831 -0.929325 0.0324939 1 
0.0484674 0.231363 0.0470208 0.396211 -0.917471 -0.0355405 1 
0.0487669 0.231374 0.0464206 0.146129 -0.988922 0.0260541 1 
0.0485259 0.231197 0.0464473 0.291456 -0.953974 0.0706172 1 
0.0507364 0.22915 0.0416171 -0.990686 0.0327593 0.132167 1 
0.0503855 0.228907 0.0413379 -0.95291 -0.293501 0.0762845 1 
0.0501405 0.229148 0.0407199 -0.903021 -0.40402 0.146014 1 
0.0501011 0.22837 0.0408369 -0.883424 -0.464452 0.0620188 1 
0.0511244 0.229182 0.0419611 -0.972434 0.133123 0.191444 1 
0.0510441 0.229123 0.04197 -0.963173 0.0987541 0.250091 1 
0.0512812 0.229009 0.0422364 -0.959426 0.126618 0.251931 1 
0.0509012 0.22885 0.042244 -0.961986 -0.085595 0.25934 1 
0.0514185 0.228893 0.0427027 -0.957092 0.0135496 0.289468 1 
0.0514497 0.228202 0.0429064 -0.902739 -0.396289 0.167386 1 
0.0515652 0.228658 0.042472 -0.958842 -0.00609175 0.283876 1 
0.0511775 0.228716 0.0427295 -0.958582 -0.0970225 0.267782 1 
0.0512068 0.228633 0.0424427 -0.953302 -0.198211 0.227876 1 
0.0510972 0.228657 0.0427383 -0.929195 -0.284274 0.236188 1 
0.0512245 0.228477 0.0426988 -0.906989 -0.373466 0.194664 1 
0.0510833 0.228304 0.0425254 -0.89026 -0.441603 0.111459 1 
0.050925 0.228467 0.043299 -0.923643 -0.347938 0.160694 1 
0.0509543 0.228384 0.0430122 -0.902835 -0.423333 0.0753505 1 
0.0508815 0.228107 0.0427713 -0.896606 -0.432317 0.095916 1 
0.0511889 0.22799 0.0425228 -0.886592 -0.449639 0.108534 1 
0.0511318 0.228873 0.0411098 -0.995509 0.0139909 0.0936316 1 
0.0513591 0.228788 0.0414717 -0.992309 0.0255578 0.121122 1 
0.0506561 0.229091 0.041626 -0.995927 -0.00106063 0.0901532 1 
0.0508908 0.228697 0.0411365 -0.962793 -0.252557 0.0961511 1 
0.0510281 0.22858 0.0416029 -0.920812 -0.374637 0.108411 1 
0.0509947 0.228282 0.0415811 -0.896606 -0.432317 0.095916 1 
0.051067 0.228469 0.0412205 -0.893362 -0.437594 0.102059 1 
0.0512608 0.228793 0.040623 -0.983527 -0.0385926 0.176591 1 
0.0510198 0.228617 0.0406497 -0.963064 -0.259432 0.0721349 1 
0.05129 0.22871 0.0403362 -0.962786 -0.261202 0.0694014 1 
0.0511668 0.228472 0.0410205 -0.889388 -0.442573 0.114532 1 
0.0509687 0.228475 0.0403719 -0.86373 -0.488822 0.122566 1 
0.0510375 0.228462 0.0409058 -0.889211 -0.439626 0.126624 1 
0.0511157 0.22833 0.0407427 -0.889489 -0.435464 0.138492 1 
0.0510962 0.228386 0.0409338 -0.889388 -0.442573 0.114532 1 
0.0512332 0.228178 0.0407987 -0.889489 -0.435464 0.138492 1 
0.0516076 0.227948 0.0415313 -0.889428 -0.445417 0.102572 1 
0.0511848 0.228407 0.0418781 -0.922576 -0.370397 0.107976 1 
0.0512433 0.228241 0.0413046 -0.893362 -0.437594 0.102059 1 
0.0511904 0.227999 0.041474 -0.893362 -0.437594 0.102059 1 
0.0513962 0.227779 0.0418728 -0.897439 -0.429936 0.0987878 1 
0.0515273 0.227889 0.0415402 -0.892536 -0.438562 0.105087 1 
0.0515861 0.227813 0.0415682 -0.900636 -0.423257 0.0985288 1 
0.0514387 0.227867 0.0405959 -0.879784 -0.461922 0.112283 1 
0.0515566 0.227806 0.0412535 -0.894424 -0.432422 0.114092 1 
0.0516153 0.22773 0.0412815 -0.900123 -0.421364 0.110591 1 
0.0508747 0.228154 0.0407693 -0.896606 -0.432317 0.095916 1 
0.0517312 0.227922 0.0458411 -0.097713 0.280111 0.954982 1 
0.0519172 0.227666 0.0458295 -0.097713 0.280111 0.954982 1 
0.0515783 0.228384 0.0452729 -0.752472 0.614805 0.236223 1 
0.0516075 0.228301 0.0449861 -0.731168 0.619173 0.286388 1 
0.0515247 0.227961 0.0442393 -0.918118 0.141141 0.370322 1 
0.0517701 0.227811 0.0454587 0.713746 -0.202822 0.670395 1 
0.0529408 0.226619 0.0447729 0.360389 0.525231 0.770877 1 
0.0515929 0.227767 0.0435702 -0.842745 -0.481787 0.240129 1 
0.0521917 0.227787 0.0423698 -0.678813 -0.642827 0.354945 1 
0.0521801 0.226917 0.0432488 -0.704018 -0.412472 0.578123 1 
0.0523463 0.226627 0.0428269 -0.506804 0.601093 0.61793 1 
0.0516353 0.227057 0.0426295 -0.884518 -0.463449 0.0533172 1 
0.0519547 0.227901 0.0421035 -0.877144 -0.459456 0.139709 1 
0.0521014 0.227666 0.0418728 -0.88352 -0.448204 0.136036 1 
0.0517429 0.227641 0.0418435 -0.867554 -0.475193 0.146772 1 
0.0515822 0.227523 0.0418613 -0.89026 -0.441603 0.111459 1 
0.0515137 0.227627 0.0419288 -0.89026 -0.441603 0.111459 1 
0.0516997 0.227371 0.0419173 -0.899289 -0.42671 0.0959056 1 
0.0518799 0.227434 0.0417083 -0.879886 -0.452224 0.145925 1 
0.0519484 0.22733 0.0416407 -0.887564 -0.43733 0.144821 1 
0.0517779 0.22724 0.0417541 -0.907881 -0.404584 0.109836 1 
0.0519347 0.227068 0.0420293 -0.851834 -0.497518 0.163871 1 
0.0517874 0.227122 0.041057 -0.904808 -0.4143 0.0983788 1 
0.052023 0.226999 0.0423721 -0.811826 -0.549848 0.196483 1 
0.0523951 0.226488 0.042349 -0.323979 -0.917221 0.231825 1 
0.0513607 0.227291 0.0416968 -0.890013 -0.444306 0.102316 1 
0.0514883 0.227202 0.0422587 -0.904062 -0.413723 0.107262 1 
0.0518447 0.227037 0.0421338 -0.848911 -0.503441 0.160924 1 
0.0516188 0.227132 0.0407232 -0.89826 -0.427544 0.101664 1 
0.0473503 0.227929 0.0400569 0.308784 -0.667684 -0.677385 1 
0.0483338 0.227075 0.0410327 0.641361 -0.0616969 -0.764755 1 
0.0477263 0.227001 0.0406784 0.641361 -0.0616969 -0.764755 1 
0.0477987 0.227187 0.0403179 0.641361 -0.0616969 -0.764755 1 
0.0481339 0.226977 0.0408314 0.641361 -0.0616969 -0.764755 1 
0.0479321 0.22678 0.0410772 0.641361 -0.0616969 -0.764755 1 
0.0471093 0.227752 0.0400835 0.283696 -0.687603 -0.66837 1 
0.0475501 0.227228 0.0405944 0.641361 -0.0616969 -0.764755 1 
0.0474089 0.227055 0.0404211 0.641361 -0.0616969 -0.764755 1 
0.0476755 0.226949 0.0410021 0.641361 -0.0616969 -0.764755 1 
0.0475149 0.226831 0.0410199 0.641361 -0.0616969 -0.764755 1 
0.0482907 0.226805 0.0411066 0.626968 -0.0825339 -0.774661 1 
0.0483397 0.226757 0.0412302 0.616179 -0.0917713 -0.782241 1 
0.0483689 0.226674 0.0409434 0.626968 -0.0825339 -0.774661 1 
0.0481279 0.226497 0.0409701 0.641361 -0.0616969 -0.764755 1 
0.048406 0.226463 0.0410084 0.616179 -0.0917713 -0.782241 1 
0.0484961 0.226494 0.0409039 0.616179 -0.0917713 -0.782241 1 
0.0485841 0.226335 0.0406451 0.637836 -0.0294386 -0.769609 1 
0.0482846 0.226325 0.0412453 0.75094 0.19583 -0.630666 1 
0.0482335 0.226183 0.0409675 0.637836 -0.0294386 -0.769609 1 
0.0502953 0.228433 0.0373861 -0.87978 -0.465932 0.0943124 1 
0.0512605 0.228703 0.0400215 -0.923416 -0.372892 0.0908501 1 
0.0510724 0.228768 0.0398788 -0.942911 -0.292534 0.159193 1 
0.0512389 0.228568 0.0400584 -0.921509 -0.382285 0.0684089 1 
0.0509781 0.228357 0.0396748 -0.85613 -0.480922 0.189093 1 
0.0512722 0.228067 0.0404163 -0.884864 -0.45439 0.102695 1 
0.0511446 0.228156 0.0398544 -0.876829 -0.463528 0.127721 1 
0.0510816 0.227852 0.0395178 -0.876355 -0.447719 0.17762 1 
0.051331 0.227991 0.0404443 -0.885075 -0.455863 0.0939778 1 
0.0513602 0.227908 0.0401576 -0.868751 -0.484851 0.100951 1 
0.0513894 0.227825 0.0398709 -0.874488 -0.465337 0.136864 1 
0.051552 0.227335 0.0403434 -0.905248 -0.414733 0.092316 1 
0.0517419 0.22737 0.0400389 -0.904052 -0.415225 0.101376 1 
0.0514186 0.227742 0.0395841 -0.896438 -0.408522 0.171781 1 
0.0514342 0.227396 0.0396859 -0.897378 -0.409205 0.165118 1 
0.0514324 0.227297 0.0401332 -0.9032 -0.419096 0.0926714 1 
0.0505107 0.227386 0.0380255 0.097713 -0.280111 -0.954982 1 
0.0504517 0.227372 0.037396 0.097713 -0.280111 -0.954982 1 
0.0502459 0.227592 0.0369971 0.097713 -0.280111 -0.954982 1 
0.051875 0.226872 0.0401968 -0.92351 -0.369677 0.102309 1 
0.0517867 0.226941 0.039854 -0.928996 -0.358961 0.0900763 1 
0.0518242 0.226821 0.0405204 -0.913052 -0.3921 0.112226 1 
0.0515832 0.226644 0.0405471 -0.894424 -0.432422 0.114092 1 
0.051722 0.226536 0.0399648 -0.913753 -0.389628 0.115086 1 
0.0476284 0.227895 0.0400951 0.130054 -0.704085 -0.698105 1 
0.0472894 0.227815 0.0398746 0.31239 -0.671719 -0.671719 1 
0.0473147 0.227441 0.0398808 0.0266529 -0.747685 -0.663518 1 
0.047546 0.227646 0.0399498 0.130054 -0.704085 -0.698105 1 
0.0474618 0.227297 0.0402516 0.641361 -0.0616969 -0.764755 1 
0.0470582 0.22761 0.0398057 0.409577 -0.638409 -0.651675 1 
0.0472052 0.227466 0.0401765 0.267073 -0.579974 -0.769612 1 
0.0468327 0.227088 0.0399342 0.640928 -0.0497395 -0.765988 1 
0.0468367 0.227378 0.0396412 0.467535 -0.628407 -0.621704 1 
0.047009 0.22686 0.0400183 0.641361 -0.0616969 -0.764755 1 
0.0483626 0.226103 0.0404807 0.637836 -0.0294386 -0.769609 1 
0.0532578 0.225676 0.0447649 -0.182544 0.673418 0.71637 1 
0.0536048 0.225629 0.0453371 -0.477161 0.550828 0.684767 1 
0.0534441 0.225511 0.0453549 -0.535904 0.48248 0.692835 1 
0.0539341 0.225737 0.0456531 -0.915955 0.33972 0.21358 1 
0.0537577 0.225167 0.0459052 -0.944869 -0.190068 0.266642 1 
0.0535617 0.225359 0.0454109 -0.535904 0.48248 0.692835 1 
0.0533833 0.225397 0.0451726 -0.535904 0.48248 0.692835 1 
0.0532598 0.225068 0.0452553 -0.327143 0.518641 0.78993 1 
0.0534521 0.225384 0.0457066 -0.731304 -0.402628 -0.550532 1 
0.0536187 0.225184 0.0458862 -0.327143 0.518641 0.78993 1 
0.0534875 0.225073 0.0462187 -0.955908 -0.0185493 0.293079 1 
0.0537358 0.224941 0.0453406 -0.731304 -0.402628 -0.550532 1 
0.0537514 0.224596 0.0454425 -0.955908 -0.0185493 0.293079 1 
0.0532676 0.225649 0.0446693 -0.203341 0.684529 0.700052 1 
0.0852468 0.269429 0.00164174 -0.808637 -0.243677 -0.53547 0 
0.0840918 0.268769 0.00370339 -0.948593 -0.0850463 -0.304858 0 
0.0848593 0.26878 0.00283688 -0.898609 -0.171095 -0.404015 0 
0.084963 0.269073 0.0023438 -0.899693 -0.208519 -0.3835 0 
0.0849668 0.269363 0.00205078 -0.864775 -0.269007 -0.424028 0 
0.0845242 0.268989 0.00232336 -0.882342 -0.240367 -0.404593 0 
0.0847259 0.269186 0.00207752 -0.884609 -0.267927 -0.381684 0 
0.0841955 0.269062 0.00321032 -0.923966 -0.154691 -0.349797 0 
0.0844716 0.268838 0.00309428 -0.893776 -0.175279 -0.412846 0 
0.0836982 0.268347 0.00409959 -0.88383 -0.15139 -0.442636 0 
0.0850058 0.269252 0.00166846 -0.813664 -0.212993 -0.540911 0 
0.0847001 0.268671 0.00180589 -0.877435 -0.231691 -0.420033 0 
0.0845982 0.268477 0.0018517 -0.897636 -0.177793 -0.403286 0 
0.084079 0.267182 0.00656885 -0.852863 0.284288 -0.437956 0 
0.0841842 0.265979 0.00630088 -0.834366 0.504891 -0.221176 0 
0.0856442 0.268545 0.00162489 -0.752509 -0.36569 -0.547723 0 
0.0865683 0.267585 0.00136977 -0.328908 -0.829352 -0.451658 0 
0.0864387 0.268282 0.00031738 0.097713 -0.280111 -0.954982 0 
0.084049 0.26859 0.00437871 -0.944874 -0.050273 -0.323552 0 
0.0843484 0.2686 0.00377849 -0.940844 -0.0639408 -0.332753 0 
0.0846363 0.268538 0.00372116 -0.940844 -0.0639408 -0.332753 0 
0.0847107 0.268117 0.00385103 -0.927786 -0.0958848 -0.360581 0 
0.0843564 0.268472 0.0041302 -0.751878 -0.317174 -0.577996 0 
0.0844444 0.268313 0.00387145 -0.945982 -0.0635845 -0.317923 0 
0.0844307 0.268051 0.00426003 -0.910535 -0.118161 -0.396187 0 
0.0844109 0.268016 0.00384971 -0.950278 -0.0497461 -0.307405 0 
0.0852487 0.268023 0.00246835 -0.880189 -0.183068 -0.437898 0 
0.0846284 0.268666 0.00336948 -0.901674 -0.140135 -0.40908 0 
0.0844596 0.267877 0.0033718 -0.929058 -0.0957375 -0.35733 0 
0.085186 0.267809 0.00273334 -0.883081 -0.148381 -0.445142 0 
0.0850077 0.267846 0.00249504 -0.885998 -0.160434 -0.43505 0 
0.0843947 0.26818 0.00254485 -0.900275 -0.134264 -0.414098 0 
0.0848647 0.267573 0.00276896 -0.925832 -0.0792802 -0.369527 0 
0.084894 0.26749 0.00248218 -0.89077 -0.132547 -0.434696 0 
0.0851572 0.267982 0.00362159 -0.910324 -0.130046 -0.392936 0 
0.0851864 0.267899 0.00333485 -0.910831 -0.115418 -0.396316 0 
0.0848358 0.267747 0.0036572 -0.925481 -0.0992072 -0.365572 0 
0.0846752 0.267629 0.00367499 -0.934528 -0.0591473 -0.350941 0 
0.0848943 0.26758 0.00308369 -0.910831 -0.115418 -0.396316 0 
0.0847044 0.267546 0.00338824 -0.921035 -0.0852059 -0.380045 0 
0.0846749 0.267539 0.00307348 -0.910535 -0.118161 -0.396187 0 
0.0847041 0.267455 0.00278673 -0.910831 -0.115418 -0.396316 0 
0.083808 0.268413 0.00440543 -0.868517 -0.165502 -0.467212 0 
0.0842624 0.268151 0.0045277 -0.871868 -0.155743 -0.464317 0 
0.0841606 0.267958 0.00457351 -0.896328 -0.131688 -0.423384 0 
0.0837433 0.268009 0.00451617 -0.921426 -0.117072 -0.370498 0 
0.0843796 0.267909 0.00398222 -0.961391 -0.0134375 -0.274858 0 
0.0845812 0.267308 0.00407249 -0.676202 -0.491631 -0.54868 0 
0.0847478 0.267108 0.00425211 -0.740667 -0.433843 -0.513023 0 
0.0845068 0.266931 0.00427881 -0.821915 -0.332868 -0.462229 0 
0.0842658 0.266755 0.00430553 -0.8151 -0.344789 -0.465545 0 
0.0844339 0.267362 0.00310019 -0.917294 -0.0943268 -0.386877 0 
0.0845517 0.267301 0.00375774 -0.945709 -0.0291964 -0.323699 0 
0.0844634 0.267369 0.00341496 -0.931471 -0.0759569 -0.355798 0 
0.084389 0.266993 0.00362131 -0.950625 0.00618091 -0.310282 0 
0.0842224 0.267193 0.00344165 -0.95038 -0.0340774 -0.30922 0 
0.0843597 0.267076 0.00390806 -0.96029 0.0183964 -0.278398 0 
0.0842362 0.266747 0.00399074 -0.974693 0.010633 -0.223293 0 
0.084148 0.266816 0.00364798 -0.955321 0.00367903 -0.295548 0 
0.0840756 0.266629 0.00400855 -0.755581 -0.393294 -0.523848 0 
0.0847811 0.266607 0.00461005 -0.875414 -0.289782 -0.386881 0 
0.0842191 0.266285 0.00527383 -0.958637 0.245906 -0.143335 0 
0.0840956 0.265957 0.00535658 -0.743797 0.667871 -0.0267148 0 
0.0844128 0.26661 0.0046763 -0.989577 0.0564485 -0.132481 0 
0.0842991 0.266254 0.00466347 -0.947992 0.315147 0.0446564 0 
0.084152 0.266398 0.00429265 -0.877141 -0.28935 -0.383276 0 
0.0841895 0.266278 0.00495911 -0.967846 0.237871 -0.0818075 0 
0.0840581 0.266077 0.00469016 -0.95726 0.287551 -0.0311203 0 
0.0843229 0.265871 0.00571845 -0.763681 0.637622 -0.10114 0 
0.0842134 0.265895 0.00601412 -0.821634 0.542248 -0.175742 0 
0.0857988 0.268182 0.00174588 -0.776619 -0.325059 -0.53963 0 
0.0851406 0.268056 0.00171523 -0.790405 -0.330533 -0.515759 0 
0.0853679 0.267971 0.0020771 -0.843001 -0.236284 -0.483239 0 
0.0855578 0.268005 0.00177255 -0.783136 -0.325106 -0.530098 0 
0.0859028 0.267768 0.0021905 -0.807539 -0.311321 -0.500959 0 
0.085127 0.267794 0.00210384 -0.868517 -0.165502 -0.467212 0 
0.0850171 0.267728 0.00179793 -0.789487 -0.300227 -0.535326 0 
0.0845862 0.267517 0.0021292 -0.923313 -0.0543125 -0.380188 0 
0.0790303 0.261066 0.0137923 -0.766323 0.634451 0.101102 0 
0.0789677 0.260852 0.0140573 -0.765701 0.637842 0.0828178 0 
0.0788776 0.260821 0.0141618 -0.748734 0.654591 0.10444 0 
0.0790264 0.260776 0.0140853 -0.765701 0.637842 0.0828178 0 
0.0791634 0.260568 0.0139502 -0.759816 0.642696 0.098088 0 
0.0789165 0.26071 0.0137795 -0.733668 0.668188 0.123518 0 
0.0793692 0.260348 0.014349 -0.840061 0.542283 0.0150255 0 
0.0795101 0.260431 0.0139208 -0.733668 0.668188 0.123518 0 
0.0783584 0.260678 0.0141503 -0.82622 0.563145 -0.015072 0 
