0.0554249 0.248341 0.0533044 0.213517 -0.443458 0.870492 1 
0.0557333 0.24816 0.0530988 0.162998 -0.419755 0.892881 1 
0.055912 0.248237 0.0533482 0.139201 -0.443434 0.885432 1 
0.0559491 0.24794 0.0533727 0.157974 -0.391376 0.90657 1 
0.0560443 0.247484 0.0526026 0.289832 -0.499765 0.81623 1 
0.0551415 0.247557 0.0532269 0.342557 -0.32143 0.882801 1 
0.0554185 0.247566 0.0529056 0.302627 -0.356829 0.883793 1 
0.0551675 0.247513 0.0530614 0.323639 -0.311707 0.893362 1 
0.0545072 0.247396 0.0530493 0.531052 -0.415964 0.738212 1 
0.0546713 0.247301 0.0532817 0.556403 -0.462834 0.690073 1 
0.0545183 0.247143 0.0532392 0.565419 -0.458673 0.685508 1 
0.0546624 0.247021 0.0531736 0.47592 -0.294914 0.828569 1 
0.0549537 0.247164 0.0532416 0.383276 -0.28935 0.877141 1 
0.0549222 0.247353 0.053126 0.407794 -0.330267 0.851251 1 
0.0556346 0.247382 0.0528071 0.336146 -0.398108 0.853531 1 
0.0553148 0.247779 0.0531951 0.264485 -0.296281 0.91775 1 
0.0551853 0.248073 0.0532777 0.221859 -0.322054 0.920358 1 
0.0553697 0.248041 0.0534359 0.221654 -0.324616 0.919507 1 
0.0551447 0.247945 0.0534262 0.312236 -0.327175 0.891889 1 
0.056156 0.24744 0.0535383 0.206192 -0.440568 0.873719 1 
0.0557162 0.248484 0.0533724 0.142194 -0.440945 0.886199 1 
0.0558431 0.248685 0.0535804 0.141827 -0.434076 0.889642 1 
0.0560421 0.248826 0.0537555 0.119169 -0.354768 0.927329 1 
0.0560478 0.248718 0.0536643 0.121034 -0.393708 0.911233 1 
0.0562144 0.248127 0.0536062 0.100268 -0.464621 0.879815 1 
0.0580854 0.247917 0.0535332 0.0274404 -0.388086 0.921215 1 
0.0584287 0.247972 0.0532703 0.129977 -0.527208 0.839736 1 
0.0585176 0.247551 0.0533362 0.416054 -0.137738 0.898848 1 
0.0590406 0.24702 0.0505986 0.50238 -0.203668 0.840318 1 
0.059251 0.246944 0.0505913 0.347729 0.0727191 0.934771 1 
0.0596683 0.24556 0.049515 0.444159 -0.0788694 0.89247 1 
0.0596128 0.245224 0.0500189 -0.0760221 0.0224854 0.996853 1 
0.0595091 0.245437 0.0503084 0.472248 -0.179128 0.863073 1 
0.059107 0.247067 0.050657 0.412989 0.0117252 0.91066 1 
0.0594557 0.246977 0.0506752 0.256926 0.223595 0.94021 1 
0.0591698 0.246689 0.0508883 -0.049999 0.678558 0.732843 1 
0.0593688 0.24683 0.0510635 0.184288 0.364291 0.912869 1 
0.0598543 0.248141 0.0515155 -0.490832 0.797802 -0.350137 1 
0.0594469 0.246697 0.050567 0.128896 0.372828 0.918904 1 
0.059801 0.246463 0.0508665 0.0229151 0.483912 0.874816 1 
0.059478 0.246472 0.0510551 0.0231094 0.504328 0.863203 1 
0.0596738 0.246225 0.0510309 0.551095 -0.457859 0.69761 1 
0.0594834 0.246327 0.0513362 0.0580821 0.585071 0.8089 1 
0.0586858 0.245545 0.0528698 -0.765338 -0.636562 0.0951184 1 
0.0588645 0.245621 0.0531192 -0.775451 -0.608524 0.168444 1 
0.0593234 0.246094 0.0532467 -0.882423 -0.369562 0.291124 1 
0.0586818 0.249901 0.0529774 0.350548 0.0295334 0.936079 1 
0.0585343 0.249599 0.053216 0.144499 -0.0919541 0.985223 1 
0.0583823 0.250362 0.0532911 0.373381 0.0736056 0.924753 1 
0.0586552 0.249062 0.0526529 0.35358 -0.261856 0.898005 1 
0.0587098 0.249288 0.0532661 -0.242152 -0.231082 0.942318 1 
0.0586492 0.249133 0.0531164 -0.270193 -0.267334 0.924948 1 
0.0587841 0.248695 0.053315 -0.0171862 -0.434944 0.900294 1 
0.0589339 0.248465 0.0531581 -0.0464564 -0.812284 0.581409 1 
0.057968 0.248879 0.0539233 -0.0246783 -0.0761808 0.996789 1 
0.0581841 0.248695 0.0538249 -0.102889 -0.119446 0.987495 1 
0.0584116 0.248296 0.0535439 -0.226845 -0.0551784 0.972367 1 
0.0584494 0.248883 0.0540584 -0.251569 -0.0796423 0.964557 1 
0.0587892 0.248513 0.0539685 -0.284811 0.409702 0.866618 1 
0.0581232 0.248504 0.0540476 -0.544573 0.265224 0.795673 1 
0.0583393 0.248321 0.0539491 -0.702497 0.376749 0.603786 1 
0.0583619 0.247852 0.0539566 -0.674398 0.437942 0.594469 1 
0.0586217 0.248184 0.053909 -0.33196 0.387544 0.860007 1 
0.0586074 0.248049 0.0535197 -0.304992 -0.302045 0.903188 1 
0.0597607 0.248764 0.0547191 -0.269769 -0.900703 0.340528 1 
0.0603982 0.249313 0.055096 -0.830996 -0.556264 0.00408018 1 
0.060271 0.249075 0.0552604 -0.900489 0.426112 -0.0868772 1 
0.0601225 0.247853 0.0553814 -0.549848 0.811826 -0.196483 1 
0.0606626 0.248581 0.0552119 -0.92549 -0.370999 -0.0763429 1 
0.0608616 0.248721 0.055387 -0.944651 -0.32011 -0.0718614 1 
0.060264 0.248226 0.0556063 -0.0626187 0.991652 -0.112714 1 
0.0603614 0.248064 0.0518574 -0.559915 0.795668 -0.231101 1 
0.0602345 0.247863 0.0516494 -0.537401 0.795858 -0.278944 1 
0.0604684 0.248239 0.0517673 -0.552484 0.800096 -0.233684 1 
0.0604277 0.248111 0.0519158 -0.524778 0.815806 -0.243039 1 
0.0608834 0.248196 0.0518439 -0.904994 0.385806 -0.179278 1 
0.060384 0.247596 0.0518649 -0.507845 0.809721 -0.294015 1 
0.0604964 0.247626 0.052056 -0.514261 0.806776 -0.290943 1 
0.0602634 0.248169 0.0520557 -0.511089 0.802236 -0.308552 1 
0.0604512 0.248562 0.0520409 -0.93418 -0.291844 -0.205268 1 
0.0606502 0.248703 0.0522161 -0.280605 -0.959044 0.0386611 1 
0.0604106 0.248435 0.0521894 -0.965065 -0.111502 -0.237101 1 
0.0606096 0.248575 0.0523646 -0.986927 -0.0572301 -0.150667 1 
0.0609584 0.248486 0.0523829 -0.985441 0.130514 -0.108961 1 
0.0605341 0.248212 0.0525704 -0.529505 -0.847485 -0.037328 1 
0.0606176 0.247935 0.0523551 -0.851714 0.509287 -0.123332 1 
0.0606814 0.248477 0.0527041 -0.245972 -0.967819 -0.0531497 1 
0.0607331 0.248353 0.0527455 -0.831823 -0.550283 -0.0725179 1 
0.0609435 0.248277 0.0527383 -0.985581 0.150624 -0.0770911 1 
0.0605767 0.247771 0.052876 -0.883633 -0.463251 -0.067759 1 
0.0606836 0.247945 0.0527859 -0.386735 -0.921608 -0.0327741 1 
0.0609029 0.248149 0.0528868 -0.961162 0.270131 -0.056539 1 
0.0609544 0.247988 0.0533005 -0.962434 -0.268788 0.0383983 1 
0.0604987 0.247903 0.0533724 -0.525879 0.848419 0.0603008 1 
0.0608274 0.247786 0.0530926 -0.45385 -0.890088 -0.0419981 1 
0.0608531 0.247705 0.0532995 -0.864554 -0.497434 0.0714623 1 
0.0622407 0.247251 0.0514026 -0.817508 -0.497409 -0.290286 1 
0.0621629 0.24742 0.0515266 -0.515074 -0.851798 -0.0955954 1 
0.0612197 0.248175 0.0535341 -0.994124 0.0592672 0.0905782 1 
0.0610927 0.247974 0.0533261 -0.61812 -0.786073 -0.00412998 1 
0.0608091 0.247153 0.0536209 -0.963404 0.218302 0.155556 1 
0.060487 0.248082 0.0539272 -0.22221 -0.970442 0.0941567 1 
0.0609021 0.248039 0.0540038 -0.76164 0.64788 -0.0124859 1 
0.0606746 0.248438 0.0542848 -0.272708 -0.957711 0.0917644 1 
0.0606543 0.248375 0.054359 -0.162106 -0.978826 0.124983 1 
0.0609313 0.248383 0.0540378 -0.839505 0.542724 -0.0261057 1 
0.0608186 0.248316 0.0542191 -0.375162 -0.923785 0.0766459 1 
0.0607983 0.248252 0.0542934 -0.332875 -0.936631 0.109161 1 
0.0607983 0.248252 0.0542934 -0.332875 -0.936631 0.109161 1 
0.060409 0.248214 0.0544236 -0.182296 -0.974342 0.132008 1 
0.0603976 0.24843 0.054606 -0.275574 -0.946184 0.169689 1 
0.0607577 0.248125 0.0544419 -0.942774 0.307982 -0.127765 1 
0.0607374 0.248061 0.0545161 0.47718 -0.865345 0.153223 1 
0.0607437 0.248026 0.0536802 -0.34048 -0.935986 0.0894595 1 
0.0609427 0.248167 0.0538553 -0.727634 0.685896 0.00973889 1 
0.0610865 0.248008 0.054162 -0.818255 0.56715 -0.0938035 1 
0.0614466 0.247702 0.0539979 -0.0776226 -0.995975 0.0448243 1 
0.0606371 0.248698 0.0546327 -0.289254 -0.94179 0.171359 1 
0.0609973 0.248393 0.0544685 -0.820069 0.55217 -0.150321 1 
0.060879 0.248434 0.054741 -0.666763 0.732691 -0.136349 1 
0.0607517 0.248196 0.0549054 -0.989923 0.0563371 -0.12992 1 
0.0607866 0.248431 0.0548481 -0.712708 0.672512 -0.199435 1 
0.0611557 0.248406 0.0547921 -0.862261 0.466127 -0.198067 1 
0.0611354 0.248342 0.0548664 -0.855438 -0.516569 -0.0371929 1 
0.0612769 0.248715 0.0550913 -0.830951 -0.554433 -0.0460864 1 
0.0608787 0.248397 0.0551134 -0.383161 0.905523 -0.182253 1 
0.0613718 0.248222 0.0546936 -0.817782 0.545692 -0.182905 1 
0.0616371 0.24841 0.0549272 -0.698706 -0.715375 -0.00694539 1 
0.0605785 0.247975 0.0549372 -0.989923 0.0563371 -0.12992 1 
0.0605439 0.247776 0.0546221 -0.94687 0.31476 -0.0660607 1 
0.0616221 0.247392 0.0540479 -0.99013 0.107951 0.0893787 1 
0.0622854 0.24786 0.0546317 -0.269906 -0.876063 0.399581 1 
0.0620811 0.247917 0.0495077 -0.591294 0.774424 0.225033 1 
0.0625514 0.248174 0.0494528 -0.727664 0.452511 -0.515498 1 
0.062251 0.247714 0.049649 -0.656849 0.730687 0.186133 1 
0.0621901 0.247523 0.0498717 -0.725368 0.677706 0.120647 1 
0.062042 0.247147 0.0508551 -0.702642 0.638031 -0.314977 1 
0.0597911 0.244454 0.049406 0.101969 -0.025218 0.994468 1 
0.0624802 0.250737 0.0524451 -0.721359 0.611129 0.325827 1 
0.0626995 0.250942 0.0525459 -0.721359 0.611129 0.325827 1 
0.0598248 0.250153 0.0559304 -0.721359 0.611129 0.325827 1 
0.0618329 0.248163 0.054903 -0.838437 -0.544916 0.00951225 1 
0.0531684 0.246565 0.0531812 0.702092 0.0770411 0.707906 1 
0.0536475 0.247101 0.0532344 0.476187 -0.866457 -0.149992 1 
0.0538579 0.247026 0.0532272 0.628297 -0.326325 0.706226 1 
0.0532371 0.246889 0.054556 0.756498 0.113993 0.643985 1 
0.0532456 0.246323 0.0538018 0.702092 0.0770411 0.707906 1 
0.0535715 0.246665 0.054185 0.690311 -0.00138339 0.723512 1 
0.0536753 0.246451 0.0538954 0.667184 0.00693539 0.74486 1 
0.0538799 0.246484 0.0539794 0.301997 -0.917551 -0.258648 1 
0.0531269 0.246327 0.0544467 0.77255 0.280783 0.569498 1 
0.0535309 0.246537 0.0543335 0.702092 0.0770411 0.707906 1 
0.0544745 0.246628 0.0531884 0.540813 -0.18936 0.819551 1 
0.0541426 0.246357 0.0532688 0.626303 -0.229593 0.745004 1 
0.054102 0.246229 0.0534173 0.627307 -0.16556 0.76097 1 
0.054425 0.246221 0.0532287 0.569131 -0.160678 0.806394 1 
0.054301 0.24637 0.0535925 0.58685 -0.13817 0.797819 1 
0.05465 0.246317 0.0532384 0.539778 -0.185974 0.821007 1 
0.0549325 0.246181 0.0531983 0.4263 -0.138298 0.893947 1 
0.0546297 0.246253 0.0533126 0.552295 -0.193227 0.810946 1 
0.0539319 0.246396 0.0536484 0.346815 -0.909844 -0.227824 1 
0.0540961 0.246301 0.0538809 0.607086 -0.0293076 0.794096 1 
0.0542807 0.246306 0.0536667 0.59992 -0.116446 0.791541 1 
0.0538305 0.246077 0.0540197 0.702092 0.0770411 0.707906 1 
0.0542626 0.24571 0.0538227 0.684362 0.052863 0.727224 1 
0.054868 0.244755 0.0523593 0.185125 -0.174768 0.96705 1 
0.0555056 0.245304 0.0527362 0.330125 -0.0861773 0.939995 1 
0.0555541 0.244792 0.0525783 0.591004 0.122327 0.797339 1 
0.0557217 0.245121 0.0526377 0.310362 -0.0851203 0.9468 1 
0.0559692 0.244749 0.0526549 0.546144 -0.0122576 0.837602 1 
0.0550061 0.244704 0.0527572 0.207396 -0.18626 0.960362 1 
0.0554237 0.244166 0.0525433 0.00727111 -0.0592076 0.998219 1 
0.0557093 0.244417 0.0527025 0.0377312 -0.142921 0.989015 1 
0.0565026 0.244665 0.052459 -0.436212 0.748968 0.498764 1 
0.0557433 0.243733 0.0525276 0.00727111 -0.0592076 0.998219 1 
0.0560492 0.244048 0.0526126 0.44466 0.316723 0.837833 1 
0.0562539 0.24408 0.0526966 0.44466 0.316723 0.837833 1 
0.0564182 0.244022 0.0525566 0.594152 0.570454 0.567068 1 
0.05647 0.243897 0.0525981 0.44466 0.316723 0.837833 1 
0.0565138 0.244412 0.052649 0.541799 -0.0962879 0.834974 1 
0.0565801 0.244459 0.0527073 0.510383 -0.0570182 0.858055 1 
0.0557982 0.243995 0.0527684 0.00727111 -0.0592076 0.998219 1 
0.0568504 0.243655 0.0523597 0.232596 0.05538 0.970995 1 
0.0583317 0.242561 0.0515545 0.739351 0.352613 0.573606 1 
0.0553102 0.243179 0.052607 0.00711687 -0.033551 0.999412 1 
0.058701 0.242572 0.0511262 0.960739 0.234614 0.148109 1 
0.059177 0.24272 0.0509801 0.793494 -0.0792054 -0.603401 1 
0.0591161 0.242529 0.0512028 0.756524 -0.0798634 -0.649071 1 
0.0590901 0.242573 0.0513683 0.881789 -0.0228164 -0.471093 1 
0.0594595 0.242584 0.05094 0.76072 -0.0238163 -0.648643 1 
0.0589848 0.240983 0.0510502 0.792125 -0.0977392 0.602482 1 
0.0589239 0.240792 0.051273 0.776005 -0.142043 0.614524 1 
0.0594122 0.241644 0.0510621 0.296942 0.106899 0.948893 1 
0.0593951 0.241968 0.0513357 0.945039 -0.0994081 -0.311479 1 
0.0594005 0.241823 0.0516168 0.445968 -0.0559165 0.8933 1 
0.0595706 0.241657 0.0513857 0.273596 0.140135 0.951581 1 
0.0596892 0.241652 0.0507408 0.895819 -0.168777 -0.411124 1 
0.0593333 0.240857 0.0514408 0.763344 -0.152067 0.627839 1 
0.058124 0.239732 0.0514901 0.706243 -0.275801 0.652039 1 
0.0578908 0.240239 0.0518622 0.183782 0.503533 0.844203 1 
0.0583636 0.24 0.0515167 0.320502 -0.819413 -0.475228 1 
0.0582509 0.239933 0.051698 0.739197 -0.310817 0.597478 1 
0.0580663 0.239928 0.0519122 0.837163 -0.25747 0.482563 1 
0.0579739 0.239925 0.0520193 0.837163 -0.25747 0.482563 1 
0.0579708 0.239538 0.0518199 0.865418 -0.376603 0.330488 1 
0.0578727 0.239643 0.0520182 0.865418 -0.376603 0.330488 1 
0.0588049 0.23995 0.0510555 0.63298 -0.0526298 0.772377 1 
0.0586203 0.239944 0.0512697 0.639705 -0.0439708 0.767362 1 
0.0585797 0.239817 0.0514182 0.607086 -0.0293076 0.794096 1 
0.0587146 0.239378 0.0516167 0.614027 0.0977193 0.783213 1 
0.0585067 0.238958 0.0513334 0.691807 -0.217068 0.688683 1 
0.0588792 0.239356 0.0511045 0.63089 0.0736279 0.772371 1 
0.0584096 0.239983 0.0516494 0.667001 -0.159533 0.727776 1 
0.0582767 0.239853 0.051905 0.706796 -0.0296262 0.706796 1 
0.0582044 0.239877 0.0523101 0.866056 -0.429236 0.256328 1 
0.058291 0.239988 0.0522943 0.864362 -0.441986 0.239849 1 
0.0584642 0.240209 0.0522625 0.818123 -0.509574 0.266474 1 
0.0587475 0.240183 0.0511053 0.635671 -0.0557105 0.769947 1 
0.0588947 0.240448 0.051239 0.656275 -0.067791 0.751471 1 
0.0588598 0.240212 0.0512963 0.630745 -0.0586407 0.773771 1 
0.0595323 0.240997 0.051616 0.739243 -0.101407 0.66576 1 
0.0592108 0.239591 0.0513964 0.646919 0.0294692 0.761989 1 
0.0617455 0.238303 0.048693 0.968681 0.246728 -0.0279544 1 
0.0618953 0.238073 0.0485362 0.94177 0.319267 -0.105532 1 
0.0614571 0.238511 0.0491967 0.641178 -0.272063 0.717546 1 
0.0621054 0.237961 0.0489012 0.94177 0.319267 -0.105532 1 
0.0620445 0.237769 0.049124 0.94177 0.319267 -0.105532 1 
0.061617 0.240327 0.050128 0.428376 -0.503875 0.750069 1 
0.0615844 0.239559 0.050267 0.449835 -0.427099 0.784369 1 
0.0614546 0.239816 0.050722 0.454657 -0.464505 0.759949 1 
0.061755 0.239466 0.0492912 0.804193 -0.103626 0.585266 1 
0.0619657 0.239427 0.0489116 0.976326 0.149144 0.156663 1 
0.0621647 0.239568 0.0490867 0.980792 0.14853 0.126435 1 
0.062026 0.239545 0.0494335 0.983828 0.158991 0.0824838 1 
0.0623465 0.240032 0.0495355 0.97191 0.149035 0.182153 1 
0.0618462 0.238512 0.0494389 0.968613 0.246711 0.0303831 1 
0.0618379 0.239115 0.0498207 0.546776 -0.264771 0.794313 1 
0.061783 0.238853 0.0495799 0.641178 -0.272063 0.717546 1 
0.0623707 0.238148 0.0491348 0.968681 0.246728 -0.0279544 1 
0.0622152 0.238486 0.0493829 0.968613 0.246711 0.0303831 1 
0.0621778 0.238746 0.0497308 0.968613 0.246711 0.0303831 1 
0.0622815 0.238533 0.0494412 0.968613 0.246711 0.0303831 1 
0.062411 0.238239 0.0493586 0.968681 0.246728 -0.0279544 1 
0.0618338 0.237808 0.0495036 0.941192 0.329483 -0.0748228 1 
0.0621543 0.238295 0.0496056 0.969117 0.244407 0.0328308 1 
0.0622061 0.23817 0.0496471 0.968681 0.246728 -0.0279544 1 
0.0619211 0.238802 0.0499778 0.63692 -0.268427 0.722689 1 
0.0622755 0.238604 0.0499048 0.968613 0.246711 0.0303831 1 
0.0600407 0.238659 0.0506873 0.369792 -0.273976 0.887801 1 
0.0600012 0.239487 0.0505811 0.367107 -0.107812 0.92391 1 
0.060125 0.239301 0.0505897 0.420448 -0.181855 0.888905 1 
0.0599112 0.238952 0.05077 0.336764 -0.0533101 0.940079 1 
0.0599403 0.239296 0.0508039 0.367957 -0.0849131 0.925958 1 
0.0559856 0.237878 0.0514667 0.224868 0.509394 -0.830634 1 
0.0566428 0.237608 0.0512793 0.427147 0.532697 -0.730602 1 
0.0563109 0.237337 0.0513598 0.188695 0.378831 -0.906025 1 
0.0563423 0.237148 0.0514755 0.506712 0.480131 -0.716043 1 
0.0566854 0.237166 0.0515849 0.631236 0.431373 -0.644561 1 
0.0569735 0.236922 0.0514536 0.590108 0.48251 -0.647269 1 
0.0571124 0.236981 0.0507345 0.478214 0.514872 -0.71149 1 
0.0571553 0.236577 0.0506677 0.478214 0.514872 -0.71149 1 
0.0570741 0.236321 0.0509647 0.657787 0.647895 -0.384121 1 
0.0568532 0.237532 0.0512721 0.514051 0.470797 -0.717009 1 
0.0570173 0.237437 0.0515045 0.658682 0.369585 -0.655397 1 
0.057061 0.237953 0.0515554 0.879461 -0.0228956 -0.475421 1 
0.0571668 0.23717 0.05172 0.637011 0.453097 -0.623635 1 
0.0570195 0.236905 0.0515863 0.637485 0.482739 -0.60048 1 
0.0574901 0.237198 0.051159 0.548122 0.381231 -0.744464 1 
0.0576484 0.237211 0.0514827 0.646239 0.366695 -0.66926 1 
0.0581467 0.236855 0.0517164 0.681906 0.451825 -0.575202 1 
0.0569443 0.236579 0.0514197 0.654112 0.546495 -0.522954 1 
0.0574228 0.236232 0.050983 0.6814 0.618705 -0.391021 1 
0.0577053 0.236095 0.0509429 0.6814 0.618705 -0.391021 1 
0.0582644 0.23593 0.0509539 0.740878 0.565021 -0.363112 1 
0.0577253 0.236122 0.051241 0.6814 0.618705 -0.391021 1 
0.0570845 0.238404 0.0516805 0.913509 -0.35135 -0.205073 1 
0.0572584 0.239508 0.0521388 0.853929 -0.313468 0.415383 1 
0.0575643 0.239823 0.0522238 0.855851 -0.313041 0.411734 1 
0.0578118 0.239451 0.052241 0.855851 -0.313041 0.411734 1 
0.0580279 0.239268 0.0521425 0.855851 -0.313041 0.411734 1 
0.0580076 0.239204 0.0522167 0.855851 -0.313041 0.411734 1 
0.0573359 0.239303 0.0523871 0.877972 -0.435297 0.199204 1 
0.0576846 0.239213 0.0524054 0.878722 -0.228259 0.41922 1 
0.0574685 0.239396 0.0525039 0.856103 -0.303878 0.418025 1 
0.0577509 0.23926 0.0524637 0.878722 -0.228259 0.41922 1 
0.0576643 0.239149 0.0524796 0.895152 -0.386576 0.221951 1 
0.0576237 0.239022 0.0526281 0.907075 -0.410048 0.0952636 1 
0.0578195 0.238774 0.0526039 0.909203 -0.40729 0.0863949 1 
0.0575596 0.238442 0.0526515 0.864407 -0.27289 -0.422294 1 
0.0577351 0.238131 0.0527015 0.894799 -0.231439 -0.3818 1 
0.0577148 0.238068 0.0527757 0.892265 -0.181355 -0.413489 1 
0.0579138 0.238208 0.0529509 0.942196 -0.213822 -0.257966 1 
0.0580176 0.237995 0.0526614 0.876561 -0.187098 -0.443437 1 
0.0583596 0.239502 0.0524344 0.856867 -0.478355 0.192236 1 
0.058167 0.240137 0.052658 0.851473 -0.480743 0.209477 1 
0.0584494 0.24 0.0526179 0.879167 -0.429979 0.205385 1 
0.0584976 0.239451 0.0528323 0.89828 -0.396172 0.190105 1 
0.0587981 0.239911 0.0526362 0.87115 -0.445255 0.206991 1 
0.0585148 0.239127 0.0525586 0.791309 0.0180158 0.611151 1 
0.0580392 0.236607 0.0525513 0.69567 0.455439 -0.555535 1 
0.0578349 0.237421 0.0533297 0.872239 0.050984 -0.486415 1 
0.0579751 0.236028 0.0525746 0.675541 0.528028 -0.514618 1 
0.0623681 0.237834 0.0481907 0.9283 0.35136 -0.121677 1 
0.0621114 0.23789 0.0484377 0.94177 0.319267 -0.105532 1 
0.0624658 0.237692 0.0483647 0.927329 0.354768 -0.119169 1 
0.0626099 0.23757 0.0482991 0.864134 0.46117 -0.201482 1 
0.0621136 0.237357 0.0485194 0.767664 0.580892 -0.270661 1 
0.0622294 0.237812 0.0485375 0.94177 0.319267 -0.105532 1 
0.0623012 0.237714 0.048877 0.94177 0.319267 -0.105532 1 
0.0626699 0.237651 0.0491934 0.94177 0.319267 -0.105532 1 
0.0629343 0.236919 0.0493093 0.841609 0.491573 -0.223719 1 
0.0540506 0.247201 0.0542382 0.642141 -0.351298 0.681355 1 
0.0533697 0.246983 0.0546728 0.756498 0.113993 0.643985 1 
0.0532774 0.24698 0.0547799 0.800643 0.0912125 0.592158 1 
0.0537705 0.246805 0.0543601 0.653561 -0.0646379 0.754109 1 
0.0537096 0.246614 0.0545829 0.702092 0.0770411 0.707906 1 
0.0587973 0.244655 0.0529432 -0.705475 -0.627629 0.329222 1 
0.0588659 0.244169 0.0530833 -0.461091 -0.700792 0.544321 1 
0.0588944 0.24363 0.0526272 -0.403157 -0.638747 0.655337 1 
0.0592629 0.24353 0.053316 -0.312272 -0.690882 0.65205 1 
0.058841 0.24517 0.052994 -0.783632 -0.556584 0.275927 1 
0.0588208 0.245106 0.0530683 -0.787895 -0.519403 0.33082 1 
0.0588959 0.245433 0.0532349 -0.802743 -0.508246 0.311914 1 
0.0587484 0.245131 0.0534735 -0.683825 -0.546726 0.483192 1 
0.0588068 0.245818 0.0535413 -0.756048 -0.503485 0.418204 1 
0.0591236 0.245843 0.0541886 -0.417618 -0.623931 0.660535 1 
0.0591556 0.245728 0.0535596 -0.742151 -0.511771 0.432784 1 
0.0587459 0.245626 0.0537641 -0.679374 -0.541822 0.494853 1 
0.058962 0.245443 0.0536656 -0.597373 -0.58045 0.553374 1 
0.0587256 0.245562 0.0538384 -0.535832 -0.576399 0.616967 1 
0.0589303 0.245595 0.0539223 -0.449141 -0.60275 0.659519 1 
0.0590337 0.245345 0.0540051 -0.355059 -0.659396 0.662669 1 
0.0584372 0.24577 0.0543421 -0.456717 -0.63405 0.624012 1 
0.0586533 0.245587 0.0542435 -0.354786 -0.688317 0.632729 1 
0.0588951 0.245322 0.0543519 -0.355796 -0.670601 0.650926 1 
0.0592845 0.24536 0.0542217 -0.3478 -0.658045 0.667842 1 
0.0594691 0.244556 0.0527728 -0.676518 -0.660294 0.326091 1 
0.0594722 0.244944 0.0529722 -0.696206 -0.637783 0.32944 1 
0.058777 0.244591 0.0530174 -0.666485 -0.666485 0.334057 1 
0.0594082 0.244365 0.0529956 -0.501191 -0.685575 0.52801 1 
0.059319 0.24475 0.0533021 -0.412975 -0.668389 0.618633 1 
0.0594831 0.244655 0.0535345 -0.355796 -0.670601 0.650926 1 
0.0596071 0.244505 0.0531707 -0.355815 -0.667358 0.65424 1 
0.0598495 0.244315 0.0525344 -0.683338 -0.607227 0.40537 1 
0.0597886 0.244123 0.0527572 -0.485917 -0.702993 0.519313 1 
0.0600656 0.244131 0.0524359 -0.484777 -0.704676 0.518095 1 
0.0597715 0.244447 0.0530308 -0.355815 -0.65424 0.667358 1 
0.0599844 0.243876 0.0527329 -0.318604 -0.638825 0.700282 1 
0.0597569 0.244275 0.0530139 -0.362272 -0.6475 0.670449 1 
0.0599673 0.2442 0.0530066 -0.370285 -0.640181 0.673095 1 
0.0598232 0.244322 0.0530722 -0.355815 -0.65424 0.667358 1 
0.0601 0.244293 0.0531233 -0.370285 -0.640181 0.673095 1 
0.060086 0.245005 0.0535964 -0.347808 -0.66459 0.661324 1 
0.0593739 0.245012 0.0535429 -0.412902 -0.671588 0.615208 1 
0.0598061 0.244646 0.0533459 -0.355815 -0.667358 0.65424 1 
0.0598261 0.244673 0.053644 -0.355815 -0.667358 0.65424 1 
0.0598753 0.245043 0.053976 -0.359419 -0.671244 0.648267 1 
0.0600657 0.244941 0.0536706 -0.355826 -0.6641 0.657541 1 
0.060132 0.244988 0.053729 -0.365889 -0.67107 0.644818 1 
0.060515 0.244251 0.0532 -0.336891 -0.652625 0.678665 1 
0.0602818 0.244758 0.0535721 -0.362319 -0.65742 0.660699 1 
0.0603481 0.244805 0.0536305 -0.373204 -0.662561 0.649408 1 
0.0599064 0.244008 0.0532293 -0.358655 -0.669816 0.650164 1 
0.057934 0.247927 0.0559242 -0.721359 0.611129 0.325827 1 
0.0582049 0.248006 0.0560665 -0.721359 0.611129 0.325827 1 
0.0578647 0.247529 0.0552941 -0.950967 -0.274189 -0.143113 1 
0.0580808 0.247346 0.0551956 -0.96573 -0.227609 -0.124735 1 
0.0586165 0.24673 0.0550814 -0.847508 -0.398001 0.351177 1 
0.0582221 0.247683 0.0557929 0.214703 0.922796 0.319922 1 
0.0600039 0.247858 0.0560263 -0.483656 0.869446 -0.100703 1 
0.0591207 0.246302 0.0548516 -0.370061 -0.546125 0.751533 1 
0.0601069 0.245952 0.0540121 -0.231439 -0.3818 0.894799 1 
0.0601499 0.246357 0.05518 -0.498492 -0.210609 0.840922 1 
0.0606427 0.246145 0.0551327 -0.988161 0.153316 0.00559548 1 
0.0600512 0.245579 0.0548883 -0.30861 -0.696392 0.647919 1 
0.0600317 0.245625 0.0538456 -0.351923 -0.633461 0.689114 1 
0.0603805 0.245536 0.0538638 -0.358551 -0.640152 0.679446 1 
0.0601869 0.24525 0.0539698 -0.340088 -0.626479 0.70133 1 
0.0601464 0.245123 0.0541183 -0.355059 -0.659396 0.662669 1 
0.060008 0.245137 0.0540928 -0.355059 -0.659396 0.662669 1 
0.060279 0.245216 0.0542351 -0.363042 -0.671874 0.64559 1 
0.0604637 0.245222 0.0540209 -0.359187 -0.631447 0.687211 1 
0.060602 0.245208 0.0540465 -0.373856 -0.634072 0.676893 1 
0.0604894 0.245141 0.0542278 -0.384892 -0.665714 0.639284 1 
0.0605443 0.245404 0.0544686 -0.325707 -0.607663 0.724334 1 
0.0609273 0.244667 0.0539396 -0.373904 -0.673687 0.637449 1 
0.0604608 0.245681 0.0546839 -0.287644 -0.564164 0.773938 1 
0.0610029 0.245839 0.0549685 0.211187 -0.258117 0.942749 1 
0.0602295 0.244809 0.0542754 -0.348559 -0.666027 0.659481 1 
0.0600683 0.245255 0.0546147 -0.377633 -0.664569 0.64478 1 
0.060452 0.245401 0.0545757 -0.318514 -0.609542 0.725953 1 
0.0609904 0.244326 0.0537986 -0.362272 -0.670449 0.6475 1 
0.058213 0.24093 0.0540253 0.934947 -0.347795 0.070088 1 
0.0588163 0.242126 0.0549496 0.833413 -0.0490243 -0.550473 1 
0.0586656 0.241436 0.0549888 0.833413 -0.0490243 -0.550473 1 
0.0587897 0.241287 0.054625 0.833413 -0.0490243 -0.550473 1 
0.0588535 0.241829 0.054974 0.833413 -0.0490243 -0.550473 1 
0.0587148 0.241807 0.0553208 0.833413 -0.0490243 -0.550473 1 
0.0581522 0.240738 0.0542481 0.926783 -0.3623 0.0990559 1 
0.0584667 0.241296 0.0548137 0.833413 -0.0490243 -0.550473 1 
0.0585701 0.241046 0.0548965 0.833413 -0.0490243 -0.550473 1 
0.0584956 0.241603 0.0552199 0.833413 -0.0490243 -0.550473 1 
0.058455 0.241475 0.0553684 0.833413 -0.0490243 -0.550473 1 
0.0589084 0.242092 0.0552148 0.841401 -0.0692918 -0.535951 1 
0.0589027 0.2422 0.0553061 0.844758 -0.0840484 -0.528508 1 
0.0591188 0.242017 0.0552076 0.841401 -0.0692918 -0.535951 1 
0.0590579 0.241825 0.0554303 0.833413 -0.0490243 -0.550473 1 
0.0592311 0.242047 0.0553986 0.844758 -0.0840484 -0.528508 1 
0.0593235 0.242049 0.0552915 0.844758 -0.0840484 -0.528508 1 
0.0596059 0.241913 0.0552514 0.814564 -0.0464259 -0.578214 1 
0.0591128 0.242088 0.0556711 0.681495 0.16923 -0.711987 1 
0.0593086 0.241841 0.0556469 0.814564 -0.0464259 -0.578214 1 
0.0611446 0.241412 0.0513358 -0.326112 -0.666826 0.670071 1 
0.0602154 0.243901 0.0522791 -0.406287 -0.681568 0.608602 1 
0.0601345 0.243683 0.0522037 -0.499424 -0.637312 0.586865 1 
0.0602614 0.243884 0.0524117 -0.384017 -0.700459 0.601571 1 
0.0604224 0.243401 0.0524447 -0.349789 -0.590573 0.727235 1 
0.0603881 0.244049 0.052992 -0.340565 -0.663205 0.666464 1 
0.0605493 0.243603 0.0526527 -0.340413 -0.643364 0.685712 1 
0.0608631 0.243278 0.0527283 -0.376001 -0.60587 0.701102 1 
0.0604544 0.244096 0.0530504 -0.334054 -0.669737 0.663219 1 
0.0606705 0.243913 0.0529519 -0.311646 -0.657202 0.686267 1 
0.0608866 0.243729 0.0528534 -0.344667 -0.635428 0.690967 1 
0.0610279 0.244066 0.0534507 -0.370241 -0.676306 0.636814 1 
0.0612845 0.24401 0.0532037 -0.373945 -0.670465 0.640813 1 
0.0611027 0.243546 0.0527549 -0.406542 -0.61894 0.672039 1 
0.0612611 0.243559 0.0530786 -0.406609 -0.622361 0.668831 1 
0.0610853 0.243833 0.0534009 -0.366624 -0.675706 0.639537 1 
0.0615566 0.241791 0.0524478 0.721359 -0.611129 -0.325827 1 
0.0618561 0.241331 0.0521341 0.721359 -0.611129 -0.325827 1 
0.0618069 0.24096 0.051802 0.721359 -0.611129 -0.325827 1 
0.0615756 0.244117 0.0536441 -0.412821 -0.674771 0.61177 1 
0.061659 0.24384 0.0534289 -0.416916 -0.686002 0.596307 1 
0.0614055 0.244283 0.0538752 -0.398551 -0.666456 0.630074 1 
0.0613446 0.244091 0.054098 -0.362319 -0.65742 0.660699 1 
0.0617971 0.243789 0.0538268 -0.40221 -0.66373 0.630626 1 
0.0583863 0.241151 0.0539936 0.855209 -0.498507 0.141804 1 
0.0583368 0.240743 0.0540339 0.936623 -0.342151 0.0752997 1 
0.0585672 0.240695 0.0543247 0.797669 -0.560066 0.223718 1 
0.0585561 0.240948 0.0541348 0.855209 -0.498507 0.141804 1 
0.0585501 0.241019 0.0545984 0.833413 -0.0490243 -0.550473 1 
0.0583479 0.240491 0.0542239 0.96741 -0.250719 0.0354676 1 
0.0583308 0.240815 0.0544975 0.906006 -0.421738 -0.0359209 1 
0.0584454 0.240312 0.0547703 0.827914 -0.0462287 -0.558947 1 
0.0584311 0.240177 0.054381 0.98181 -0.187957 0.0268509 1 
0.0586444 0.240453 0.0549454 0.833413 -0.0490243 -0.550473 1 
0.0596891 0.241599 0.0554085 0.814564 -0.0464259 -0.578214 1 
0.0607561 0.247904 0.056676 -0.879713 0.467216 -0.0883923 1 
0.0607018 0.248525 0.0569252 -0.975576 0.207387 0.0724012 1 
0.0606612 0.248397 0.0570737 -0.976326 0.156663 0.149144 1 
0.0606792 0.248993 0.0569177 -0.879548 -0.463144 0.109058 1 
0.060771 0.248922 0.0575553 -0.616017 -0.548509 0.565386 1 
0.0607938 0.248491 0.0571905 -0.976326 0.156663 0.149144 1 
0.060785 0.248211 0.0570823 -0.976326 0.156663 0.149144 1 
0.0608567 0.248113 0.0574218 -0.917051 0.38199 0.114459 1 
0.0605574 0.24861 0.0573632 0.0655742 -0.971241 0.228891 1 
0.0606844 0.248812 0.0575712 -0.917051 0.38199 0.114459 1 
0.060494 0.248914 0.0578766 -0.73736 -0.506419 0.447035 1 
0.0611829 0.248492 0.0574326 0.0655742 -0.971241 0.228891 1 
0.0613413 0.248505 0.0577562 -0.73736 -0.506419 0.447035 1 
0.0608281 0.247843 0.0566432 -0.890013 0.444306 -0.102316 1 
0.0775999 0.25112 -0.0104293 -0.08338 -0.987642 0.132703 0 
0.076192 0.251511 -0.0084582 -0.380769 -0.908426 0.172558 0 
0.0771151 0.251501 -0.0091567 -0.250647 -0.952995 0.170226 0 
0.0772651 0.251308 -0.00968594 -0.239759 -0.946704 0.215098 0 
0.0772508 0.251173 -0.0100752 -0.161997 -0.960126 0.227849 0 
0.0770513 0.250959 -0.00950568 -0.197435 -0.954939 0.22161 0 
0.0771899 0.250981 -0.00985248 -0.198523 -0.946065 0.256026 0 
0.0763421 0.251317 -0.00898744 -0.303475 -0.9328 0.194392 0 
0.0767054 0.251399 -0.00895221 -0.23811 -0.956433 0.168939 0 
0.0759868 0.251405 -0.00779742 -0.231616 -0.963989 0.130688 0 
0.077539 0.250928 -0.0102066 -0.099058 -0.989414 0.10605 0 
0.0776161 0.250686 -0.00958592 -0.192432 -0.959508 0.205704 0 
0.0776419 0.250605 -0.00937902 -0.245896 -0.952679 0.178711 0 
0.0756182 0.253087 -0.0056444 -0.469258 -0.855529 -0.218786 0 
0.0765255 0.252758 -0.00487043 -0.699299 -0.657693 -0.280039 0 
0.0783723 0.25123 -0.00985388 0.0272618 -0.977871 0.207427 0 
0.079641 0.251553 -0.00949879 0.513758 -0.694494 0.503717 0 
0.0797015 0.250898 -0.0105839 0.721359 -0.611129 -0.325827 0 
0.0759182 0.25189 -0.00793757 -0.390423 -0.910987 0.13294 0 
0.0764113 0.251715 -0.00835731 -0.376238 -0.916118 0.138467 0 
0.0766566 0.251875 -0.00842189 -0.376238 -0.916118 0.138467 0 
0.0768813 0.251935 -0.00803985 -0.33429 -0.931335 0.144446 0 
0.0763075 0.251928 -0.00806779 0.0192044 -0.988462 0.150246 0 
0.07659 0.251792 -0.00810792 -0.385472 -0.910731 0.148259 0 
0.0765323 0.251988 -0.00768577 -0.292097 -0.946286 0.138645 0 
0.0767541 0.251697 -0.00787547 -0.403314 -0.904273 0.140099 0 
0.0779913 0.251399 -0.00887077 -0.215179 -0.963742 0.157798 0 
0.0767603 0.251662 -0.0087114 -0.268442 -0.952233 0.145573 0 
0.0771142 0.251391 -0.00803962 -0.338325 -0.929357 0.147758 0 
0.0779392 0.251487 -0.00853983 -0.231117 -0.964493 0.127824 0 
0.0779304 0.251207 -0.008648 -0.234203 -0.96167 0.142615 0 
0.0773275 0.250857 -0.00870986 -0.267285 -0.953448 0.139626 0 
0.077858 0.251231 -0.00824281 -0.33733 -0.932779 0.127011 0 
0.0780741 0.251048 -0.00834131 -0.251464 -0.960252 0.121172 0 
0.0773573 0.252084 -0.00818596 -0.287447 -0.94601 0.149796 0 
0.0775734 0.2519 -0.00828446 -0.293917 -0.946171 0.135551 0 
0.0772761 0.251828 -0.00788895 -0.328544 -0.933394 0.144339 0 
0.0772355 0.251701 -0.00774045 -0.365489 -0.922687 0.122749 0 
0.0777083 0.251462 -0.00808593 -0.293917 -0.946171 0.135551 0 
0.0774516 0.251517 -0.00783893 -0.32597 -0.937333 0.123084 0 
0.0776014 0.251287 -0.00799581 -0.292097 -0.946286 0.138645 0 
0.0778175 0.251104 -0.00809431 -0.293917 -0.946171 0.135551 0 
0.0758573 0.251699 -0.00771479 -0.201447 -0.971759 0.122895 0 
0.0762295 0.25206 -0.0075714 -0.209818 -0.970249 0.120804 0 
0.0762553 0.25198 -0.00736451 -0.261856 -0.95663 0.127638 0 
0.0759954 0.251648 -0.00731689 -0.314185 -0.937067 0.152291 0 
0.0767281 0.251741 -0.00771 -0.448204 -0.88352 0.136036 0 
0.0771575 0.251833 -0.00724404 0.149262 -0.948017 0.281043 0 
0.0772844 0.252034 -0.00703606 0.0594328 -0.959777 0.274402 0 
0.0772235 0.251843 -0.0068133 -0.0795483 -0.965944 0.246221 0 
0.0771626 0.251651 -0.00659054 -0.0638777 -0.965681 0.251753 0 
0.0775405 0.251096 -0.00777305 -0.314536 -0.940907 0.125544 0 
0.0773073 0.251603 -0.0074009 -0.402889 -0.907546 0.118497 0 
0.0773907 0.251326 -0.00761616 -0.351272 -0.927083 0.130866 0 
0.0774567 0.251336 -0.00718543 -0.434363 -0.895263 0.0991633 0 
0.0773298 0.251134 -0.00739341 -0.413353 -0.901476 0.128379 0 
0.0772406 0.251519 -0.00708693 -0.4643 -0.878904 0.109331 0 
0.0773124 0.251421 -0.00674741 -0.497128 -0.854943 0.148112 0 
0.0773958 0.251144 -0.00696267 -0.442897 -0.890012 0.108264 0 
0.0772718 0.251294 -0.0065989 0.0327729 -0.969835 0.241548 0 
0.077411 0.252199 -0.00645572 -0.175342 -0.947393 0.267771 0 
0.0769031 0.252166 -0.00568058 -0.664449 -0.747332 0.00138139 0 
0.0769748 0.252068 -0.00534105 -0.839043 -0.432802 -0.32968 0 
0.0771455 0.251975 -0.00631689 -0.580444 -0.797545 0.164334 0 
0.0772893 0.251816 -0.0060102 -0.798281 -0.600477 0.0466253 0 
0.0773064 0.251492 -0.00628385 -0.178304 -0.945962 0.270858 0 
0.0770529 0.251936 -0.00583744 -0.699261 -0.713502 0.0441488 0 
0.0772284 0.251625 -0.00578743 -0.749019 -0.661891 0.0295111 0 
0.076978 0.252456 -0.00514167 -0.795483 -0.500978 -0.340921 0 
0.0767416 0.252575 -0.00496892 -0.736332 -0.611747 -0.289102 0 
0.0786173 0.251354 -0.00954611 -0.0150146 -0.982879 0.18364 0 
0.0782965 0.25083 -0.00927572 -0.0320886 -0.978109 0.205605 0 
0.0782997 0.251218 -0.00907634 -0.135968 -0.976723 0.165906 0 
0.0785564 0.251162 -0.00932335 -0.019832 -0.981099 0.192487 0 
0.0786922 0.251644 -0.00900719 -0.0620306 -0.976678 0.205552 0 
0.0782388 0.251027 -0.00885358 -0.20188 -0.971311 0.125699 0 
0.0783683 0.250733 -0.0089362 -0.0360373 -0.984631 0.170886 0 
0.0780507 0.250597 -0.00846644 -0.345934 -0.932812 0.100954 0 
0.0722815 0.253004 0.0045502 -0.900661 -0.370516 -0.226996 0 
0.0722295 0.253092 0.00488114 -0.892368 -0.383289 -0.238261 0 
0.0721372 0.253089 0.00498822 -0.903203 -0.352791 -0.244465 0 
0.0722958 0.253139 0.00493952 -0.892368 -0.383289 -0.238261 0 
0.0725725 0.25311 0.00499063 -0.898682 -0.36918 -0.236805 0 
0.0724253 0.252845 0.0048569 -0.911011 -0.326918 -0.251363 0 
0.0726217 0.253481 0.00532264 -0.846783 -0.500304 -0.180707 0 
0.0728841 0.253317 0.00498443 -0.911011 -0.326918 -0.251363 0 
0.071903 0.252676 0.00524272 -0.836029 -0.505259 -0.213938 0 
0.071843 0.253405 0.00558311 -0.286117 -0.958188 -0.00365256 0 
0.0718024 0.253277 0.00573162 -0.559007 -0.820171 -0.121779 0 
0.0717821 0.253213 0.00580587 -0.219778 -0.975341 0.0201959 0 
0.0721515 0.253224 0.00537754 -0.909843 -0.327544 -0.254756 0 
0.0720591 0.253222 0.00548461 -0.878722 -0.41922 -0.228259 0 
0.0722146 0.252883 0.00523653 -0.910719 -0.338433 -0.236758 0 
0.0723618 0.253149 0.00537026 -0.858963 -0.461824 -0.221134 0 
0.0724447 0.252798 0.00589971 0.444336 -0.875387 0.19043 0 
0.0719631 0.252758 0.00613703 0.624931 -0.752088 0.209344 0 
0.0719865 0.253209 0.00626216 0.765408 -0.600167 0.232272 0 
0.0717987 0.252816 0.00627695 0.765408 -0.600167 0.232272 0 
0.0719256 0.253018 0.00648493 0.774287 -0.598803 0.204732 0 
0.0716198 0.252703 0.00639991 0.845911 -0.488782 0.213369 0 
0.0714382 0.253085 0.00681346 0.724417 -0.662896 0.189179 0 
0.0717984 0.252779 0.0066493 0.711474 -0.677667 0.185936 0 
0.0718361 0.252556 0.00592906 0.609364 -0.748647 0.261156 0 
0.0725343 0.25326 0.00645557 0.94537 -0.229139 0.231883 0 
0.0725291 0.253441 0.00580209 -0.689308 -0.713232 -0.127096 0 
0.0727598 0.25343 0.00572055 -0.741808 -0.654537 -0.145954 0 
0.0724165 0.253375 0.00598343 0.59775 -0.775999 0.201299 0 
0.0726989 0.253238 0.0059433 0.487818 -0.855534 0.173479 0 
0.0730477 0.253149 0.00596158 0.819194 -0.531328 0.2159 0 
0.0726786 0.253174 0.00601756 0.556473 -0.806505 0.19972 0 
0.0723353 0.253119 0.00628044 0.721269 -0.658956 0.213421 0 
0.0722947 0.252992 0.00642895 0.729579 -0.652129 0.206017 0 
0.0715966 0.253098 0.00713712 0.622539 -0.773368 0.119776 0 
0.0716629 0.253144 0.00719549 0.654267 -0.739276 0.159392 0 
0.0720523 0.253182 0.00706526 0.578378 -0.810309 0.094222 0 
0.0719974 0.25292 0.00682445 0.595704 -0.793779 0.122688 0 
0.072084 0.25303 0.00680858 0.595704 -0.793779 0.122688 0 
0.0722513 0.253323 0.00724041 0.779111 -0.602938 0.171617 0 
0.0730814 0.253237 0.00739372 -0.0188415 -0.991947 -0.12524 0 
0.0740588 0.253417 0.00768074 0.197247 -0.959758 -0.199894 0 
0.0712936 0.253134 0.00762383 0.673534 -0.713607 0.192658 0 
0.0715043 0.253095 0.00724421 0.64592 -0.743648 0.172551 0 
0.0717032 0.253235 0.00741935 0.655615 -0.735083 0.172691 0 
0.0714983 0.253166 0.00770776 0.640588 -0.745048 0.185878 0 
0.0718616 0.253248 0.00774301 0.621569 -0.76906 0.148996 0 
0.0712416 0.253222 0.00795477 0.664974 -0.714808 0.216467 0 
0.0711493 0.253219 0.00806186 0.71979 -0.64702 0.251531 0 
0.0714203 0.253298 0.00820418 -0.648929 -0.703407 -0.290015 0 
0.0715847 0.25324 0.00806427 -0.661887 -0.696975 -0.275919 0 
0.0714577 0.253038 0.00785627 -0.706421 -0.658797 -0.258757 0 
0.0716973 0.253307 0.00788291 -0.664384 -0.70244 -0.255288 0 
0.071077 0.253243 0.00846705 -0.577513 -0.719012 -0.386654 0 
0.0711433 0.25329 0.00852543 -0.577513 -0.719012 -0.386654 0 
0.0704075 0.25281 0.00871915 0.204959 -0.899782 -0.385206 0 
0.0707279 0.253296 0.00882114 -0.410173 -0.786299 -0.462052 0 
0.070667 0.253105 0.0090439 -0.0990281 -0.842457 -0.529585 0 
0.0708257 0.253154 0.0089952 -0.287792 -0.809906 -0.511105 0 
0.0708866 0.253346 0.00877244 -0.475224 -0.754768 -0.452203 0 
0.0712353 0.253256 0.00879071 -0.562646 -0.702062 -0.436507 0 
0.0712814 0.253239 0.00892334 -0.54464 -0.716806 -0.435381 0 
0.0710247 0.253295 0.00917034 -0.412461 -0.820144 -0.396536 0 
0.0712811 0.253202 0.00929569 -0.579063 -0.720138 -0.382214 0 
0.0714194 0.253188 0.00932125 -0.579063 -0.720138 -0.382214 0 
0.0715124 0.253264 0.00846945 -0.58483 -0.737112 -0.338586 0 
0.0717227 0.253189 0.00846216 -0.64707 -0.689235 -0.325968 0 
0.0714458 0.253181 0.00878342 -0.594949 -0.687755 -0.415967 0 
0.071691 0.253341 0.00871885 -0.612894 -0.698338 -0.369708 0 
0.0717913 0.252704 0.00860232 -0.595217 -0.691381 -0.409523 0 
0.0716244 0.253257 0.00903283 -0.552935 -0.733419 -0.395423 0 
0.0719283 0.253332 0.00742902 0.686841 -0.705197 0.175917 0 
0.0722939 0.252882 0.00754602 0.83142 -0.536066 0.1462 0 
0.072504 0.25277 0.0079111 0.833585 -0.517034 0.194453 0 
0.0724173 0.252659 0.00792697 0.782623 -0.606046 0.142159 0 
0.0727607 0.252714 0.00766409 -0.257273 -0.9387 -0.22946 0 
0.0726335 0.252476 0.00782848 -0.311925 -0.918525 -0.242928 0 
0.0729362 0.252403 0.0077141 -0.237727 -0.93262 -0.271487 0 
0.071956 0.252682 0.00809003 -0.691598 -0.662715 -0.28723 0 
0.0720998 0.252523 0.00839673 -0.660054 -0.660054 -0.358689 0 
0.0721052 0.252378 0.00867787 -0.648473 -0.655074 -0.387764 0 
0.0706264 0.252977 0.00919241 0.44197 -0.882491 -0.160848 0 
0.0707334 0.253152 0.00910228 0.0703047 -0.932532 -0.354177 0 
0.0706928 0.253024 0.00925079 0.390867 -0.901446 -0.186058 0 
0.0705655 0.252786 0.00941518 0.342374 -0.90369 -0.257148 0 
0.0706319 0.252832 0.00947355 0.342374 -0.90369 -0.257148 0 
0.0706173 0.252661 0.00945659 0.38403 -0.891128 -0.241687 0 
0.0709323 0.253292 0.00927743 -0.321101 -0.864976 -0.385629 0 
0.0709638 0.253103 0.0093931 0.23892 -0.943252 -0.230634 0 
0.0712405 0.253075 0.0094442 0.806474 -0.565286 0.173354 0 
0.0711425 0.25318 0.0096425 0.903086 -0.363277 0.229054 0 
0.0713789 0.253061 0.00946976 -0.600478 -0.673666 -0.430814 0 
0.0715778 0.253201 0.00964491 -0.715906 -0.612011 -0.336038 0 
0.0712751 0.253274 0.00975927 0.712664 -0.698208 0.0679416 0 
0.0708308 0.252973 0.00964871 0.463144 -0.879548 -0.109058 0 
0.0707699 0.252781 0.00987146 0.495187 -0.866923 -0.0568702 0 
0.0710816 0.252988 0.00986526 0.482999 -0.872739 -0.0709883 0 
0.0712142 0.253082 0.00998202 0.571891 -0.820301 0.00682447 0 
0.0711679 0.253062 0.0102218 0.728368 -0.682396 0.0617748 0 
0.0716527 0.252681 0.0089491 -0.61182 -0.615191 -0.497209 0 
0.0718685 0.252461 0.00922298 -0.62519 -0.581376 -0.520711 0 
0.0718076 0.25227 0.00944574 -0.781072 -0.328788 -0.530872 0 
0.0705767 0.252533 0.00960509 0.486121 -0.863409 -0.134953 0 
0.0709534 0.25183 0.00991202 0.711203 -0.690241 0.133257 0 
0.0708217 0.252656 0.00991288 0.540389 -0.84045 -0.0402861 0 
0.070565 0.252712 0.0101599 0.547877 -0.836233 -0.0233431 0 
0.0709689 0.252922 0.0100466 0.611615 -0.791096 0.00966435 0 
0.070908 0.25273 0.0102694 0.633552 -0.772452 0.0439376 0 
0.0707437 0.252789 0.0104093 0.630055 -0.775991 0.029468 0 
0.0707031 0.252661 0.0105578 0.628533 -0.777723 0.00966974 0 
0.0716141 0.251984 0.00955174 0.866115 -0.0398056 0.498257 0 
0.0715969 0.252308 0.00982538 0.894334 -0.352674 0.275294 0 
0.0715563 0.252181 0.00997389 0.753437 -0.642594 0.139304 0 
0.0711524 0.251971 0.0100872 0.737275 -0.644536 0.20248 0 
0.0714869 0.251746 0.00971613 0.821987 -0.38317 0.421328 0 
0.0719465 0.252329 0.00872657 -0.629029 -0.61561 -0.474707 0 
0.0720443 0.252187 0.00890063 -0.675563 -0.561572 -0.477756 0 
0.0719723 0.252248 0.00893347 -0.653713 -0.583132 -0.482303 0 
0.0722347 0.252084 0.00859525 -0.636257 -0.629577 -0.445881 0 
0.0722401 0.25194 0.00887639 -0.675746 -0.55837 -0.481238 0 
0.0719834 0.251995 0.0091234 -0.731784 -0.360188 -0.578582 0 
0.0718911 0.251993 0.00923048 -0.711215 -0.382709 -0.589667 0 
0.0726206 0.251698 0.00863798 -0.710048 -0.523806 -0.470594 0 
0.0718505 0.251865 0.00937899 -0.709933 -0.35415 -0.608747 0 
0.0718413 0.251549 0.00964317 0.828419 -0.0904513 0.552758 0 
0.0714855 0.253198 0.00975199 -0.68715 -0.641449 -0.341127 0 
0.0710035 0.253121 0.0103617 0.705318 -0.708145 0.0325097 0 
0.0715504 0.252252 0.0104375 0.861505 -0.482854 0.157038 0 
0.07181 0.252547 0.0107622 0.98654 0.00338242 0.163484 0 
0.0691221 0.252814 0.016856 -0.883319 0.38842 -0.262446 0 
0.0692548 0.252908 0.0169727 -0.883319 0.38842 -0.262446 0 
0.0688105 0.252607 0.0168622 -0.912306 0.286642 -0.292462 0 
0.0687788 0.252759 0.0171189 -0.936858 0.129175 -0.324977 0 
0.0687382 0.252631 0.0172674 -0.931163 0.15358 -0.33068 0 
0.0690095 0.252747 0.0170373 -0.897106 0.3366 -0.286184 0 
0.0690644 0.25301 0.0172781 -0.933174 0.155759 -0.323923 0 
0.0692805 0.252827 0.0171796 -0.897106 0.3366 -0.286184 0 
0.0689575 0.252836 0.0173682 -0.931163 0.15358 -0.33068 0 
0.0690238 0.252882 0.0174266 -0.938671 0.0480371 -0.341453 0 
0.0692431 0.253087 0.0175275 -0.931163 0.15358 -0.33068 0 
0.0688448 0.252769 0.0175496 -0.935445 -0.0754177 -0.345334 0 
0.0686545 0.252872 0.017855 -0.947478 -0.0797188 -0.309727 0 
0.0688997 0.253032 0.0177904 -0.938927 -0.0918949 -0.331621 0 
0.0689863 0.253142 0.0177745 -0.933409 -0.0980415 -0.34516 0 
0.0688591 0.252904 0.0179389 -0.946902 -0.0770582 -0.312151 0 
0.0689254 0.252951 0.0179973 -0.936028 -0.12906 -0.327406 0 
0.0686687 0.253007 0.0182443 -0.941502 -0.108173 -0.319176 0 
0.0685358 0.252876 0.0184999 -0.952227 0.0161816 -0.304962 0 
0.0683715 0.252934 0.0186398 -0.95473 0.0211059 -0.296724 0 
0.0682588 0.252868 0.0188211 -0.962989 -0.123128 -0.239775 0 
0.0686482 0.252906 0.0186909 -0.961891 -0.120723 -0.245341 0 
0.0686076 0.252778 0.0188394 -0.968566 -0.102554 -0.226632 0 
0.0686796 0.252717 0.0188066 -0.968862 -0.129267 -0.211179 0 
0.0684352 0.252667 0.0177541 -0.947478 -0.0797188 -0.309727 0 
0.0686139 0.252744 0.0180035 -0.946587 -0.0742166 -0.313793 0 
0.0683946 0.25254 0.0179026 -0.945752 -0.085262 -0.313502 0 
0.0689052 0.252887 0.0180715 -0.940613 -0.111371 -0.320694 0 
0.0687519 0.252693 0.0184014 -0.953295 0.0237387 -0.301106 0 
0.0690807 0.252576 0.0181216 -0.9468 -0.0851203 -0.310362 0 
0.0689477 0.252446 0.0183772 -0.9412 -0.0667611 -0.331187 0 
0.0691953 0.252074 0.0183943 -0.344582 0.937523 0.0481114 0 
0.0706251 0.252793 0.0110542 0.723546 -0.689957 0.0209926 0 
0.0706048 0.25273 0.0111284 0.728984 -0.684209 0.020988 0 
0.0705439 0.252538 0.0113512 0.663983 -0.746448 0.044076 0 
0.0702322 0.252331 0.0113574 0.579564 -0.81139 0.0758442 0 
0.070483 0.252347 0.011574 0.576366 -0.809831 0.109437 0 
0.0707577 0.252887 0.011171 0.728889 -0.68463 -0.00138309 0 
0.0707374 0.252823 0.0112452 0.716726 -0.697242 0.0125253 0 
0.0709478 0.252748 0.0112379 0.802272 -0.59649 0.0236371 0 
0.0706968 0.252696 0.0113937 0.709612 -0.703969 0.029626 0 
0.0706302 0.252612 0.0117077 0.65891 -0.74657 0.0920428 0 
0.0706851 0.252875 0.0119485 0.178055 -0.973619 0.142696 0 
0.0708958 0.252836 0.0115689 0.877652 -0.476597 0.0508187 0 
0.0710024 0.252974 0.0118511 0.163135 -0.977564 0.133248 0 
0.0707917 0.253012 0.0122307 0.511402 -0.843442 0.164538 0 
0.0711002 0.252832 0.0120252 0.469904 -0.875923 0.109313 0 
0.0704596 0.252705 0.0126835 0.889564 -0.408877 0.203706 0 
0.0703469 0.252638 0.0128649 0.815962 0.573879 0.0697769 0 
0.0704252 0.252543 0.0119961 0.87531 -0.46289 0.139877 0 
0.0704487 0.252994 0.0121212 0.187494 -0.963692 0.190116 0 
0.0704655 0.252634 0.01222 0.58375 -0.79299 0.174367 0 
0.0703878 0.252803 0.012344 0.69726 -0.69726 0.166305 0 
0.0703641 0.252314 0.0125912 0.627344 -0.753737 0.195756 0 
0.0707195 0.253037 0.0126359 0.910451 -0.373042 0.17866 0 
0.0705088 0.253075 0.0130156 0.78741 0.613065 0.0643076 0 
0.0709238 0.253033 0.0130922 0.805355 0.590217 0.0552001 0 
0.0704682 0.252948 0.0131641 0.716051 0.696042 0.052882 0 
0.0707855 0.253047 0.0130667 0.78741 0.613065 0.0643076 0 
0.0706071 0.253007 0.0124449 0.63071 -0.753476 0.185684 0 
0.0710628 0.253092 0.012373 0.691521 -0.706653 0.149804 0 
0.0710393 0.25264 0.0122479 0.506752 -0.845578 0.167927 0 
0.0707452 0.252956 0.0128428 0.830303 0.554005 0.0606164 0 
0.0710994 0.252722 0.0131422 0.766706 0.641925 0.00970514 0 
0.0711774 0.252589 0.0126458 0.895828 -0.417098 0.153366 0 
0.0712897 0.252619 0.0128368 0.367184 0.922774 -0.116894 0 
0.0699142 0.252931 0.0138066 0.471878 0.878334 0.0765584 0 
0.0698219 0.252929 0.0139137 0.471701 0.877615 0.085382 0 
0.0701131 0.253072 0.0139817 0.329785 0.943866 -0.0189531 0 
0.0696201 0.253247 0.0144015 -0.128304 0.987585 -0.0906365 0 
0.0695795 0.253119 0.01455 -0.214474 0.973191 -0.0830622 0 
0.069755 0.252808 0.0146 -0.887447 0.0995399 -0.450032 0 
0.0696423 0.252742 0.0147813 -0.037461 0.999298 -0.00101246 0 
0.0701769 0.252805 0.013096 0.810216 0.581583 0.0728766 0 
0.0701191 0.253001 0.0135182 0.489688 0.870403 0.0510379 0 
0.0703644 0.253161 0.0134536 0.510937 0.859609 0.00402313 0 
0.0706672 0.253088 0.0133392 0.571891 0.820301 0.00682447 0 
0.0702978 0.253077 0.0137676 0.415158 0.909704 0.00911005 0 
0.0708722 0.251575 0.010209 0.683659 -0.683659 0.255381 0 
0.0711867 0.252133 0.0107746 0.756816 -0.644695 0.107695 0 
0.0706613 0.251577 0.010961 0.635092 -0.732798 0.244266 0 
0.0709152 0.25198 0.011377 0.639959 -0.754399 0.146061 0 
0.0710135 0.251912 0.0108063 0.675591 -0.726297 0.126766 0 
0.0712905 0.25192 0.0104851 0.761468 -0.632304 0.142681 0 
0.0712296 0.251728 0.0107078 0.724417 -0.662896 0.189179 0 
0.0710401 0.252751 0.0111308 0.81499 -0.579396 0.00958811 0 
0.0711696 0.252457 0.0110482 0.769832 -0.636072 0.0526502 0 
0.0712966 0.252658 0.0112562 0.886352 -0.460247 0.0505316 0 
0.0711782 0.2527 0.0115287 0.989374 -0.136743 0.0494112 0 
0.0709964 0.252235 0.01108 0.708624 -0.702874 0.0618069 0 
0.0714661 0.252418 0.0117698 0.197246 -0.973665 0.114327 0 
0.071296 0.252585 0.0120009 0.44096 -0.889009 0.123355 0 
0.0712005 0.252194 0.0119086 0.445287 -0.889169 0.105352 0 
0.0712554 0.252457 0.0121494 0.77641 -0.615465 0.135611 0 
0.0711742 0.252202 0.0124464 0.892269 -0.432658 0.129088 0 
0.0714652 0.252308 0.0128868 0.414642 0.903276 -0.110292 0 
0.0712717 0.252023 0.0129928 0.342275 0.931369 -0.124092 0 
0.071403 0.253569 0.0131455 0.356778 0.923181 -0.142989 0 
0.0707941 0.25329 0.0135472 0.239814 0.95793 -0.157668 0 
0.0713389 0.25299 0.0131689 0.358066 0.927161 -0.110279 0 
0.0703121 0.253212 0.0141569 0.0886303 0.98675 -0.1359 0 
0.0704245 0.253242 0.0143479 -0.0291001 0.983583 -0.178093 0 
0.0699485 0.253093 0.014494 0.0137229 0.997549 -0.0686145 0 
0.0701129 0.253035 0.0143541 0.0371483 0.991748 -0.122702 0 
0.0701792 0.253082 0.0144125 -0.0101388 0.987967 -0.154335 0 
0.0703839 0.253114 0.0144964 -0.0337651 0.983845 -0.175811 0 
0.0701475 0.253234 0.0146691 -0.130772 0.981399 -0.140549 0 
0.0701935 0.253217 0.0148018 -0.129469 0.98372 -0.124629 0 
0.0699743 0.253013 0.0147009 -0.11256 0.986976 -0.11493 0 
0.0701069 0.253106 0.0148177 -0.137821 0.981822 -0.130503 0 
0.0696973 0.253004 0.0150221 -0.282763 0.957337 -0.0595958 0 
0.0700695 0.253366 0.0151655 -0.224279 0.973492 -0.0448558 0 
0.0698791 0.253469 0.0154709 -0.25363 0.966735 -0.0330822 0 
0.0706297 0.253348 0.0136871 0.164028 0.972723 -0.164028 0 
0.0705228 0.253174 0.0137772 0.15384 0.976822 -0.148837 0 
0.0705891 0.25322 0.0138356 0.170159 0.974319 -0.147471 0 
0.0704968 0.253218 0.0139427 0.157898 0.973917 -0.162951 0 
0.0705282 0.253029 0.0140584 0.140455 0.978212 -0.152884 0 
0.0706958 0.253358 0.0141178 -0.164526 0.933237 -0.319374 0 
0.0712983 0.252862 0.0133174 0.290826 0.947531 -0.132681 0 
0.0715142 0.252642 0.0135912 0.132655 0.978174 -0.15993 0 
0.0714364 0.252811 0.0137153 -0.136709 0.962172 -0.235661 0 
0.0713612 0.252485 0.0135487 0.297227 0.945478 -0.133147 0 
0.0715773 0.252301 0.0134502 0.34361 0.928712 -0.139376 0 
