0.0825673 0.256196 0.0201404 -0.514256 0.568211 -0.642399 0 
0.0813076 0.257169 0.0224201 -0.364086 -0.0114975 -0.931294 0 
0.081573 0.257443 0.0222087 -0.388057 0.0300515 -0.921145 0 
0.0816565 0.257173 0.0221067 -0.37821 0.0193623 -0.925517 0 
0.081365 0.257025 0.0222587 -0.396984 0.0195238 -0.917618 0 
0.081548 0.256853 0.0219815 -0.404118 0.0662267 -0.912306 0 
0.0811678 0.256867 0.0225157 -0.381787 -0.0273635 -0.923845 0 
0.0810701 0.256805 0.0225975 -0.332132 -0.106229 -0.937232 0 
0.0811553 0.256572 0.0224021 -0.608822 0.761417 0.222664 0 
0.0812548 0.256669 0.022227 -0.618649 0.75021 0.233364 0 
0.081173 0.256974 0.0222357 -0.614057 0.7327 0.293401 0 
0.0814486 0.256756 0.0221567 -0.631656 0.738238 0.236675 0 
0.0808343 0.256478 0.0226815 -0.533956 0.832735 0.146431 0 
0.0808621 0.256388 0.0226475 -0.533956 0.832735 0.146431 0 
0.0801138 0.256667 0.0230625 -0.362713 0.69096 -0.625311 0 
0.0805394 0.256258 0.0230203 -0.478672 0.877339 -0.0339003 0 
0.0802513 0.256182 0.0229857 -0.362311 0.869853 -0.334794 0 
0.0803768 0.256153 0.0228699 -0.423081 0.89349 -0.150588 0 
0.080665 0.25623 0.0229044 -0.48851 0.871655 0.0396829 0 
0.0807258 0.256158 0.0225565 -0.491413 0.858879 0.144362 0 
0.0806576 0.256042 0.0225109 -0.496933 0.85991 0.116671 0 
0.0804604 0.255884 0.0227678 -0.543553 0.838268 -0.043095 0 
0.0804235 0.255751 0.0225016 -0.540573 0.827892 0.149583 0 
0.080453 0.255697 0.0223743 -0.540573 0.827892 0.149583 0 
0.0810189 0.256341 0.022311 -0.580468 0.801315 0.144744 0 
0.0810502 0.256323 0.0220903 -0.577478 0.784936 0.224489 0 
0.080757 0.25614 0.0223357 -0.506305 0.843841 0.177729 0 
0.0810064 0.256047 0.0221974 -0.544297 0.817204 0.189519 0 
0.0806433 0.256419 0.0217983 -0.513297 0.839532 0.178082 0 
0.0807445 0.255845 0.0222222 -0.537641 0.834873 0.118019 0 
0.0818099 0.257055 0.0219568 -0.346286 -0.00377767 -0.938121 0 
0.0815582 0.257068 0.0214216 -0.148406 -0.10497 -0.98334 0 
0.0813553 0.256758 0.0211916 -0.162279 -0.152215 -0.974934 0 
0.0812314 0.256823 0.0212141 -0.217793 -0.0523189 -0.974592 0 
0.0815525 0.256917 0.0209347 -0.661823 0.712128 -0.234232 0 
0.0812365 0.25693 0.0209341 -0.661065 0.728552 -0.179454 0 
0.0813655 0.256974 0.0206316 -0.625487 0.738925 -0.25051 0 
0.0809769 0.256808 0.0216325 -0.598727 0.751188 0.277924 0 
0.0807462 0.256588 0.0214365 -0.543519 0.802042 0.247621 0 
0.080486 0.256422 0.021368 -0.516325 0.821496 0.241979 0 
0.0800592 0.256131 0.0229627 -0.384135 0.428764 -0.817681 0 
0.0802792 0.256092 0.0229517 -0.455761 0.720931 -0.522054 0 
0.0800871 0.256041 0.0229287 -0.403327 0.474598 -0.782358 0 
0.0797712 0.256055 0.0229282 -0.384022 0.547436 -0.743533 0 
0.079799 0.255965 0.0228941 -0.384022 0.547436 -0.743533 0 
0.0796768 0.256065 0.0228233 -0.367846 0.51693 -0.772964 0 
0.0803626 0.255823 0.0228496 -0.542902 0.826928 -0.146451 0 
0.0801723 0.255808 0.0227332 -0.470026 0.573733 -0.67075 0 
0.0802314 0.2557 0.0224786 -0.195493 -0.10584 -0.974977 0 
0.0801598 0.255513 0.0226197 -0.0411099 -0.275311 -0.960476 0 
0.080261 0.255646 0.0223512 -0.489195 0.851229 0.189993 0 
0.0803445 0.255376 0.0222491 -0.543239 0.773996 0.325303 0 
0.0802155 0.255333 0.0225516 -0.271469 0.0726467 -0.959701 0 
0.0798825 0.255696 0.0227921 -0.401713 0.379658 -0.833358 0 
0.0795944 0.255619 0.0227575 -0.409852 0.317055 -0.855276 0 
0.0798717 0.255437 0.0225851 -0.410184 0.33844 -0.846881 0 
0.0799273 0.255257 0.0225171 -0.383061 0.221618 -0.896744 0 
0.0797615 0.255081 0.0225533 -0.246414 0.0662942 -0.966895 0 
0.0803797 0.256181 0.0219164 -0.41211 0.882242 0.227627 0 
0.0801507 0.255997 0.0216271 -0.379557 0.88861 0.257503 0 
0.0798626 0.255921 0.0215925 -0.25273 0.820208 0.513212 0 
0.0794847 0.256015 0.0228002 -0.366964 0.38258 -0.847921 0 
0.0789466 0.255988 0.0221372 -0.301984 0.0161555 -0.953176 0 
0.0795001 0.25563 0.0226526 -0.381213 0.278753 -0.881461 0 
0.0793029 0.255471 0.0229096 -0.384543 0.264841 -0.8843 0 
0.079678 0.25535 0.0226554 -0.34579 0.194951 -0.917836 0 
0.0793899 0.255274 0.0226208 -0.342379 0.15109 -0.927334 0 
0.0792904 0.255177 0.022796 -0.339345 0.166181 -0.925867 0 
0.0790984 0.255126 0.0227729 -0.330146 0.184039 -0.925815 0 
0.0795188 0.256025 0.021626 0.0323206 -0.642197 -0.765858 0 
0.0795972 0.255647 0.021804 -0.0581268 -0.316468 -0.946821 0 
0.0794052 0.255597 0.0217809 -0.254186 -0.0231078 -0.966879 0 
0.0790302 0.255718 0.0220351 -0.295248 -0.070911 -0.952786 0 
0.0792029 0.256038 0.0216255 -0.193684 -0.400474 -0.895605 0 
0.0803603 0.256451 0.0214838 -0.433203 0.867916 0.243016 0 
0.0801978 0.256346 0.0213334 -0.411042 0.857493 0.309436 0 
0.0801961 0.25631 0.0214267 -0.41656 0.865163 0.279233 0 
0.0803671 0.256594 0.0211105 -0.463492 0.852522 0.241624 0 
0.0801069 0.256428 0.0210419 -0.408479 0.858576 0.309827 0 
0.0799098 0.25627 0.0212989 -0.230643 0.860765 0.453748 0 
0.079812 0.256208 0.0213806 -0.231711 0.874523 0.42605 0 
0.0802114 0.256633 0.0205867 -0.401852 0.842794 0.35807 0 
0.07962 0.256158 0.0213576 -0.199204 0.877972 0.435297 0 
0.0792376 0.256092 0.0212182 -0.0498039 -0.653142 -0.755596 0 
0.0802468 0.255315 0.0223309 -0.551722 0.785689 0.279813 0 
0.079662 0.254983 0.0227285 -0.263925 0.110511 -0.958191 0 
0.0791972 0.255179 0.0218309 -0.104759 -0.145699 -0.983767 0 
0.0793347 0.254694 0.0217541 0.296307 -0.419128 -0.858215 0 
0.0750884 0.250272 0.0243696 0.0867501 0.286146 0.954251 0 
0.0751441 0.250092 0.0243016 0.0867501 0.286146 0.954251 0 
0.0748112 0.250455 0.024542 0.0140723 0.367159 0.930052 0 
0.0747674 0.250178 0.0246491 -0.0916097 0.474961 0.875225 0 
0.0745753 0.250127 0.024626 -0.0677497 0.468717 0.880746 0 
0.0748947 0.250185 0.0244399 0.0533101 0.336764 0.940079 0 
0.0749748 0.249844 0.0245245 -0.0706014 0.460986 0.884595 0 
0.0749799 0.249952 0.0242445 0.0533101 0.336764 0.940079 0 
0.0747549 0.249883 0.0245355 -0.0677497 0.468717 0.880746 0 
0.0747827 0.249793 0.0245014 -0.142701 0.52814 0.837081 0 
0.0749623 0.249549 0.0244109 -0.0677497 0.468717 0.880746 0 
0.0745611 0.249796 0.0246057 -0.231894 0.589851 0.773499 0 
0.0743918 0.249548 0.0248287 -0.258779 0.566176 0.78261 0 
0.0746412 0.249455 0.0246903 -0.252779 0.588771 0.767757 0 
0.0747652 0.249391 0.0246679 -0.246691 0.598658 0.762071 0 
0.0744492 0.249404 0.0246673 -0.255221 0.565243 0.784451 0 
0.074477 0.249314 0.0246333 -0.278588 0.600158 0.749799 0 
0.0742799 0.249156 0.0248902 -0.270317 0.586477 0.763527 0 
0.07399 0.249044 0.024949 -0.194756 0.51482 0.834884 0 
0.0738906 0.248947 0.0251241 -0.194566 0.511302 0.837087 0 
0.0736969 0.24886 0.0251944 -0.331907 0.533937 0.777656 0 
0.0739498 0.248839 0.0248695 -0.329049 0.534504 0.778481 0 
0.0737577 0.248788 0.0248464 -0.326856 0.514998 0.792428 0 
0.0737594 0.248824 0.024753 -0.356688 0.514857 0.779549 0 
0.0742123 0.249792 0.0249192 -0.258779 0.566176 0.78261 0 
0.0741997 0.249497 0.0248056 -0.255221 0.565243 0.784451 0 
0.0740202 0.249741 0.0248962 -0.259121 0.573206 0.777362 0 
0.074381 0.249289 0.0246218 -0.27097 0.587895 0.762204 0 
0.0739952 0.249151 0.024669 -0.190884 0.512531 0.837183 0 
0.074194 0.249346 0.0243187 -0.262518 0.570623 0.778122 0 
0.0739042 0.249234 0.0243775 -0.231894 0.577401 0.782837 0 
0.073719 0.249326 0.0239812 0.524519 -0.39053 0.756549 0 
0.0788887 0.254672 0.0229163 -0.233652 0.105973 -0.966528 0 
0.0787926 0.254647 0.0229048 -0.22669 0.100048 -0.968815 0 
0.0785046 0.254571 0.0228702 -0.311201 0.127983 -0.941687 0 
0.0782273 0.254754 0.0230426 -0.408531 0.159112 -0.898769 0 
0.0782164 0.254495 0.0228357 -0.430188 0.132038 -0.893031 0 
0.0789444 0.254493 0.0228483 -0.215268 0.118461 -0.969343 0 
0.0788483 0.254467 0.0228367 -0.235708 0.11721 -0.96473 0 
0.0788796 0.254449 0.0226161 -0.137216 0.0328864 -0.989995 0 
0.0786563 0.254417 0.0228137 -0.254733 0.10991 -0.960745 0 
0.0783944 0.254215 0.0228384 -0.338034 0.0921911 -0.936608 0 
0.0784744 0.253873 0.022923 -0.720853 0.2938 -0.627736 0 
0.0787398 0.254147 0.0227116 -0.0331372 -0.0652054 -0.997321 0 
0.0787256 0.253816 0.0226914 -0.726088 0.310721 -0.613391 0 
0.0784602 0.253543 0.0229027 -0.510353 0.119998 -0.851552 0 
0.0785631 0.253712 0.0225409 -0.518336 0.194943 -0.832662 0 
0.0778528 0.253408 0.0230543 -0.0629584 -0.228379 -0.971535 0 
0.077659 0.253322 0.0231246 0.700071 -0.567041 -0.434011 0 
0.0781029 0.254067 0.0229905 -0.0715851 -0.144344 -0.986935 0 
0.0783733 0.25374 0.0231914 -0.739506 0.247553 -0.625978 0 
0.0780607 0.253826 0.0230043 -0.448944 0.067273 -0.891024 0 
0.0780853 0.253664 0.0231569 -0.330404 -0.00374042 -0.943832 0 
0.0775806 0.253699 0.0229467 -0.414926 0.0170159 -0.909696 0 
0.0782245 0.253215 0.0229868 -0.0178968 -0.232659 -0.972394 0 
0.0779591 0.252941 0.0231982 0.721039 -0.573217 -0.389262 0 
0.0780477 0.25278 0.0228161 0.716641 -0.557755 -0.41873 0 
0.077767 0.252891 0.0231752 0.761732 -0.580443 -0.287836 0 
0.0780182 0.252834 0.0229435 0.721039 -0.573217 -0.389262 0 
0.0782648 0.25342 0.0230664 -0.409306 0.0250058 -0.912055 0 
0.0785455 0.253309 0.0227073 -0.331272 0.0138555 -0.943433 0 
0.078275 0.253635 0.0225064 -0.517318 0.117375 -0.847706 0 
0.0780602 0.253075 0.0229297 0.69761 -0.551095 -0.457859 0 
0.0778608 0.252836 0.0225131 0.763819 -0.536781 -0.358395 0 
0.0780704 0.25329 0.0223698 -0.0412547 -0.185057 -0.981862 0 
0.0780301 0.253085 0.0222902 0.885563 -0.447756 0.123666 0 
0.0771806 0.252523 0.023666 0.785217 -0.619033 0.0152335 0 
0.0770829 0.252462 0.0237478 0.780372 -0.625129 0.0152471 0 
0.0772641 0.252254 0.0235639 0.831178 -0.528659 0.172226 0 
0.0769658 0.251962 0.0240893 0.72302 -0.360694 0.589188 0 
0.0767738 0.251911 0.0240663 0.676198 -0.334026 0.656645 0 
0.0765868 0.251968 0.0237633 -0.0235653 0.580815 0.813695 0 
0.0763931 0.251881 0.0238335 0.715663 -0.466593 0.519728 0 
0.0775858 0.253099 0.023359 0.70511 -0.569065 -0.423066 0 
0.0774721 0.252671 0.0235139 0.802443 -0.596689 -0.00685849 0 
0.0777216 0.252578 0.0233755 0.829348 -0.557975 -0.0290756 0 
0.0778506 0.252621 0.0230731 0.820622 -0.56209 -0.103122 0 
0.0774596 0.252376 0.0234003 0.823947 -0.561198 0.0785391 0 
0.0785625 0.255886 0.0220911 -0.372688 -0.0820721 -0.92432 0 
0.0787801 0.25506 0.0220988 -0.235565 0.00355123 -0.971852 0 
0.078063 0.255321 0.0222932 -0.421777 -0.0332632 -0.906089 0 
0.0782267 0.25471 0.0222757 -0.384327 0.0545238 -0.921586 0 
0.0785324 0.255189 0.0221439 -0.337507 0.0478458 -0.940106 0 
0.0788256 0.255372 0.0218984 -0.244407 -0.0328308 -0.969117 0 
0.0785375 0.255296 0.0218639 -0.307443 -0.0472008 -0.950395 0 
0.0789773 0.254511 0.0225343 -0.110357 0.0367856 -0.993211 0 
0.0788585 0.254683 0.0222767 -0.193211 0.041487 -0.98028 0 
0.0789404 0.254377 0.022268 -0.0180882 -0.0755448 -0.996978 0 
0.0787728 0.254165 0.0223976 0.261796 -0.258966 -0.929731 0 
0.0786108 0.254812 0.0223218 -0.270879 0.0834462 -0.95899 0 
0.0785455 0.254017 0.022015 -0.69955 0.31504 -0.641389 0 
0.0784721 0.253794 0.0222495 -0.546361 0.196325 -0.814215 0 
0.0782 0.254084 0.0221418 -0.536397 0.209363 -0.817585 0 
0.0782801 0.253743 0.0222264 -0.223774 -0.0423357 -0.973721 0 
0.077896 0.253641 0.0221804 -0.040494 -0.156191 -0.986896 0 
0.0778431 0.253142 0.0219872 0.885362 -0.458615 0.0762048 0 
0.0774994 0.253245 0.0220207 0.88558 -0.43919 0.151197 0 
0.0785989 0.252342 0.022658 0.895769 -0.424461 0.132023 0 
0.0779324 0.252316 0.0230643 0.882909 -0.39589 0.252473 0 
0.0781364 0.252618 0.0224341 0.880945 -0.454081 0.133216 0 
0.0773477 0.251984 0.0234619 0.832442 -0.383839 0.399635 0 
0.0773074 0.251779 0.0233822 0.808817 -0.311814 0.498586 0 
0.0769306 0.251865 0.0237298 0.775706 -0.421191 0.469977 0 
0.07703 0.251962 0.0235546 0.807502 -0.382164 0.449323 0 
0.0770579 0.251872 0.0235206 0.805126 -0.339588 0.486264 0 
0.0771153 0.251728 0.0233592 0.805635 -0.314973 0.501741 0 
0.0770141 0.251595 0.0236277 0.747018 -0.313266 0.586369 0 
0.0769459 0.25148 0.0235822 0.738787 -0.331403 0.586827 0 
0.0767664 0.251724 0.0236727 0.743397 -0.341736 0.574959 0 
0.0768221 0.251544 0.0236047 0.738309 -0.321496 0.592909 0 
0.0764732 0.25154 0.0239181 0.624222 -0.329135 0.708532 0 
0.0768045 0.251142 0.023771 0.648148 -0.365917 0.667839 0 
0.0766352 0.250894 0.023994 0.625311 -0.362713 0.69096 0 
0.0778329 0.252219 0.0232394 0.868681 -0.375356 0.323266 0 
0.077613 0.252258 0.0232504 0.859123 -0.387145 0.334703 0 
0.0776408 0.252168 0.0232164 0.863762 -0.391224 0.317582 0 
0.0775431 0.252107 0.0232982 0.867182 -0.372965 0.329989 0 
0.0773527 0.252092 0.0231819 0.855907 -0.382295 0.348244 0 
0.0776267 0.251837 0.0231962 0.798145 -0.13179 0.587873 0 
0.0779443 0.252567 0.022411 0.880363 -0.429122 0.202026 0 
0.0777153 0.252383 0.0221218 0.857869 -0.372516 0.353967 0 
0.0777397 0.252221 0.0222744 0.782335 -0.224631 0.580942 0 
0.0775636 0.252537 0.0221784 0.884454 -0.423893 0.195079 0 
0.0775687 0.252645 0.0218983 0.892786 -0.425614 0.147603 0 
0.0774323 0.252414 0.0218073 0.890436 -0.315768 0.32774 0 
0.077359 0.252192 0.0220417 0.852672 -0.267895 0.448533 0 
0.0771482 0.251746 0.0230452 0.82755 -0.31249 0.46638 0 
0.0770505 0.251685 0.0231271 0.820853 -0.313531 0.477387 0 
0.0771584 0.251961 0.0224853 0.855398 -0.228611 0.464792 0 
0.0769646 0.252582 0.0218633 0.824342 -0.395494 0.405024 0 
0.0771561 0.251882 0.0218118 0.940116 -0.220795 0.259677 0 
0.0770533 0.251713 0.0221735 0.895152 -0.221951 0.386576 0 
0.0772572 0.252015 0.0215433 0.976531 -0.210719 0.044552 0 
0.0761521 0.251446 0.0241976 0.601764 -0.34736 0.719181 0 
0.0764277 0.251227 0.0241185 0.586127 -0.306713 0.749921 0 
0.0760823 0.251295 0.0242454 0.565032 -0.29127 0.771946 0 
0.0763419 0.25071 0.0242394 0.567871 -0.30873 0.763026 0 
0.0765113 0.250958 0.0240164 0.621816 -0.350894 0.700155 0 
0.0762635 0.251087 0.0240615 0.585548 -0.309618 0.74918 0 
0.0757908 0.251147 0.0243975 0.280662 0.103127 0.95425 0 
0.0758743 0.250878 0.0242954 0.585548 -0.309618 0.74918 0 
0.0759737 0.250975 0.0241203 0.565032 -0.29127 0.771946 0 
0.0759613 0.25068 0.0240067 0.574134 -0.305458 0.759648 0 
0.0757709 0.250665 0.0238903 0.577386 -0.299089 0.759718 0 
0.076347 0.250817 0.0239594 0.607996 -0.343933 0.715577 0 
0.076251 0.250792 0.0239479 0.607996 -0.343933 0.715577 0 
0.0764306 0.250548 0.0238573 0.600281 -0.405148 0.689578 0 
0.0761459 0.250543 0.0236361 0.586519 -0.119068 0.801135 0 
0.0759629 0.250716 0.0239134 0.581536 -0.317348 0.74907 0 
0.0760499 0.250518 0.0236246 0.60275 -0.449141 0.659519 0 
0.0755987 0.251096 0.0243744 0.369856 0.00127098 0.929088 0 
0.0753663 0.25084 0.0242718 0.282349 0.0677126 0.956919 0 
0.0756823 0.250827 0.0242723 0.581536 -0.317348 0.74907 0 
0.0753941 0.250751 0.0242378 0.249741 0.115166 0.96144 0 
0.0756731 0.250604 0.0239721 0.571421 -0.308919 0.760294 0 
0.0752652 0.250707 0.0245403 0.241235 0.114813 0.963651 0 
0.07516 0.250459 0.0242285 0.219583 0.129695 0.966935 0 
0.0754776 0.250481 0.0241357 0.555233 -0.315219 0.769645 0 
0.0757709 0.250665 0.0238903 0.577386 -0.299089 0.759718 0 
0.0755368 0.250373 0.023881 0.568582 -0.345037 0.746769 0 
0.0751878 0.250369 0.0241944 0.179297 0.171558 0.968721 0 
0.0754652 0.250186 0.0240221 0.572588 -0.385553 0.723528 0 
0.0752714 0.2501 0.0240924 0.136272 0.22712 0.964285 0 
0.0752589 0.249805 0.0239788 0.564169 -0.371207 0.737508 0 
0.0734105 0.24882 0.0250665 0.554149 -0.444317 0.703919 0 
0.0734662 0.24864 0.0249985 0.535236 -0.445754 0.717514 0 
0.0733145 0.248794 0.025055 0.547401 -0.447571 0.707129 0 
0.0731781 0.248564 0.0249639 0.686567 -0.726204 -0.0353901 0 
0.0730854 0.24861 0.0247658 0.686567 -0.726204 -0.0353901 0 
0.0721604 0.248453 0.0250101 0.542717 -0.617108 -0.569768 0 
0.0728985 0.247959 0.0251551 0.393534 -0.310846 0.865162 0 
0.0727587 0.247657 0.0252506 0.61751 -0.620875 -0.482903 0 
0.0727866 0.247567 0.0252166 0.61751 -0.620875 -0.482903 0 
0.0723104 0.247556 0.0257392 0.642948 -0.606016 -0.468361 0 
0.0723695 0.247448 0.0254845 0.60951 -0.602756 -0.51496 0 
0.0724116 0.247689 0.0254708 0.620587 -0.620587 -0.479315 0 
0.0726871 0.24747 0.0253917 0.390941 -0.31122 0.866203 0 
0.0724985 0.247491 0.0251821 0.601707 -0.608449 -0.517434 0 
0.0723991 0.247394 0.0253572 0.60951 -0.602756 -0.51496 0 
0.0724025 0.247466 0.0251705 0.596656 -0.603417 -0.529046 0 
0.0734031 0.248632 0.024673 0.54247 -0.502162 0.673468 0 
0.0731656 0.248269 0.0248503 0.696587 -0.716449 -0.0383052 0 
0.0732059 0.248474 0.0249299 0.696587 -0.716449 -0.0383052 0 
0.0730014 0.248128 0.0247933 0.709863 -0.704306 0.00694582 0 
0.0726246 0.248214 0.0251408 0.388799 -0.339231 0.856597 0 
0.0724911 0.247304 0.0247885 0.6022 -0.598826 -0.527979 0 
0.0725973 0.247545 0.0242401 0.653184 -0.649876 -0.388603 0 
0.0724962 0.247412 0.0245085 0.626041 -0.626041 -0.464915 0 
0.0724786 0.247717 0.0239825 0.649039 -0.652342 -0.391405 0 
0.0720399 0.247882 0.0255383 0.63834 -0.621585 -0.454042 0 
0.0720258 0.247551 0.025518 -0.383061 0.221618 -0.896744 0 
0.0721791 0.247433 0.0253681 -0.399581 0.269906 -0.876063 0 
0.0722104 0.247415 0.0251475 0.589471 -0.589471 -0.552312 0 
0.0718944 0.247428 0.0251469 0.586575 -0.610241 -0.532481 0 
0.0719223 0.247339 0.0251129 0.591494 -0.618456 -0.517346 0 
0.0718212 0.247206 0.0253814 0.568211 -0.642399 -0.514256 0 
0.0715961 0.247137 0.0256723 0.5905 -0.660758 -0.463367 0 
0.0717394 0.247511 0.0253901 0.620791 -0.644217 -0.446769 0 
0.0716797 0.246868 0.0255703 0.571656 -0.662182 -0.484483 0 
0.0718768 0.247026 0.0253133 0.570488 -0.641168 -0.513271 0 
0.0717075 0.246778 0.0255362 0.571656 -0.662182 -0.484483 0 
0.0719132 0.247116 0.0248127 0.603271 -0.64024 -0.475559 0 
0.0717177 0.246993 0.0249763 0.578687 -0.655846 -0.484755 0 
0.0719933 0.246774 0.0248973 0.580454 -0.637658 -0.506425 0 
0.0715246 0.24695 0.0258134 0.56187 -0.639485 -0.524749 0 
0.0716064 0.246645 0.0258047 0.510876 -0.276529 0.813964 0 
0.0715552 0.246181 0.0255182 0.534532 -0.625588 -0.568256 0 
0.0709722 0.245885 0.0258224 0.484471 -0.514438 -0.70756 0 
0.0712655 0.246069 0.025577 0.502775 -0.553221 -0.664201 0 
0.0711694 0.246043 0.0255655 0.483343 -0.533517 -0.694074 0 
0.0717001 0.24659 0.0251427 -0.492495 0.227188 -0.840139 0 
0.0717507 0.246303 0.0253546 0.562966 -0.663796 -0.492386 0 
0.0712007 0.246733 0.0246525 0.482837 -0.607332 -0.630885 0 
0.0712251 0.246571 0.0248051 0.524105 -0.652182 -0.547698 0 
0.0718467 0.247744 0.0239815 0.62342 -0.663319 -0.413951 0 
0.0722712 0.247343 0.0247994 0.603665 -0.590138 -0.536028 0 
0.072299 0.247253 0.0247654 0.616369 -0.592727 -0.518425 0 
0.0721751 0.247318 0.0247879 0.60614 -0.575748 -0.548734 0 
0.0722064 0.247299 0.0245672 0.60614 -0.575748 -0.548734 0 
0.0723092 0.247468 0.0242055 0.639711 -0.63303 -0.435939 0 
0.0722672 0.247227 0.0242192 0.656706 -0.640165 -0.398655 0 
0.0720211 0.247392 0.0241709 0.662669 -0.659396 -0.355059 0 
0.0720978 0.246979 0.0244422 0.618986 -0.625695 -0.474723 0 
0.07192 0.247259 0.0244393 0.607414 -0.61751 -0.499729 0 
0.0717279 0.247208 0.0244164 0.599484 -0.646502 -0.471863 0 
0.071733 0.247316 0.0241364 0.63168 -0.628329 -0.454073 0 
0.0718098 0.246903 0.0244076 0.590108 -0.647269 -0.48251 0 
0.0723143 0.247576 0.0239255 0.691541 -0.720176 -0.0558387 0 
0.0714399 0.247132 0.0243818 0.4303 -0.525922 -0.733653 0 
0.0715216 0.246827 0.024373 0.539095 -0.623593 -0.566135 0 
0.0715183 0.246755 0.0245597 0.534629 -0.622329 -0.571733 0 
0.0711467 0.246948 0.0246272 0.380462 -0.537218 -0.752759 0 
0.0708711 0.245752 0.0260909 0.490709 -0.467578 -0.735238 0 
0.0705467 0.246293 0.0258647 0.478339 -0.488269 -0.729921 0 
0.0706807 0.245737 0.0259745 0.501936 -0.538868 -0.676522 0 
0.070246 0.245922 0.0257165 0.512859 -0.539763 -0.667557 0 
0.0708165 0.246631 0.0246064 0.434006 -0.586989 -0.683435 0 
0.0708881 0.24611 0.0251576 0.480682 -0.567774 -0.668265 0 
0.0708409 0.24647 0.024759 0.432373 -0.554962 -0.710683 0 
0.0707045 0.246239 0.024668 0.444101 -0.567185 -0.693596 0 
0.0704114 0.246055 0.0249134 0.470298 -0.520152 -0.712925 0 
0.0702648 0.246317 0.0246899 0.391478 -0.459141 -0.797455 0 
0.070108 0.245656 0.0257188 0.502832 -0.580191 -0.640733 0 
0.0701233 0.245979 0.0248788 0.447349 -0.473568 -0.758691 0 
0.0715865 0.246163 0.0252976 0.54081 -0.638526 -0.547549 0 
0.0712984 0.246086 0.025263 0.513667 -0.584401 -0.628189 0 
0.0712529 0.245774 0.0254634 0.467398 -0.517298 -0.716898 0 
0.0710938 0.245741 0.0251264 0.471157 -0.531092 -0.704238 0 
0.0706944 0.245316 0.0259202 0.512332 -0.549287 -0.660152 0 
0.0697063 0.244444 0.0265313 0.35125 -0.638784 -0.684528 0 
0.0700904 0.245254 0.0258851 0.485368 -0.633161 -0.602931 0 
0.0701739 0.244984 0.025783 0.464868 -0.615908 -0.636047 0 
0.0702574 0.244715 0.025681 0.396603 -0.557877 -0.729026 0 
0.0698301 0.245088 0.0258166 0.450373 -0.644586 -0.617798 0 
0.0696886 0.244749 0.0260055 0.366126 -0.615682 -0.697773 0 
0.0699887 0.244369 0.026079 0.369708 -0.612894 -0.698338 0 
0.0700443 0.24419 0.026011 0.365633 -0.627971 -0.686997 0 
0.0698784 0.244013 0.0260473 0.348548 -0.656187 -0.669278 0 
0.0703665 0.242861 0.0262559 -0.351895 -0.192331 -0.916067 0 
0.0701239 0.243097 0.026021 -0.244756 -0.275881 -0.929507 0 
0.0701762 0.242846 0.0261396 -0.356577 -0.281979 -0.890697 0 
0.0693221 0.244343 0.0264853 0.290499 -0.640382 -0.711 0 
0.0695034 0.244135 0.0263014 0.304993 -0.647102 -0.698741 0 
0.0694073 0.244109 0.0262899 0.290499 -0.640382 -0.711 0 
0.0694909 0.24384 0.0261878 0.223848 -0.665283 -0.712244 0 
0.0691193 0.244033 0.0262554 0.213377 -0.655707 -0.724237 0 
0.0693545 0.243609 0.0260967 0.179415 -0.657856 -0.731462 0 
0.0695727 0.244242 0.0254868 0.333079 -0.638537 -0.693779 0 
0.0692744 0.24395 0.0260121 0.226876 -0.671241 -0.705664 0 
0.0691783 0.243925 0.0260006 0.220439 -0.670697 -0.708218 0 
0.068842 0.244216 0.0264277 0.172551 -0.64592 -0.743648 0 
0.0687056 0.243985 0.0263366 0.122915 -0.6205 -0.774514 0 
0.0685101 0.243863 0.0265002 0.0203358 -0.508396 -0.860883 0 
0.0689272 0.243982 0.0262323 0.169421 -0.660895 -0.731105 0 
0.0689829 0.243803 0.0261642 0.175695 -0.658474 -0.731808 0 
0.0687335 0.243895 0.0263026 0.0913121 -0.587006 -0.804416 0 
0.0687891 0.243716 0.0262345 0.135332 -0.602303 -0.786712 0 
0.0683442 0.243686 0.0265365 0.0719545 -0.520612 -0.850756 0 
0.068538 0.243773 0.0264662 -0.0633783 -0.403194 -0.912917 0 
0.068597 0.243665 0.0262115 0.00402481 -0.505784 -0.862651 0 
0.0683493 0.243794 0.0262565 0.0938708 -0.570445 -0.815954 0 
0.0686806 0.243396 0.0261095 -0.00131747 -0.462431 -0.886654 0 
0.0684295 0.243453 0.0263411 -0.00389102 -0.416339 -0.909201 0 
0.068988 0.24391 0.0258843 0.192534 -0.660777 -0.725468 0 
0.0687993 0.243931 0.0256746 0.182489 -0.667081 -0.722288 0 
0.0684101 0.243722 0.0259085 0.146061 -0.639959 -0.754399 0 
0.0709597 0.24559 0.0257088 0.49324 -0.533368 -0.687192 0 
0.0709563 0.245518 0.0258955 0.504305 -0.521059 -0.688603 0 
0.0707972 0.245485 0.0255584 0.505795 -0.562928 -0.653669 0 
0.0709648 0.245698 0.0254288 0.487518 -0.541128 -0.685206 0 
0.0707012 0.24546 0.0255469 0.508714 -0.549008 -0.663175 0 
0.0703801 0.245366 0.0258264 0.496803 -0.584375 -0.641633 0 
0.0704114 0.245348 0.0256057 0.496184 -0.566827 -0.657654 0 
0.0704341 0.245858 0.0251593 0.479792 -0.503034 -0.718858 0 
0.070762 0.245388 0.0251989 0.505088 -0.548717 -0.66618 0 
0.0704772 0.245383 0.0249777 0.517576 -0.561409 -0.645705 0 
0.0705557 0.245006 0.0251556 0.495982 -0.593497 -0.633848 0 
0.0707273 0.246042 0.0249139 0.476856 -0.563861 -0.674291 0 
0.0708108 0.245772 0.0248118 0.499322 -0.556483 -0.664081 0 
0.0704898 0.245678 0.0250913 0.510032 -0.553797 -0.658161 0 
0.0703938 0.245653 0.0250798 0.516695 -0.543624 -0.661437 0 
0.0701881 0.245315 0.0258033 0.481851 -0.629596 -0.609449 0 
0.070216 0.245225 0.0257693 0.4864 -0.631142 -0.604214 0 
0.0701858 0.245235 0.0251298 0.478089 -0.598869 -0.642485 0 
0.0699256 0.245069 0.0250612 0.482739 -0.637485 -0.60048 0 
0.0697875 0.244803 0.0250634 0.457686 -0.625337 -0.632043 0 
0.0700551 0.245864 0.0248333 0.487519 -0.507486 -0.710481 0 
0.0701335 0.245487 0.0250112 0.51038 -0.608076 -0.608076 0 
0.0696584 0.245467 0.0246736 0.469014 -0.505475 -0.724238 0 
0.0699028 0.245267 0.0248152 0.507876 -0.605739 -0.612488 0 
0.070058 0.244477 0.0252644 0.386253 -0.586775 -0.711691 0 
0.0698102 0.244605 0.0253094 0.383604 -0.591047 -0.709585 0 
0.0700074 0.244764 0.0250525 0.461272 -0.618944 -0.635717 0 
0.0701659 0.244046 0.0253149 0.38425 -0.608534 -0.69429 0 
0.0698904 0.244264 0.0253939 0.361891 -0.623894 -0.69267 0 
0.069613 0.245155 0.024874 0.500569 -0.632031 -0.591581 0 
0.0693249 0.245078 0.0248395 0.489667 -0.644475 -0.587263 0 
0.0691277 0.24492 0.0250964 0.455221 -0.698672 -0.551934 0 
0.0691328 0.245028 0.0248164 0.460217 -0.674427 -0.577363 0 
0.0695624 0.245442 0.0246622 0.512332 -0.549287 -0.660152 0 
0.0696147 0.245191 0.0247807 0.507789 -0.622506 -0.595514 0 
0.0694227 0.24514 0.0247577 0.509547 -0.647445 -0.566724 0 
0.0695221 0.244529 0.0252748 0.403184 -0.648744 -0.645426 0 
0.069234 0.244453 0.0252403 0.352149 -0.673178 -0.650248 0 
0.0689232 0.244574 0.0249598 0.440566 -0.734276 -0.516469 0 
0.0690016 0.244197 0.0251377 0.290063 -0.700318 -0.652241 0 
0.068422 0.243973 0.0252552 0.298704 -0.755546 -0.583032 0 
0.0706904 0.241567 0.0264076 0.016573 0.355681 -0.93446 0 
0.0706217 0.241409 0.0255952 0.016573 0.355681 -0.93446 0 
0.0882388 0.264405 0.0198639 -0.652887 0.662755 0.366735 0 
0.0871648 0.263723 0.0199036 -0.478304 0.625991 0.615922 0 
0.0870739 0.263806 0.0196121 -0.492119 0.646641 0.582816 0 
0.088466 0.265261 0.0195542 -0.748096 0.615801 0.247266 0 
0.0882893 0.265533 0.0186913 -0.732198 0.658825 0.172731 0 
0.0888377 0.265068 0.0194867 -0.792631 0.567048 0.224038 0 
0.0885496 0.264992 0.0194521 -0.738007 0.620561 0.265048 0 
0.0883871 0.264887 0.0193018 -0.703407 0.648929 0.290015 0 
0.0886507 0.265125 0.0191837 -0.746919 0.625291 0.226103 0 
0.0884461 0.264779 0.019047 -0.71178 0.641401 0.286311 0 
0.0890802 0.266247 0.018337 -0.704256 0.709835 -0.0125511 0 
0.0891689 0.266085 0.017955 -0.700124 0.713988 0.00693192 0 
0.0893104 0.266423 0.0177661 -0.673795 0.730068 0.114027 0 
0.0894496 0.265974 0.017596 -0.667492 0.733196 0.129915 0 
0.0892018 0.266103 0.017641 -0.664034 0.733298 0.146057 0 
0.0889086 0.265919 0.0178864 -0.698043 0.715034 0.0382296 0 
0.0889069 0.265883 0.0179797 -0.69771 0.714832 0.0470847 0 
0.0887024 0.265537 0.0178431 -0.696582 0.71396 0.0709615 0 
0.0887529 0.26525 0.018055 -0.706655 0.697729 0.117528 0 
0.0889694 0.265847 0.0175384 -0.416967 -0.181606 -0.890594 0 
0.0886796 0.265735 0.0175971 -0.676566 0.734023 0.0588942 0 
0.0886257 0.26595 0.0175719 -0.419483 -0.214929 -0.881952 0 
0.0884194 0.265569 0.0175286 -0.673146 0.734474 0.086151 0 
0.0881905 0.26548 0.0196333 -0.726673 0.648536 0.226597 0 
0.0881779 0.265185 0.0195196 -0.704058 0.64953 0.287076 0 
0.0884359 0.264564 0.019607 -0.68461 0.655478 0.318837 0 
0.0883416 0.264574 0.0195021 -0.687749 0.661978 0.297971 0 
0.0881723 0.264326 0.0197251 -0.661324 0.66459 0.347808 0 
0.0884285 0.264377 0.0192135 -0.684712 0.662157 0.304496 0 
0.0883728 0.265264 0.0185892 -0.731113 0.646933 0.216684 0 
0.0881682 0.264918 0.0184525 -0.720965 0.648395 0.244528 0 
0.0882677 0.265015 0.0182774 -0.732198 0.658825 0.172731 0 
0.0880115 0.264965 0.018789 -0.708007 0.657321 0.258177 0 
0.0879671 0.264644 0.0181293 -0.725621 0.64726 0.233515 0 
0.0879637 0.264573 0.0183159 -0.706752 0.662481 0.248233 0 
0.0876756 0.264496 0.0182814 -0.70244 0.664384 0.255288 0 
0.087775 0.264593 0.0181062 -0.726673 0.648536 0.226597 0 
0.0883563 0.264854 0.0178953 -0.732198 0.658825 0.172731 0 
0.0879722 0.264752 0.0178493 -0.732521 0.659422 0.169043 0 
0.0880342 0.263352 0.0204196 -0.698806 0.643935 0.311477 0 
0.0884859 0.263525 0.0197444 -0.610027 0.623471 0.48903 0 
0.0882138 0.263816 0.0196367 -0.636551 0.646523 0.420489 0 
0.088095 0.26328 0.0200716 -0.605739 0.612488 0.507876 0 
0.0878194 0.263499 0.0201506 -0.652163 0.635568 0.413202 0 
0.0875734 0.263663 0.0201024 -0.60528 0.648873 0.461086 0 
0.087849 0.263445 0.0200233 -0.557132 0.644658 0.523469 0 
0.0876569 0.263394 0.0200002 -0.502929 0.637492 0.583667 0 
0.0878138 0.263347 0.0196638 -0.519885 0.647753 0.556899 0 
0.087529 0.263343 0.0194425 -0.484075 0.685075 0.544375 0 
0.0873585 0.26381 0.0198333 -0.488782 0.639951 0.592921 0 
0.087154 0.263464 0.0196967 -0.467698 0.665505 0.581689 0 
0.0873369 0.263292 0.0194195 -0.480337 0.67448 0.560672 0 
0.0885501 0.26494 0.0178251 -0.712674 0.688668 0.133533 0 
0.087271 0.263964 0.0193552 -0.522552 0.660331 0.539354 0 
0.0876023 0.264273 0.0185158 -0.676535 0.676535 0.290862 0 
0.0876529 0.263986 0.0187277 -0.621145 0.693257 0.365476 0 
0.0873699 0.264018 0.0184132 -0.65446 0.680443 0.329666 0 
0.0873875 0.26442 0.0182468 -0.684922 0.678566 0.265387 0 
0.088583 0.264958 0.0175111 -0.67847 0.720592 0.142915 0 
0.0867824 0.263658 0.0197642 -0.452935 0.650154 0.610041 0 
0.0868659 0.263388 0.0196621 -0.451735 0.698439 0.555084 0 
0.0869477 0.263083 0.0196534 -0.470406 0.681335 0.560804 0 
0.0871398 0.263134 0.0196764 -0.459538 0.6868 0.563143 0 
0.0865761 0.263276 0.0197209 -0.469564 0.693485 0.546432 0 
0.0866841 0.262845 0.0197715 -0.464575 0.711016 0.52785 0 
0.0865028 0.263053 0.0199554 -0.450226 0.706075 0.546585 0 
0.086396 0.262769 0.0197369 -0.452692 0.683214 0.572964 0 
0.0871046 0.262329 0.0200092 -0.456379 0.68039 0.5734 0 
0.0869302 0.26268 0.0198198 -0.458699 0.69889 0.54877 0 
0.0867432 0.262737 0.0195168 -0.469675 0.71862 0.512826 0 
0.0859215 0.262793 0.0201662 -0.35875 0.553546 0.751589 0 
0.0856908 0.262573 0.0199703 -0.22888 0.468369 0.853372 0 
0.0863665 0.262823 0.0198643 -0.439368 0.656546 0.61311 0 
0.0863 0.262743 0.0197254 -0.424127 0.643676 0.637023 0 
0.0860784 0.262747 0.0198297 -0.346402 0.533298 0.771751 0 
0.0861062 0.262657 0.0197957 -0.35875 0.553546 0.751589 0 
0.0857903 0.26267 0.0197952 -0.35875 0.553546 0.751589 0 
0.0858022 0.262214 0.0198342 -0.38425 0.608534 0.69429 0 
0.0864551 0.262661 0.0194822 -0.458077 0.694611 0.55469 0 
0.0865386 0.262392 0.0193802 -0.451825 0.681906 0.575202 0 
0.0862596 0.262538 0.0196459 -0.410281 0.622897 0.666084 0 
0.0862909 0.26252 0.0194252 -0.390249 0.59443 0.703107 0 
0.0860659 0.262452 0.0197161 -0.351734 0.546241 0.7602 0 
0.0858738 0.262401 0.0196931 -0.372926 0.599639 0.708067 0 
0.0851056 0.26149 0.0202933 0.566345 -0.241828 0.787891 0 
0.084926 0.261734 0.0203838 0.561447 -0.224269 0.796543 0 
0.0847845 0.261396 0.0205727 0.578922 -0.217675 0.785791 0 
0.0847686 0.261029 0.0206458 0.59589 -0.17437 0.783907 0 
0.0848681 0.261127 0.0204706 0.599947 -0.215485 0.770474 0 
0.0848698 0.261162 0.0203773 0.600167 -0.232272 0.765408 0 
0.0846152 0.261148 0.0207956 0.59589 -0.17437 0.783907 0 
0.0852039 0.262303 0.020286 -0.417424 0.670206 0.613662 0 
0.0855249 0.262397 0.0200066 0.118448 0.0926473 0.988629 0 
0.0851027 0.26217 0.0205545 -0.427989 0.677788 0.597853 0 
0.0852317 0.262213 0.020252 -0.414001 0.660074 0.626821 0 
0.0855073 0.261994 0.0201729 -0.406811 0.652558 0.639275 0 
0.0856766 0.262242 0.01995 0.359901 -0.209581 0.909147 0 
0.0856641 0.261948 0.0198364 -0.410417 0.633073 0.656335 0 
0.0853709 0.261764 0.0200818 -0.414097 0.650249 0.636945 0 
0.0854056 0.261817 0.0196745 -0.414001 0.660074 0.626821 0 
0.0850919 0.261911 0.0203476 -0.413039 0.665175 0.622046 0 
0.0853675 0.261692 0.0202685 -0.413139 0.658699 0.628834 0 
0.0853028 0.261649 0.0200363 -0.409577 0.638409 0.651675 0 
0.0853078 0.261756 0.0197563 -0.395841 0.637652 0.66084 0 
0.0851839 0.261821 0.0197788 -0.394833 0.626116 0.672373 0 
0.0856692 0.262055 0.0195565 0.359901 -0.209581 0.909147 0 
0.0856971 0.261965 0.0195224 -0.423902 0.663282 0.616736 0 
0.0854647 0.26171 0.0194198 -0.417562 0.663774 0.620521 0 
0.0851209 0.261813 0.0194533 -0.414075 0.633584 0.653539 0 
0.0851941 0.262036 0.0192189 -0.431559 0.678165 0.594852 0 
0.0846674 0.262312 0.0195296 0.488105 -0.296629 0.820832 0 
0.0850146 0.261572 0.0200018 0.559511 -0.234034 0.795095 0 
0.0850669 0.261321 0.0201203 0.578325 -0.252332 0.775802 0 
0.0848783 0.261342 0.0199107 0.57782 -0.245848 0.778256 0 
0.0850215 0.261716 0.0196284 -0.417618 0.623931 0.660535 0 
0.0848277 0.261629 0.0196987 -0.402864 0.618388 0.674756 0 
0.0842237 0.261567 0.0196636 0.573514 -0.174021 0.800499 0 
0.0843424 0.261394 0.0199211 0.574126 -0.197499 0.79459 0 
0.0846078 0.261668 0.0197097 0.526971 -0.181662 0.830241 0 
0.0848328 0.261737 0.0194188 -0.421323 0.627822 0.654467 0 
0.0846533 0.260566 0.0208939 -0.432039 0.612195 0.662238 0 
0.0844663 0.260622 0.0205909 -0.438332 0.608331 0.661664 0 
0.0847038 0.260986 0.0204135 0.585748 -0.191171 0.787625 0 
0.0847595 0.260806 0.0203455 0.599375 -0.191616 0.777195 0 
0.0844715 0.26073 0.0203109 0.585605 -0.184047 0.789426 0 
0.0854993 0.261763 0.0190125 0.454158 -0.32844 0.828171 0 
0.0870818 0.263941 0.0183786 -0.582306 0.710974 0.394253 0 
0.084297 0.261082 0.0201215 0.574126 -0.197499 0.79459 0 
0.0843021 0.261189 0.0198415 0.585748 -0.191171 0.787625 0 
0.0837225 0.260965 0.0199591 -0.460315 0.621007 0.634398 0 
0.0841123 0.260511 0.0211844 -0.456952 0.58751 0.667853 0 
0.0843652 0.260489 0.0208593 -0.449351 0.613055 0.649805 0 
0.0841731 0.260439 0.0208364 -0.449221 0.606198 0.656297 0 
0.0837282 0.260409 0.0211383 -0.474681 0.632348 0.61222 0 
0.083885 0.260362 0.0208018 -0.445389 0.598857 0.665582 0 
0.0837856 0.260265 0.0209769 -0.468298 0.602577 0.646218 0 
0.0836805 0.260017 0.0206652 -0.460062 0.573823 0.677547 0 
0.0843947 0.260436 0.020732 -0.441498 0.591441 0.674742 0 
0.0840822 0.260521 0.0205449 -0.441822 0.601878 0.665234 0 
0.0841657 0.260251 0.0204428 -0.449492 0.626615 0.636641 0 
0.0841953 0.260197 0.0203155 -0.454042 0.621585 0.63834 0 
0.0842686 0.26042 0.020081 -0.43178 0.601825 0.671843 0 
0.0838901 0.26047 0.0205218 -0.449221 0.606198 0.656297 0 
0.0838185 0.260283 0.0206629 -0.45707 0.59101 0.664677 0 
0.0838969 0.260614 0.0201485 -0.435124 0.591835 0.678527 0 
0.0838271 0.260462 0.0201963 -0.454042 0.621585 0.63834 0 
0.0838777 0.260175 0.0204082 -0.456512 0.607011 0.650488 0 
0.0836822 0.260053 0.0205718 -0.473961 0.581147 0.661536 0 
0.0837134 0.260035 0.0203512 -0.460361 0.580892 0.671291 0 
0.0839106 0.260193 0.0200942 -0.460837 0.594899 0.658578 0 
0.0835362 0.260358 0.0211153 -0.489002 0.606632 0.626797 0 
0.083597 0.260286 0.0207672 -0.468298 0.602577 0.646218 0 
0.0835236 0.260063 0.0210017 -0.517434 0.601707 0.608449 0 
0.0836038 0.259722 0.0210862 -0.474467 0.598533 0.645476 0 
0.0833697 0.25943 0.0210769 -0.485444 0.609745 0.626542 0 
0.0836629 0.259614 0.0208315 -0.486219 0.593893 0.641001 0 
0.0833208 0.260461 0.0200794 -0.500569 0.632031 0.591581 0 
0.0833975 0.260048 0.0203506 -0.484755 0.578687 0.655846 0 
0.0835947 0.260207 0.0200936 -0.478014 0.595421 0.645738 0 
0.0831929 0.259703 0.020214 -0.474595 0.571862 0.669129 0 
0.0833975 0.259341 0.0210429 -0.4819 0.619586 0.619586 0 
0.0834759 0.259671 0.0205286 -0.485083 0.589149 0.646218 0 
0.0831827 0.259487 0.0207739 -0.506838 0.607869 0.611237 0 
0.0831878 0.259595 0.020494 -0.507882 0.609121 0.609121 0 
0.0837657 0.259783 0.0204698 -0.436166 0.542305 0.718098 0 
0.0841345 0.260977 0.0199711 0.565286 -0.173354 0.806474 0 
0.0841345 0.260977 0.0199711 0.565286 -0.173354 0.806474 0 
0.0829048 0.259626 0.0201795 -0.513387 0.573984 0.637947 0 
0.0828997 0.259519 0.0204594 -0.517434 0.608449 0.601707 0 
0.0830617 0.258872 0.0205353 -0.511099 0.632549 0.581945 0 
0.0830617 0.258872 0.0205353 -0.511099 0.632549 0.581945 0 
0.0830441 0.25847 0.0207016 -0.678408 0.61206 0.406381 0 
0.0830719 0.25838 0.0206676 -0.727477 0.608113 0.317767 0 
0.0829355 0.258149 0.0205765 -0.825078 0.559109 0.0815069 0 
0.082244 0.256023 0.0197463 0.016573 0.355681 -0.93446 0 
0.0655634 0.24316 0.0291766 0.016573 0.355681 -0.93446 0 
0.0657168 0.243042 0.0290268 0.016573 0.355681 -0.93446 0 
0.065518 0.242847 0.0293771 0.016573 0.355681 -0.93446 0 
0.0653259 0.242797 0.029354 0.016573 0.355681 -0.93446 0 
0.0651566 0.242548 0.0295769 0.016573 0.355681 -0.93446 0 
0.0650366 0.240415 0.0274687 0.648473 -0.655074 -0.387764 0 
0.0642558 0.239917 0.027263 0.670996 -0.683808 -0.286655 0 
0.062916 0.237502 0.0281318 0.517293 -0.621763 -0.588063 0 
0.0642325 0.239363 0.0269424 0.454161 -0.55065 -0.700373 0 
0.0640388 0.239276 0.0270127 0.450045 -0.600618 -0.660847 0 
0.0640666 0.239187 0.0269787 0.4384 -0.581755 -0.685104 0 
0.0636825 0.239085 0.0269326 0.423752 -0.609871 -0.669695 0 
0.0636438 0.238916 0.0267597 0.380229 -0.627131 -0.679803 0 
0.0631518 0.238538 0.0273554 0.390936 -0.615271 -0.684551 0 
0.063349 0.238696 0.0270985 0.366577 -0.636167 -0.678906 0 
0.0632353 0.238268 0.0272534 -0.618142 0.191732 -0.762325 0 
0.062841 0.237951 0.0277673 0.488121 -0.659215 -0.571991 0 
0.0631359 0.238171 0.0274285 -0.622559 0.195222 -0.757831 0 
0.0633189 0.237999 0.0271513 -0.152668 -0.282368 -0.94708 0 
0.0628478 0.238095 0.0273939 0.49886 -0.653389 -0.569405 0 
0.0630257 0.237815 0.0273967 0.498556 -0.659705 -0.562344 0 
0.0632404 0.238376 0.0269734 0.406717 -0.629166 -0.662368 0 
0.0634654 0.238444 0.0266824 0.358593 -0.643503 -0.676251 0 
0.0624518 0.237034 0.0286935 0.403563 -0.514665 -0.756476 0 
0.0627274 0.237523 0.0279221 0.520309 -0.658384 -0.543883 0 
0.0623853 0.237663 0.0278623 0.515749 -0.660226 -0.545989 0 
0.0621403 0.237112 0.0276461 0.528563 -0.629885 -0.569092 0 
0.0618505 0.237 0.0277048 0.517732 -0.688634 -0.507679 0 
0.0625824 0.237821 0.0276053 0.532555 -0.673674 -0.512395 0 
0.0626819 0.237918 0.0274302 0.509081 -0.656933 -0.556125 0 
0.0630097 0.237448 0.0274697 0.519414 -0.6707 -0.5295 0 
0.0628177 0.237397 0.0274467 0.567933 -0.675154 -0.470765 0 
0.0629296 0.237789 0.0273852 0.498556 -0.659705 -0.562344 0 
0.0627375 0.237739 0.0273621 0.522758 -0.65723 -0.542929 0 
0.0622926 0.237709 0.0276641 0.547436 -0.678017 -0.490516 0 
0.0621563 0.237479 0.027573 0.537145 -0.691093 -0.483598 0 
0.0624318 0.23726 0.0274939 0.559061 -0.705048 -0.4363 0 
0.0625296 0.237321 0.0274122 0.552364 -0.689204 -0.468926 0 
0.0624318 0.23726 0.0274939 0.559061 -0.705048 -0.4363 0 
0.0624495 0.237662 0.0273276 0.54247 -0.673468 -0.502162 0 
0.0620568 0.237381 0.0277482 0.530701 -0.655374 -0.53744 0 
0.0622398 0.237209 0.0274709 0.530701 -0.655374 -0.53744 0 
0.0617824 0.237592 0.026967 0.521376 -0.685668 -0.507964 0 
0.0616829 0.236787 0.0278344 0.528278 -0.70826 -0.468285 0 
0.0619358 0.236766 0.0275095 0.527716 -0.729538 -0.435076 0 
0.0615869 0.236762 0.0278229 0.527678 -0.688494 -0.497525 0 
0.061742 0.23668 0.0275797 0.528278 -0.70826 -0.468285 0 
0.0628995 0.237092 0.027438 0.58621 -0.676396 -0.445921 0 
0.0626358 0.236854 0.027556 0.549555 -0.617193 -0.563083 0 
0.0622676 0.237119 0.0274369 0.530701 -0.655374 -0.53744 0 
0.0620318 0.236792 0.027521 0.517732 -0.688634 -0.507679 0 
0.0620597 0.236702 0.0274869 0.527716 -0.729538 -0.435076 0 
0.0619636 0.236676 0.0274754 0.52404 -0.691464 -0.497252 0 
0.0616511 0.236762 0.0272882 0.527862 -0.704371 -0.474576 0 
0.0617624 0.23711 0.0264598 0.503288 -0.607648 -0.614381 0 
0.0603561 0.236834 0.0275068 0.529309 -0.660375 -0.532669 0 
0.0601271 0.23665 0.0272176 0.506752 -0.560626 -0.654905 0 
0.0605231 0.237003 0.0266103 0.533888 -0.691209 -0.487026 0 
0.0613596 0.236614 0.0274404 0.531092 -0.704238 -0.471157 0 
0.0611675 0.236563 0.0274173 0.520179 -0.641386 -0.563948 0 
0.0610994 0.236448 0.0273718 0.517434 -0.608449 -0.601707 0 
0.0608777 0.236451 0.0274761 0.510206 -0.557354 -0.655017 0 
0.0608113 0.236372 0.0273372 0.450437 -0.493336 -0.744128 0 
0.060963 0.236217 0.0272807 0.441797 -0.481214 -0.757132 0 
0.0608653 0.236156 0.0273624 0.43282 -0.475285 -0.76601 0 
0.0604749 0.235955 0.0284566 0.278089 -0.322231 -0.904894 0 
0.0607783 0.236354 0.0276512 0.474508 -0.514467 -0.714259 0 
0.0605232 0.236295 0.0273027 0.446927 -0.469846 -0.761249 0 
0.0606647 0.235926 0.0278061 0.617193 -0.563083 -0.549555 0 
0.0606732 0.236105 0.0273394 0.435048 -0.454601 -0.77722 0 
0.0606732 0.236105 0.0273394 0.435048 -0.454601 -0.77722 0 
0.0602021 0.236201 0.0275821 0.443872 -0.466802 -0.764901 0 
0.0602805 0.235824 0.02776 0.509761 -0.499732 -0.700294 0 
0.0602856 0.235932 0.02748 0.660062 -0.552571 -0.508903 0 
0.0603868 0.236065 0.0272115 0.68505 -0.595479 -0.419655 0 
0.0603135 0.235842 0.027446 0.602049 -0.524474 -0.602049 0 
0.0609732 0.235725 0.027413 0.628674 -0.571369 -0.527547 0 
0.0604476 0.235285 0.0275559 0.789168 -0.435906 0.432665 0 
0.0603726 0.235734 0.0271913 0.658459 -0.537208 -0.527104 0 
0.0614 0.236819 0.0275199 0.527678 -0.688494 -0.497525 0 
0.061363 0.236686 0.0272537 0.527678 -0.688494 -0.497525 0 
0.0611954 0.236473 0.0273833 0.520179 -0.641386 -0.563948 0 
0.061209 0.23676 0.0266367 0.499119 -0.647006 -0.576423 0 
0.0607328 0.236749 0.0271593 0.523617 -0.641473 -0.560658 0 
0.0608897 0.236702 0.0268228 0.535975 -0.699606 -0.472526 0 
0.0613783 0.237009 0.0264138 0.507383 -0.691581 -0.514081 0 
0.0607987 0.236784 0.0265313 0.528831 -0.666495 -0.525473 0 
0.0612158 0.236904 0.0262634 0.482871 -0.764409 -0.427218 0 
0.0612698 0.236688 0.0262886 0.480445 -0.738003 -0.473841 0 
0.0609834 0.236648 0.0261607 0.502464 -0.746283 -0.436567 0 
0.0605964 0.236518 0.0270682 0.494169 -0.547774 -0.675085 0 
0.0605459 0.236805 0.0268563 0.530096 -0.728263 -0.434316 0 
0.0573298 0.233496 0.0288469 0.567084 -0.337665 0.751265 0 
0.0575445 0.234057 0.0284235 0.474723 -0.625695 0.618986 0 
0.0573752 0.233808 0.0286465 0.269725 -0.947427 -0.172136 0 
0.0574553 0.233467 0.028731 0.519949 -0.15554 0.839917 0 
0.0573644 0.233549 0.0284395 0.283065 -0.955183 -0.0865998 0 
0.0576298 0.233823 0.0282281 0.457439 -0.604892 0.651809 0 
0.057436 0.233736 0.0282984 0.42564 -0.849732 0.311104 0 
0.0599902 0.234961 0.0277442 -0.0206587 0.0989442 0.994879 0 
0.0600737 0.234691 0.0276421 0.00745849 0.0863054 0.996241 0 
0.0598941 0.234935 0.0277327 0.0183018 0.0893557 0.995832 0 
0.0599777 0.234666 0.0276306 0.0356365 0.0723529 0.996742 0 
0.0597021 0.234885 0.0277096 0.0509711 0.063985 0.996648 0 
0.0597839 0.234579 0.0277009 0.0996097 0.00107107 0.995026 0 
0.0602538 0.235199 0.0276261 -0.231371 0.247997 0.940726 0 
0.0597612 0.234777 0.0274549 0.0467307 0.0684658 0.996558 0 
0.0597157 0.235172 0.026963 -0.123614 0.210271 0.969797 0 
0.0593947 0.23437 0.0279348 0.251133 -0.106892 0.962032 0 
0.0591992 0.234247 0.0280984 0.415621 -0.258441 0.872048 0 
0.059414 0.234808 0.0276751 0.0847178 0.0182304 0.996238 0 
0.0594975 0.234539 0.027573 0.122787 -0.0188053 0.992255 0 
0.0587071 0.234577 0.0280018 0.430713 -0.318759 0.844322 0 
0.0594151 0.234801 0.0268149 0.0828324 0.0541172 0.995093 0 
0.0590992 0.234814 0.0268144 0.160219 0.00112041 0.987081 0 
0.0581326 0.23446 0.0278394 0.453113 -0.300518 0.839272 0 
0.0579389 0.234374 0.0279097 0.464846 -0.341098 0.81705 0 
0.0579508 0.233917 0.0279487 0.448799 -0.207252 0.869268 0 
0.0659872 0.244131 0.0278431 0.016573 0.355681 -0.93446 0 
0.0676107 0.242829 0.0267294 0.0554482 -0.237811 -0.969727 0 
0.067614 0.242901 0.0265427 0.0581824 -0.238919 -0.969295 0 
0.0667697 0.243154 0.0269461 -0.266083 0.166133 -0.949526 0 
0.0674345 0.243145 0.0266333 0.0527036 -0.229199 -0.971952 0 
0.0672424 0.243094 0.0266102 0.660895 -0.731105 -0.169421 0 
0.0675407 0.242678 0.0267771 0.708486 -0.705713 -0.00415941 0 
0.0673226 0.242753 0.0266948 0.678203 -0.703148 -0.213595 0 
0.0669788 0.242856 0.0267283 0.556344 -0.617221 -0.556344 0 
0.0670606 0.242551 0.0267196 0.714248 -0.69049 -0.114339 0 
0.0669646 0.242525 0.026708 0.0408833 -0.169374 -0.984704 0 
0.0680561 0.24361 0.0265019 -0.513258 0.367538 -0.775553 0 
0.0679601 0.243585 0.0264904 -0.50043 0.343746 -0.794612 0 
0.0680612 0.243718 0.026222 -0.506166 0.318932 -0.801298 0 
0.0674749 0.24335 0.0267128 -0.180759 -0.0291547 -0.983095 0 
0.0675305 0.24317 0.0266448 -0.0268509 -0.187957 -0.98181 0 
0.0676436 0.242847 0.0264153 0.0583926 -0.244752 -0.967826 0 
0.068122 0.243646 0.0258739 0.283618 -0.697027 -0.65857 0 
0.0682106 0.243484 0.0254919 0.262302 -0.704241 -0.659729 0 
0.0666963 0.243639 0.0264883 -0.337976 0.256042 -0.905657 0 
0.0676942 0.24256 0.0266273 0.0148205 -0.165305 -0.986131 0 
0.0674322 0.242358 0.026652 0.0145987 -0.144864 -0.989344 0 
0.0674896 0.242214 0.0264906 0.684583 -0.681407 -0.258903 0 
0.0674044 0.242447 0.026686 0.603964 -0.650808 -0.460083 0 
0.0673362 0.242332 0.0266405 0.684583 -0.681407 -0.258903 0 
0.067397 0.24226 0.0262925 0.684583 -0.681407 -0.258903 0 
0.067022 0.242382 0.0265466 0.01694 -0.15246 -0.988164 0 
0.066856 0.242205 0.0265829 0.744305 -0.663055 -0.0797988 0 
0.0671089 0.242184 0.0262579 0.742335 -0.669912 0.0125347 0 
0.0669117 0.242026 0.0265148 0.743282 -0.656888 -0.126611 0 
0.0669447 0.242043 0.0262008 0.742402 -0.669424 -0.0266647 0 
0.0677027 0.242739 0.0261606 0.0581824 -0.238919 -0.969295 0 
0.0677254 0.242542 0.0264066 0.0742989 -0.248083 -0.965885 0 
0.0674981 0.242393 0.026024 0.0575175 -0.223951 -0.972902 0 
0.06641 0.242891 0.0270527 -0.308724 0.239799 -0.920427 0 
0.0667725 0.242475 0.026685 0.744474 -0.663206 -0.0769145 0 
0.0668157 0.242 0.0265033 0.747127 -0.643655 -0.165859 0 
0.0666185 0.241842 0.0267602 0.72665 -0.669003 -0.156252 0 
0.0666463 0.241752 0.0267262 0.735563 -0.667208 -0.117393 0 
0.0668157 0.242 0.0265033 0.747127 -0.643655 -0.165859 0 
0.0668992 0.241731 0.0264012 0.741584 -0.653984 -0.149525 0 
0.0667072 0.24168 0.0263782 0.735083 -0.655615 -0.172691 0 
0.0668049 0.241741 0.0262964 0.741584 -0.653984 -0.149525 0 
0.0662798 0.242053 0.0265138 0.728238 -0.674625 -0.120628 0 
0.0664139 0.241496 0.0266237 0.730201 -0.681806 -0.0441252 0 
0.0664156 0.241532 0.0265303 0.725909 -0.685977 -0.0499152 0 
0.0663179 0.241471 0.0266121 0.724915 -0.688599 0.0181578 0 
0.0663179 0.241471 0.0266121 0.724915 -0.688599 0.0181578 0 
0.0666162 0.241762 0.0260867 0.735083 -0.655615 -0.172691 0 
0.0664242 0.241004 0.026756 0.0618688 -0.0978651 -0.993275 0 
0.0665026 0.241334 0.0262416 0.729797 -0.680856 -0.061896 0 
0.0657366 0.241211 0.026823 0.275381 -0.284032 -0.918418 0 
0.0655446 0.24116 0.0267999 0.364072 -0.345638 -0.864862 0 
0.0661384 0.241715 0.0267027 0.0156807 -0.0554053 -0.998341 0 
0.065948 0.2417 0.0265863 0.0536905 -0.0712222 -0.996014 0 
0.0661224 0.241348 0.0267757 0.0556571 -0.0643877 -0.996372 0 
0.0661258 0.24142 0.0265891 0.0653073 -0.0741625 -0.995106 0 
0.0657787 0.241452 0.0268092 0.0982437 -0.0959321 -0.990528 0 
0.0658605 0.241146 0.0268005 0.247624 -0.250422 -0.935934 0 
0.0659162 0.240967 0.0267324 0.279008 -0.281899 -0.91798 0 
0.0658167 0.240869 0.0269076 0.40974 -0.429022 -0.805018 0 
0.0656281 0.24089 0.0266979 0.487287 -0.49394 -0.720121 0 
0.065752 0.240826 0.0266754 0.482432 -0.482432 -0.731108 0 
0.06611 0.241053 0.0266621 0.128324 -0.142989 -0.98137 0 
0.0659457 0.240913 0.0266051 0.27952 -0.285313 -0.916769 0 
0.0659088 0.240779 0.0263388 0.496448 -0.486486 -0.718937 0 
0.0657184 0.240764 0.0262225 0.506209 -0.512891 -0.693322 0 
0.0663424 0.242017 0.0260725 0.726709 -0.672544 -0.139925 0 
0.0662389 0.241804 0.0256674 0.724364 -0.676373 -0.133475 0 
0.0652565 0.241084 0.0267654 0.592578 -0.595955 -0.541931 0 
0.06534 0.240814 0.0266633 0.592079 -0.625816 -0.507737 0 
0.0655599 0.240775 0.0266524 0.592578 -0.595955 -0.541931 0 
0.0652389 0.240681 0.0269318 0.615189 -0.655201 -0.438468 0 
0.0652667 0.240591 0.0268977 0.615189 -0.655201 -0.438468 0 
0.0654235 0.240545 0.0265613 0.601974 -0.642217 -0.474536 0 
0.0653553 0.240429 0.0265157 0.616052 -0.649443 -0.445762 0 
0.0650434 0.240559 0.0270954 0.619641 -0.629717 -0.468509 0 
0.0650485 0.240666 0.0268154 0.630712 -0.65401 -0.417701 0 
0.0647604 0.24059 0.0267808 0.62787 -0.647856 -0.431349 0 
0.0650343 0.240335 0.0267952 0.62787 -0.647856 -0.431349 0 
0.0651303 0.240361 0.0268067 0.619292 -0.622649 -0.478315 0 
0.0654286 0.240652 0.0262813 0.596065 -0.63972 -0.485247 0 
0.0652309 0.24045 0.0257713 0.668779 -0.703398 -0.24076 0 
0.0643973 0.240963 0.0263817 0.670697 -0.708218 -0.220439 0 
0.0648422 0.240285 0.0267721 0.62787 -0.647856 -0.431349 0 
0.0646326 0.239831 0.0269155 0.67028 -0.679925 -0.297367 0 
0.0646502 0.240234 0.0267491 0.646824 -0.650132 -0.398682 0 
0.0643797 0.24056 0.0265481 0.686099 -0.701517 -0.192724 0 
