0.0696017 0.251478 0.0209764 0.271328 0.962425 -0.0109505 0 
0.0690145 0.251332 0.0218731 0.857794 0.502647 0.107403 0 
0.0690707 0.251605 0.0220213 0.727425 0.680776 0.0860081 0 
0.0688957 0.251696 0.0220553 0.731679 0.676182 0.0861657 0 
0.0687313 0.251328 0.0221889 0.866157 0.474707 0.156288 0 
0.067368 0.252339 0.0230667 0.866127 0.499009 0.0285536 0 
0.0674648 0.251684 0.0229566 0.859044 0.50932 0.0513483 0 
0.0674418 0.2522 0.0232264 0.818306 0.571538 0.060983 0 
0.0675809 0.251727 0.0234411 0.811342 0.581957 0.0552222 0 
0.068712 0.25134 0.0226466 0.814383 0.562206 0.143889 0 
0.0682432 0.251886 0.0228968 0.805344 0.584781 0.0972217 0 
0.0685849 0.251507 0.0227244 0.838757 0.529511 0.126908 0 
0.0686669 0.251566 0.0229885 0.824451 0.552075 0.124473 0 
0.0683837 0.251563 0.0233044 0.845685 0.528376 0.0750775 0 
0.0685435 0.251228 0.0232542 0.903258 0.417636 0.0985121 0 
0.0675754 0.251831 0.0237222 0.787394 0.610484 0.0855548 0 
0.068363 0.251423 0.0235693 0.879138 0.472104 0.0650701 0 
0.0682518 0.252332 0.0223395 0.710113 0.6984 0.0893132 0 
0.0682311 0.252193 0.0226044 0.7774 0.623947 0.079622 0 
0.0680575 0.252434 0.0228311 0.846766 0.526215 0.0780103 0 
0.0683541 0.252282 0.0230005 0.837326 0.540624 0.0813076 0 
0.0675389 0.252504 0.0235066 0.804439 0.590871 0.0612228 0 
0.0668192 0.252629 0.0247621 0.804108 0.543819 0.240148 0 
0.0674497 0.252149 0.0239927 0.751444 0.646869 0.129971 0 
0.0675934 0.252377 0.024124 0.777835 0.613609 0.13586 0 
0.0677371 0.252606 0.0242552 0.847215 0.507146 0.158206 0 
0.0674769 0.252086 0.0243014 0.76097 0.627307 0.16556 0 
0.0672963 0.252281 0.0246164 0.816844 0.534857 0.216088 0 
0.0673267 0.252769 0.0246488 0.817585 0.536397 0.209363 0 
0.0674225 0.252921 0.0247363 0.808076 0.546413 0.220104 0 
0.0673691 0.25295 0.0249737 0.791397 0.557256 0.251311 0 
0.0673847 0.254152 0.0253803 0.833237 -0.288129 0.471908 0 
0.0675377 0.253771 0.0254184 0.878171 -0.158216 0.451424 0 
0.0674584 0.254013 0.0255399 0.815274 -0.219556 0.535839 0 
0.0667916 0.252443 0.0251153 0.81623 0.499765 0.289832 0 
0.0670297 0.252673 0.0251413 0.808738 0.51665 0.281095 0 
0.0670228 0.252626 0.0252296 0.81623 0.499765 0.289832 0 
0.0671665 0.252855 0.0253609 0.806504 0.47432 0.352946 0 
0.0670021 0.252487 0.0254945 0.812514 0.462703 0.35458 0 
0.0672485 0.252914 0.025625 0.814228 0.438185 0.380823 0 
0.0678256 0.252463 0.0250929 0.80766 0.533772 0.250546 0 
0.0672798 0.252595 0.0254597 0.800877 0.481165 0.356478 0 
0.067273 0.252549 0.025548 0.803245 0.477476 0.356111 0 
0.0667571 0.252211 0.0255568 0.823015 0.420229 0.382171 0 
0.0668392 0.252271 0.0258209 0.840934 0.361743 0.402458 0 
0.0666503 0.252268 0.0260315 0.89066 0.194512 0.410961 0 
0.0669883 0.252394 0.0256711 0.813524 0.429937 0.391578 0 
0.0670841 0.252546 0.0257586 0.814493 0.431952 0.387322 0 
0.066887 0.252347 0.0258647 0.859635 0.312175 0.404444 0 
0.0669828 0.252499 0.0259522 0.853305 0.352824 0.383909 0 
0.0665969 0.252297 0.0262689 0.893104 0.244382 0.377681 0 
0.0666982 0.252345 0.0260753 0.913257 0.0549832 0.403657 0 
0.066969 0.252406 0.0261288 0.889991 0.182077 0.418048 0 
0.0668595 0.252161 0.0262179 0.869608 0.296976 0.394446 0 
0.0671127 0.252634 0.0262601 0.906102 0.145598 0.397215 0 
0.0668281 0.25248 0.0263831 0.92391 0.102052 0.368748 0 
0.0673467 0.252411 0.0257076 0.810567 0.449249 0.375707 0 
0.0675079 0.252227 0.0258503 0.805392 0.449931 0.385884 0 
0.0672178 0.252177 0.0262544 0.825373 0.400805 0.397637 0 
0.0677743 0.252431 0.023147 0.828393 0.55651 0.0637226 0 
0.0675992 0.252522 0.023181 0.829099 0.556941 0.0491006 0 
0.0678959 0.252369 0.0233504 0.797332 0.599077 0.0732684 0 
0.0680368 0.252295 0.0230961 0.825216 0.560121 0.0726874 0 
0.067889 0.252322 0.0234387 0.808981 0.584343 0.0639791 0 
0.0675579 0.252243 0.0237108 0.785883 0.611565 0.0915169 0 
0.0677808 0.252229 0.0237206 0.801942 0.591738 0.0820659 0 
0.068169 0.251775 0.0233991 0.850448 0.522598 0.0602459 0 
0.0682473 0.252339 0.0234752 0.810174 0.582357 0.0669212 0 
0.0684016 0.252109 0.0237061 0.793512 0.605463 0.0612586 0 
0.0682828 0.252473 0.0238884 0.781854 0.615253 0.100837 0 
0.0684523 0.251778 0.0230832 0.81243 0.574928 0.0970282 0 
0.068596 0.252006 0.0232145 0.808065 0.584161 0.0760701 0 
0.0682648 0.251927 0.0234866 0.804296 0.590766 0.064059 0 
0.068258 0.251881 0.0235749 0.805478 0.590306 0.0523773 0 
0.0675441 0.25215 0.0238874 0.75692 0.64047 0.129886 0 
0.067592 0.252226 0.0239312 0.751579 0.6474 0.126503 0 
0.0682059 0.25206 0.024005 0.785365 0.608547 0.113458 0 
0.0682332 0.251997 0.0243137 0.748389 0.649799 0.132947 0 
0.0682277 0.252102 0.0245948 0.777097 0.612394 0.145238 0 
0.068404 0.251453 0.0237013 0.84493 0.532096 0.0544666 0 
0.0682852 0.251817 0.0238835 0.762692 0.639724 0.0951535 0 
0.0685132 0.251449 0.0242741 0.852633 0.518322 0.0660194 0 
0.0684478 0.251785 0.024219 0.765121 0.636382 0.0980174 0 
0.0681226 0.252559 0.0246004 0.831096 0.524507 0.184855 0 
0.068013 0.252314 0.0246895 0.829696 0.525524 0.188225 0 
0.0682893 0.252271 0.0244619 0.77894 0.61149 0.139043 0 
0.0681392 0.252954 0.0248094 0.817595 0.541524 0.195677 0 
0.0679817 0.252633 0.0248547 0.813685 0.536817 0.223033 0 
0.0683396 0.251691 0.0245009 0.742514 0.659518 0.117083 0 
0.0683189 0.251552 0.0247658 0.737203 0.662436 0.133085 0 
0.0680426 0.251595 0.0249933 0.699946 0.687585 0.193142 0 
0.0683051 0.251459 0.0249424 0.727822 0.663737 0.172419 0 
0.0685063 0.251403 0.0243624 0.806571 0.588273 0.0581185 0 
0.0684271 0.251646 0.0244839 0.748649 0.654145 0.107794 0 
0.0684133 0.251553 0.0246605 0.724161 0.679552 0.117472 0 
0.0679923 0.252174 0.0249544 0.779573 0.591983 0.204503 0 
0.0679716 0.252035 0.0252193 0.775338 0.577179 0.256349 0 
0.0681656 0.251684 0.0253895 0.670232 0.707727 0.223411 0 
0.0680468 0.252048 0.0255717 0.766011 0.554033 0.325996 0 
0.0678304 0.25186 0.0261355 0.703232 0.618388 0.3508 0 
0.0674345 0.255337 0.0260073 0.876058 -0.451923 -0.168191 0 
0.0682248 0.255231 0.02624 0.876058 -0.451923 -0.168191 0 
0.0753027 0.248691 -0.00167404 -0.561264 -0.827627 -0.00407698 0 
0.0751012 0.248498 -0.000432208 -0.764719 -0.630558 -0.132671 0 
0.0753568 0.248316 -0.000394873 -0.735833 -0.663898 -0.133379 0 
0.075568 0.248148 -0.00239171 -0.45876 -0.882231 0.105868 0 
0.0763418 0.247648 -0.00236803 -0.389655 -0.918184 0.0714593 0 
0.0757324 0.248516 -0.00252535 -0.441257 -0.881057 0.170386 0 
0.0757117 0.248377 -0.00226045 -0.478191 -0.873156 0.0945096 0 
0.0758333 0.248315 -0.00205708 -0.4982 -0.866018 0.042546 0 
0.0759811 0.248287 -0.00239972 -0.441073 -0.891948 0.0994165 0 
0.0761041 0.248376 -0.00200356 -0.494115 -0.867137 0.0626343 0 
0.0767852 0.247565 -0.00339592 -0.208347 -0.977445 0.0345261 0 
0.0771915 0.247658 -0.00331564 -0.229167 -0.973061 0.0251964 0 
0.077372 0.247462 -0.00363071 -0.327478 -0.944791 -0.0112923 0 
0.0776115 0.247843 -0.00341195 -0.342788 -0.939163 -0.0216632 0 
0.0775019 0.247598 -0.00332285 -0.35902 -0.932938 -0.027023 0 
0.0772187 0.247595 -0.00300699 -0.256473 -0.966331 0.0206637 0 
0.0771312 0.24764 -0.00299 -0.266782 -0.963584 0.0182728 0 
0.0772542 0.247729 -0.00259383 -0.290141 -0.956849 0.0160504 0 
0.0770874 0.248017 -0.00245535 -0.335922 -0.941348 0.0319318 0 
0.077577 0.247611 -0.00297045 0.79419 -0.330779 0.509752 0 
0.0774688 0.247517 -0.00268856 -0.274222 -0.961604 -0.0109689 0 
0.0774605 0.247319 -0.00279305 0.786763 -0.306758 0.535634 0 
0.077496 0.247454 -0.0023799 -0.300571 -0.953663 -0.0136061 0 
0.0754105 0.247827 -0.00234637 -0.440077 -0.895234 0.0699187 0 
0.0755473 0.248009 -0.00212681 -0.497257 -0.866412 0.0454556 0 
0.0755791 0.248648 -0.00190162 -0.52155 -0.852824 0.0260091 0 
0.0756597 0.248556 -0.0018303 -0.501117 -0.865072 0.0230867 0 
0.0754313 0.248676 -0.00155897 -0.545606 -0.83804 0.00135386 0 
0.0759784 0.248694 -0.00173303 -0.506351 -0.862019 0.0230777 0 
0.0764855 0.247876 -0.00223676 -0.43119 -0.899339 0.0725495 0 
0.0766085 0.247965 -0.00184059 -0.453473 -0.889135 0.0616504 0 
0.0767904 0.247921 -0.00196288 -0.389655 -0.918184 0.0714593 0 
0.0762433 0.247902 -0.00178883 -0.467915 -0.882626 0.045018 0 
0.0769065 0.247963 -0.00147842 -0.446748 -0.892121 0.0673558 0 
0.0767315 0.248054 -0.00144444 -0.460291 -0.886637 0.0448071 0 
0.0767108 0.247915 -0.00117954 -0.461471 -0.886403 0.0365387 0 
0.0768927 0.247871 -0.00130182 -0.440077 -0.895234 0.0699187 0 
0.0771967 0.248013 -0.0018826 -0.389655 -0.918184 0.0714593 0 
0.0771691 0.247828 -0.0015294 -0.385451 -0.919979 0.0711808 0 
0.0748229 0.249446 -0.00086166 -0.514431 -0.856465 0.0427543 0 
0.0755588 0.249467 -0.00124629 -0.664912 -0.746444 -0.0267089 0 
0.0755763 0.249055 -0.00123493 -0.609864 -0.792408 -0.0124462 0 
0.0751812 0.249462 -0.000825122 -0.684209 -0.728984 -0.020988 0 
0.0750237 0.249141 -0.000779785 -0.604161 -0.796832 0.00688111 0 
0.0750016 0.248851 -0.000707686 -0.643115 -0.764671 -0.0409898 0 
0.0751591 0.249172 -0.000753023 -0.690323 -0.719389 -0.0770255 0 
0.0751453 0.249079 -0.000576422 -0.738118 -0.66386 -0.120297 0 
0.0755105 0.249142 -0.000628181 -0.714248 -0.69049 -0.114339 0 
0.0756649 0.248912 -0.000397258 -0.70261 -0.693505 -0.159339 0 
0.0752025 0.248546 -0.000625804 -0.744452 -0.654939 -0.129794 0 
0.0753255 0.248635 -0.000229642 -0.731423 -0.661474 -0.165749 0 
0.0756511 0.248819 -0.000220656 -0.713077 -0.682668 -0.159644 0 
0.077298 0.248061 -0.00207619 -0.348389 -0.936375 0.0427391 0 
0.0756331 0.248273 -0.000622451 -0.702227 -0.702227 -0.117285 0 
0.0764893 0.24808 -0.000996515 -0.492212 -0.870425 0.00938825 0 
0.0763226 0.248369 -0.000858039 -0.555722 -0.830084 -0.0461935 0 
0.0765644 0.248093 -0.000644103 -0.528352 -0.848894 -0.0149405 0 
0.0766901 0.247775 -0.000914641 -0.468922 -0.883069 0.0173675 0 
0.0776084 0.248001 -0.00208341 -0.356252 -0.934369 -0.006339 0 
0.0751611 0.248267 -9.60007e-005 -0.754025 -0.635687 -0.16537 0 
0.0753048 0.248496 3.52561e-005 -0.704065 -0.682402 -0.196519 0 
0.075361 0.248769 0.000183515 -0.713468 -0.679857 -0.169582 0 
0.0753748 0.248862 6.91414e-006 -0.714871 -0.6749 -0.182946 0 
0.0751966 0.248402 0.000317156 -0.700233 -0.691039 -0.179272 0 
0.0752132 0.248797 0.000526153 -0.681326 -0.706045 -0.19312 0 
0.0749751 0.248567 0.00050018 -0.695487 -0.689291 -0.202915 0 
0.0751925 0.248657 0.00079105 -0.718925 -0.669663 -0.186274 0 
0.0751233 0.249498 0.000547968 -0.720816 -0.668561 -0.182894 0 
0.0752352 0.249087 0.000454046 -0.698872 -0.689615 -0.18976 0 
0.075484 0.248858 0.000579678 -0.670362 -0.716594 -0.192633 0 
0.0746712 0.248425 0.00108095 -0.861852 -0.473203 -0.182457 0 
0.0748338 0.248392 0.00141638 -0.925805 -0.302913 -0.226118 0 
0.0750571 0.248627 0.000764288 -0.755223 -0.629608 -0.182295 0 
0.0751856 0.248611 0.000879355 -0.773799 -0.605913 -0.184674 0 
0.0750364 0.248487 0.00102919 -0.875895 -0.447484 -0.180461 0 
0.0750843 0.248563 0.00107295 -0.861852 -0.473203 -0.182457 0 
0.0750157 0.248348 0.00129409 -0.861852 -0.473203 -0.182457 0 
0.0750254 0.248697 0.00159138 -0.817595 -0.541524 -0.195677 0 
0.0754633 0.248719 0.000844575 -0.705447 -0.68393 -0.185968 0 
0.075607 0.248947 0.000975832 -0.723357 -0.664997 -0.185831 0 
0.0752745 0.248717 0.00105515 -0.795893 -0.576756 -0.184136 0 
0.0754974 0.248702 0.00106493 -0.825711 -0.53393 -0.181987 0 
0.0751732 0.248669 0.00124875 -0.866482 -0.463605 -0.185146 0 
0.0751594 0.248576 0.00142535 -0.827669 -0.525047 -0.198217 0 
0.0745013 0.248871 0.00254798 -0.620679 0.714672 -0.322494 0 
0.0743507 0.248596 0.00250501 -0.631026 0.702401 -0.329301 0 
0.0741702 0.248791 0.0028201 -0.617671 0.705677 -0.347134 0 
0.074132 0.249064 0.00307365 -0.615271 0.684551 -0.390936 0 
0.0743139 0.24902 0.00295136 -0.59761 0.715495 -0.361841 0 
0.0744014 0.248974 0.00293437 -0.591294 0.724864 -0.353473 0 
0.0739418 0.24891 0.00309142 -0.615271 0.684551 -0.390936 0 
0.0744493 0.248341 0.00192583 -0.753914 -0.623876 -0.205894 0 
0.0747804 0.248421 0.00165372 -0.944115 0.224658 -0.241197 0 
0.0741798 0.248431 0.00206511 -0.738745 -0.642724 -0.202884 0 
0.0744972 0.248417 0.00196959 -0.762543 -0.614656 -0.201804 0 
0.0746546 0.248739 0.00192424 -0.771618 -0.602201 -0.204841 0 
0.0748831 0.248619 0.00165292 -0.784789 0.585136 -0.20426 0 
0.0750199 0.248801 0.00187248 -0.787625 -0.585748 -0.191171 0 
0.0747366 0.248798 0.00218835 -0.769707 -0.606855 -0.198188 0 
0.0751346 0.248693 0.00216415 -0.762543 -0.614656 -0.201804 0 
0.0744041 0.248567 0.00226767 -0.759466 -0.617163 -0.205721 0 
0.0745616 0.248889 0.00222233 -0.76671 -0.609357 -0.20209 0 
0.0747776 0.248828 0.00232041 -0.78293 -0.589878 -0.197648 0 
0.0750402 0.248692 0.00226944 -0.791573 -0.57722 -0.200573 0 
0.0749854 0.248569 0.00231398 -0.800704 -0.565831 -0.196744 0 
0.0752824 0.248665 0.00182151 -0.784789 0.585136 -0.20426 0 
0.0753303 0.248741 0.00186527 -0.756059 -0.623633 -0.198639 0 
0.0754054 0.248754 0.00221767 -0.758494 -0.619463 -0.202368 0 
0.0752889 0.248463 0.00239507 -0.785701 -0.59042 -0.184602 0 
0.0755104 0.248297 0.00221204 -0.736263 -0.646738 -0.199115 0 
0.0750684 0.247822 0.00238046 -0.665818 0.709684 -0.230295 0 
0.074757 0.248688 0.00258531 -0.630919 0.705527 -0.322758 0 
0.0746777 0.248931 0.0027068 -0.602766 0.728813 -0.324815 0 
0.074839 0.248748 0.00284941 -0.606238 0.72587 -0.324944 0 
0.075107 0.248507 0.00251735 -0.791005 -0.584524 -0.180671 0 
0.0750057 0.248459 0.00271094 -0.801357 -0.567184 -0.190075 0 
0.0749164 0.248105 0.00319698 -0.637449 0.673687 -0.373904 0 
0.0747087 0.248363 0.00320341 -0.628045 0.690358 -0.359117 0 
0.074944 0.248291 0.00284378 -0.676903 0.654068 -0.337636 0 
0.0752682 0.248324 0.00265997 -0.787896 -0.590543 -0.174582 0 
0.0739119 0.24938 0.00344946 -0.795523 -0.584988 -0.157902 0 
0.0741606 0.249152 0.00357509 -0.797059 -0.584709 -0.151037 0 
0.074348 0.249003 0.00317172 -0.619788 0.692124 -0.3699 0 
0.0744438 0.249155 0.00325922 -0.607267 0.699427 -0.376868 0 
0.0744231 0.249016 0.00352412 -0.623097 0.685571 -0.376488 0 
0.0758034 0.248649 0.00219347 -0.676569 0.713389 -0.182566 0 
0.0765437 0.247954 -0.000379205 -0.580303 -0.80895 -0.094064 0 
0.0745351 0.248605 0.0034302 -0.628045 0.690358 -0.359117 0 
0.0747976 0.248469 0.00337922 -0.619788 0.692124 -0.3699 0 
0.0745812 0.248281 0.003943 -0.774811 -0.615952 -0.142373 0 
0.073519 0.249132 0.00385443 -0.804396 -0.580051 -0.128408 0 
0.0738912 0.249241 0.00371436 -0.788396 -0.596177 -0.151672 0 
0.0738774 0.249148 0.00389096 -0.793869 -0.590543 -0.145019 0 
0.0734915 0.248946 0.00420763 -0.758898 -0.636157 -0.139206 0 
0.0738567 0.249009 0.00415587 -0.79885 -0.583833 -0.144838 0 
0.0736748 0.249053 0.00427815 -0.784805 -0.606777 -0.126103 0 
0.0739797 0.249098 0.00455203 -0.812102 -0.571262 -0.118952 0 
0.0740266 0.249272 0.00374112 -0.807575 -0.57259 -0.141289 0 
0.074133 0.248966 0.0039283 -0.799892 -0.581604 -0.148017 0 
0.0742767 0.249194 0.00405956 -0.776516 -0.610658 -0.155303 0 
0.0744121 0.249225 0.00408632 -0.779604 -0.608361 -0.148711 0 
0.0746336 0.249059 0.00390329 -0.805815 -0.572592 -0.150997 0 
0.0741192 0.248873 0.0041049 -0.793869 -0.590543 -0.145019 0 
0.0739852 0.248993 0.00427093 -0.801968 -0.583384 -0.128492 0 
0.0744692 0.248692 0.00403693 -0.812017 -0.565591 -0.143996 0 
0.0744228 0.248767 0.00418597 -0.779604 -0.608361 -0.148711 0 
0.074256 0.249055 0.00432446 -0.79033 -0.596841 -0.138419 0 
0.0740672 0.249053 0.00453504 -0.80273 -0.585538 -0.112999 0 
0.0742901 0.249038 0.00454481 -0.807343 -0.577934 -0.119116 0 
0.0745664 0.248995 0.00431724 -0.799824 -0.586932 -0.125666 0 
0.0734777 0.248853 0.00438423 -0.77392 -0.623558 -0.11056 0 
0.073836 0.24887 0.00442076 -0.784805 -0.606777 -0.126103 0 
0.0736145 0.249035 0.00460379 -0.762886 -0.640824 -0.0857338 0 
0.0735831 0.249354 0.00476903 -0.788757 -0.602994 -0.119419 0 
0.0735707 0.249412 0.00513843 -0.772176 -0.623965 -0.12005 0 
0.073854 0.249416 0.00482256 -0.786715 -0.607982 -0.106946 0 
0.0744279 0.248413 0.00456674 -0.743967 -0.657839 -0.117312 0 
0.0742215 0.248823 0.00476597 -0.798205 -0.593911 -0.100688 0 
0.0744979 0.24878 0.00453839 -0.790141 -0.601802 -0.11624 0 
0.0743445 0.248912 0.00516212 -0.810214 -0.577477 -0.100368 0 
0.0736186 0.249489 0.00518218 -0.765391 -0.631633 -0.123354 0 
0.0741027 0.249187 0.00494819 -0.790623 -0.602868 -0.107079 0 
0.0738195 0.249184 0.00526406 -0.762476 -0.639543 -0.0980535 0 
0.074082 0.249048 0.00521309 -0.759816 -0.642696 -0.098088 0 
0.0742109 0.249281 0.0046663 -0.845611 -0.520711 -0.117486 0 
0.0746567 0.248543 0.00363356 -0.645458 0.668451 -0.369537 0 
0.0746567 0.248543 0.00363356 -0.645458 0.668451 -0.369537 0 
0.0743239 0.248773 0.00542703 -0.786264 -0.613142 -0.0764624 0 
0.0740613 0.248908 0.00547799 -0.75613 -0.647903 -0.0921396 0 
0.0740862 0.249501 0.00579149 -0.735965 -0.667848 -0.111061 0 
0.0740862 0.249501 0.00579149 -0.735965 -0.667848 -0.111061 0 
0.0739605 0.249819 0.00606202 -0.601075 -0.798149 0.0408224 0 
0.0740084 0.249895 0.00610577 -0.524122 -0.846878 0.0899718 0 
0.0740903 0.249954 0.00636987 -0.310593 -0.926105 0.214153 0 
0.0749587 0.250873 0.00839285 0.876058 -0.451923 -0.168191 0 
0.063487 0.251447 0.0284101 0.876058 -0.451923 -0.168191 0 
0.0636772 0.2516 0.0283923 0.876058 -0.451923 -0.168191 0 
0.0633133 0.251688 0.0286369 0.876058 -0.451923 -0.168191 0 
0.0632995 0.251595 0.0288135 0.876058 -0.451923 -0.168191 0 
0.0630711 0.251715 0.0290848 0.876058 -0.451923 -0.168191 0 
0.0653045 0.252732 0.0308132 0.579409 0.815008 0.00684881 0 
0.0653862 0.252542 0.0317392 0.490829 0.871255 0.00133016 0 
0.0644929 0.253618 0.0342737 0.74355 0.661422 0.09826 0 
0.0657473 0.252861 0.0321613 0.832656 0.543036 0.108607 0 
0.065646 0.252813 0.0323549 0.796404 0.587999 0.141417 0 
0.0656939 0.252889 0.0323986 0.818396 0.55793 0.137633 0 
0.0656663 0.252703 0.0327518 0.80102 0.574743 0.167445 0 
0.0658427 0.252764 0.0329107 0.804214 0.556056 0.209861 0 
0.0651957 0.252849 0.0334711 0.809418 0.553331 0.196638 0 
0.065472 0.252806 0.0332435 0.800976 0.554047 0.226866 0 
0.0653393 0.253077 0.0336023 0.58877 -0.707513 0.390864 0 
0.0647867 0.253163 0.0340575 0.7264 0.672258 0.142874 0 
0.0651574 0.253121 0.0337246 0.58448 -0.709609 0.393495 0 
0.0654831 0.253305 0.0337336 0.915229 -0.103221 0.389488 0 
0.0651368 0.252982 0.0339895 0.724364 0.676373 0.133475 0 
0.0651998 0.253302 0.0340495 0.718546 0.682544 0.133509 0 
0.0656019 0.252941 0.0335514 0.792269 0.578554 0.193869 0 
0.0659261 0.252974 0.0333676 0.79589 0.556968 0.237371 0 
0.0638937 0.253779 0.0348779 0.873134 0.47037 0.128021 0 
0.0646541 0.253435 0.0344163 0.70692 0.698028 0.114115 0 
0.0646251 0.253098 0.0345767 0.707872 0.69595 0.120711 0 
0.064837 0.253293 0.0351487 0.726984 0.679987 0.0954625 0 
0.0647288 0.253199 0.0354306 0.671354 0.728426 0.136674 0 
0.0649014 0.253055 0.0343492 0.679552 0.724161 0.117472 0 
0.0650833 0.253011 0.0342269 0.714697 0.68784 0.126825 0 
0.0651616 0.253575 0.034303 0.692342 0.710286 0.127104 0 
0.0651478 0.253482 0.0344796 0.648336 0.756149 0.088873 0 
0.0651929 0.253256 0.0341378 0.718546 0.682544 0.133509 0 
0.0651791 0.253163 0.0343144 0.705432 0.699492 0.114354 0 
0.0647932 0.252961 0.0346311 0.659155 0.744683 0.104698 0 
0.0648753 0.25302 0.0348951 0.651313 0.749233 0.120174 0 
0.0650327 0.253341 0.0348498 0.612439 0.782806 0.110151 0 
0.0651271 0.253342 0.0347445 0.641527 0.759509 0.107658 0 
0.0650327 0.253341 0.0348498 0.612439 0.782806 0.110151 0 
0.0651585 0.253024 0.0345793 0.6697 0.734748 0.107921 0 
0.0646933 0.253064 0.0350174 0.701507 0.704461 0.107811 0 
0.0650189 0.253249 0.0350264 0.701507 0.704461 0.107811 0 
0.0653727 0.252563 0.0351464 0.671804 0.728661 0.133164 0 
0.0645879 0.253273 0.0356849 0.638196 0.757765 0.136009 0 
0.06496 0.253382 0.0355448 0.608087 0.779252 0.151646 0 
0.064581 0.253226 0.0357732 0.664624 0.736314 0.126951 0 
0.0648587 0.253334 0.0357384 0.638196 0.757765 0.136009 0 
0.065204 0.253755 0.0346279 0.62507 0.777386 0.0704102 0 
0.0650562 0.253783 0.0349705 0.725302 0.684766 0.0709377 0 
0.0650669 0.253325 0.0350702 0.701507 0.704461 0.107811 0 
0.0649669 0.253428 0.0354565 0.671354 0.728426 0.136674 0 
0.0650148 0.253504 0.0355003 0.608087 0.779252 0.151646 0 
0.0650079 0.253458 0.0355886 0.66363 0.735535 0.136321 0 
0.0651144 0.253152 0.0357758 0.642594 0.753437 0.139304 0 
0.0659089 0.25279 0.0355346 0.763656 0.637115 0.104469 0 
0.0646171 0.252305 0.0366506 0.697024 0.708863 0.108031 0 
0.0648672 0.252227 0.036969 0.800939 0.594615 0.0702076 0 
0.0655074 0.252096 0.0364969 0.653979 0.74634 0.123645 0 
0.0649186 0.253103 0.0360746 0.640219 0.756623 0.132819 0 
0.0649049 0.25301 0.0362513 0.723377 0.681956 0.107989 0 
0.0649459 0.25304 0.0363833 0.75613 0.647903 0.0921396 0 
0.0647967 0.252916 0.0365332 0.799732 0.59658 0.0672404 0 
0.0649252 0.252901 0.0366482 0.867479 0.491898 0.0742752 0 
0.0650279 0.253099 0.0366474 0.877362 0.474137 0.0736928 0 
0.0649335 0.253098 0.0367527 0.885362 0.458615 0.0762048 0 
0.0638065 0.253229 0.0370732 0.971423 0.216847 0.0965156 0 
0.0646148 0.252961 0.0366554 0.845273 0.53023 0.0661029 0 
0.0649045 0.252761 0.0369131 0.882662 0.465504 0.0649219 0 
0.0644821 0.253232 0.0370143 0.723585 0.689995 -0.0181946 0 
0.0649197 0.253005 0.0369293 0.892841 0.445735 0.0644601 0 
0.0649197 0.253005 0.0369293 0.892841 0.445735 0.0644601 0 
0.0645734 0.252682 0.0371852 0.884027 0.463324 0.0618681 0 
0.0644545 0.253046 0.0373675 0.839883 0.541994 0.0289615 0 
0.0647171 0.25291 0.0373165 0.690042 0.721603 -0.0559494 0 
0.0649865 0.252821 0.0371772 0.613682 0.787392 -0.0583781 0 
0.064765 0.252986 0.0373602 0.765925 0.642253 -0.0295127 0 
0.06495 0.253493 0.0369617 0.704089 0.70971 -0.0238912 0 
0.0647419 0.253503 0.03763 -0.208529 0.923484 -0.322014 0 
0.0650358 0.253048 0.0374138 0.706775 0.703884 -0.070822 0 
0.0648298 0.252997 0.0358989 0.664624 0.736314 0.126951 0 
0.0650937 0.253013 0.0360407 0.664624 0.736314 0.126951 0 
0.0649528 0.253086 0.036295 0.723377 0.681956 0.107989 0 
0.0656529 0.252724 0.0361591 0.730346 0.670604 0.129939 0 
0.065044 0.252536 0.036466 0.71761 0.688018 0.108011 0 
0.0654092 0.252599 0.0364142 0.642472 0.755762 0.126706 0 
0.0658813 0.252605 0.0358878 0.67608 0.721454 0.149736 0 
0.0656649 0.252417 0.0364515 0.69049 0.714248 0.114339 0 
0.0660029 0.252543 0.0360911 0.594451 0.776646 0.208444 0 
0.0660112 0.25274 0.0361956 0.638028 0.745647 0.192177 0 
0.066078 0.252556 0.0364435 0.604821 0.775451 0.181294 0 
0.065126 0.252596 0.0367301 0.817129 0.571848 0.0727288 0 
0.0652928 0.252308 0.0365916 0.609094 0.7797 0.145165 0 
0.0629954 0.25306 0.040998 -0.574829 0.778447 -0.252173 0 
0.0633974 0.252699 0.0404999 -0.435935 0.899696 0.0225255 0 
0.063169 0.252818 0.0407712 0.315781 0.827942 0.463459 0 
0.0631377 0.253137 0.0409364 -0.687685 0.635415 -0.351193 0 
0.0633933 0.252955 0.0409738 0.240454 0.860492 0.44915 0 
0.0636286 0.252882 0.0406142 -0.475305 0.879649 0.0174055 0 
0.0635273 0.252835 0.0408077 -0.122821 0.963176 0.239178 0 
0.0644928 0.253483 0.0381662 -0.980134 0.136506 -0.143884 0 
0.0646365 0.253711 0.0382975 -0.975463 0.156928 -0.154417 0 
0.0644859 0.253436 0.0382545 -0.973394 0.163287 -0.160756 0 
0.0646296 0.253665 0.0383858 -0.968238 0.184365 -0.168894 0 
0.0644721 0.253343 0.0384311 -0.964116 0.202765 -0.171369 0 
0.0645283 0.253617 0.0385794 -0.945325 0.281557 -0.164582 0 
0.0646406 0.253455 0.0378236 -0.988107 -0.127762 -0.0855656 0 
0.064743 0.253405 0.0384846 -0.964985 0.199248 -0.170598 0 
0.0651722 0.252981 0.0382952 -0.989717 -0.023699 -0.141066 0 
0.0642382 0.253567 0.0389835 -0.869886 0.450556 -0.200743 0 
0.0640494 0.253565 0.0391941 -0.731054 0.650343 -0.206433 0 
0.0644514 0.253204 0.038696 -0.951649 0.259052 -0.165096 0 
0.0645952 0.253432 0.0388273 -0.936308 0.307506 -0.169611 0 
0.0640052 0.252984 0.0393383 -0.697562 0.694495 -0.176307 0 
0.0652883 0.253024 0.0387797 -0.954928 0.229022 -0.188843 0 
0.0652198 0.252808 0.0390008 -0.925569 0.316083 -0.208359 0 
0.0640514 0.25266 0.0398511 -0.689291 0.695487 -0.202915 0 
0.0639501 0.252613 0.0400447 -0.658593 0.729212 -0.185757 0 
0.0639598 0.252962 0.040342 -0.726277 0.634102 -0.265401 0 
0.0647779 0.250725 0.0275655 0.876058 -0.451923 -0.168191 0 
0.0663368 0.252486 0.0273673 0.978074 -0.00581495 0.208175 0 
0.0665118 0.252396 0.0273333 0.977614 0.00116244 0.210402 0 
0.0659136 0.25175 0.0277399 0.850604 -0.498528 0.167162 0 
0.0663612 0.252121 0.0272904 0.977834 -0.0105143 0.209119 0 
0.0663474 0.252028 0.027467 0.378615 0.92507 0.0299249 0 
0.0662903 0.252561 0.0275163 0.226114 0.973379 -0.0374842 0 
0.0663161 0.252347 0.0276322 0.424733 0.905318 0.00129888 0 
0.0661996 0.252055 0.0278096 0.719894 0.691041 0.0649203 0 
0.0662558 0.252329 0.0279578 0.332857 0.942023 -0.0424103 0 
0.0662489 0.252283 0.0280461 0.982448 -0.0632682 0.17548 0 
0.0665762 0.252158 0.0265338 0.607222 -0.770172 0.195233 0 
0.0665693 0.252111 0.0266221 0.630552 -0.748296 0.206053 0 
0.0668388 0.252022 0.0264828 0.640105 -0.734008 0.226932 0 
0.0662723 0.252015 0.0271145 0.920602 -0.30591 0.242717 0 
0.0663681 0.252167 0.0272021 0.966859 -0.0950386 0.236963 0 
0.0666472 0.252426 0.0273601 0.977391 0.00583866 0.211359 0 
0.0671971 0.252038 0.0265193 0.771354 0.546843 0.32554 0 
0.0676033 0.25213 0.0265996 0.768632 0.539815 0.343226 0 
0.066295 0.25125 0.0275067 0.780315 -0.60591 0.15486 0 
0.0664805 0.252715 0.0274986 0.977469 -0.0819655 0.194515 0 
0.0664202 0.252697 0.0278242 0.978537 -0.0994499 0.180483 0 
0.0666035 0.252804 0.0278947 0.466754 0.884306 -0.0119681 0 
0.0663723 0.252621 0.0277805 0.641376 0.76597 0.0438911 0 
0.0664133 0.25265 0.0279125 0.466754 0.884306 -0.0119681 0 
0.0667716 0.252666 0.027949 0.466754 0.884306 -0.0119681 0 
0.0664322 0.25239 0.0281167 0.978996 -0.0916663 0.18211 0 
0.0663788 0.252418 0.028354 0.30105 0.950067 -0.0821046 0 
0.066751 0.252527 0.0282139 0.209647 0.973802 -0.0880764 0 
0.0664746 0.25257 0.0284415 0.348561 0.933502 -0.0841354 0 
0.0667851 0.25251 0.0284343 0.250316 0.964414 -0.0851327 0 
0.0669181 0.252488 0.0274136 0.977614 0.00116244 0.210402 0 
0.0667034 0.2527 0.0275083 0.978485 0.0176198 0.205564 0 
0.0670411 0.252577 0.0278098 0.980079 -0.0104387 0.198335 0 
0.0657589 0.251731 0.0281708 0.805842 -0.573474 0.147465 0 
0.0662351 0.25219 0.0282227 0.300985 0.949861 -0.0846927 0 
0.0664677 0.252524 0.0285298 0.385042 0.918386 -0.0911583 0 
0.0661914 0.252567 0.0287574 0.374103 0.925274 -0.0625725 0 
0.0662393 0.252643 0.0288011 0.338204 0.938285 -0.0723783 0 
0.0664677 0.252524 0.0285298 0.385042 0.918386 -0.0911583 0 
0.0666114 0.252752 0.0286611 0.370284 0.925037 -0.0848287 0 
0.0665976 0.252659 0.0288377 0.390545 0.917578 -0.0743252 0 
0.066692 0.25266 0.0287324 0.370284 0.925037 -0.0848287 0 
0.0663374 0.25214 0.0288838 0.342195 0.93743 -0.0642435 0 
0.0663144 0.252656 0.0291535 0.269631 0.960797 -0.0645595 0 
0.0664019 0.252611 0.0291365 0.274402 0.959777 -0.0594328 0 
0.0663075 0.25261 0.0292418 0.205065 0.97679 -0.0618836 0 
0.0663075 0.25261 0.0292418 0.205065 0.97679 -0.0618836 0 
0.0668533 0.252477 0.028875 0.390545 0.917578 -0.0743252 0 
0.0662366 0.25305 0.0294678 0.988231 -0.104581 0.111631 0 
0.0667206 0.252748 0.0292338 0.283407 0.956976 -0.0622733 0 
0.0660036 0.252467 0.0298226 0.979993 0.184881 0.0737109 0 
0.0659898 0.252374 0.0299992 0.952237 0.301309 0.0495824 0 
0.0661569 0.252335 0.0291989 0.979126 -0.164217 0.119767 0 
0.0662306 0.252197 0.0293585 0.986447 -0.12939 0.1009 0 
0.0661187 0.252607 0.0294524 0.986603 -0.131784 0.096167 0 
0.0662937 0.252517 0.0294184 0.988023 -0.121295 0.0953872 0 
0.0660022 0.252316 0.0296298 0.992954 -0.0826518 0.0849163 0 
0.0660584 0.252589 0.0297781 0.987572 0.137391 0.0763284 0 
0.0661542 0.252742 0.0298656 0.979454 0.187658 0.0738525 0 
0.0659723 0.252786 0.0299879 0.912758 0.403123 0.0660637 0 
0.0661335 0.252602 0.0301305 0.851671 0.522081 0.0456994 0 
0.0661883 0.252725 0.0300859 0.861144 0.506798 0.0398296 0 
0.0662555 0.252789 0.029672 0.995199 -0.0250159 0.0946254 0 
0.0662896 0.252772 0.0298923 0.978905 0.190444 0.0739941 0 
0.0665535 0.252788 0.0300342 0.854304 0.518635 0.0343923 0 
0.0666273 0.252649 0.0301938 0.831679 0.55399 0.037488 0 
0.0667833 0.25211 0.0289033 0.358049 0.931456 -0.0647395 0 
0.0671757 0.25211 0.0291602 0.352482 0.934275 -0.0537241 0 
0.0659691 0.252235 0.0302641 0.711101 0.702686 0.0238436 0 
0.0661128 0.252463 0.0303954 0.683583 0.728872 0.0382127 0 
0.0661745 0.252632 0.0302625 0.711101 0.702686 0.0238436 0 
0.0658434 0.252553 0.0305346 0.623386 0.780991 0.0379942 0 
0.0658913 0.252629 0.0305784 0.623386 0.780991 0.0379942 0 
0.0662565 0.252691 0.0305266 0.652295 0.757002 0.0382038 0 
0.0662975 0.252721 0.0306587 0.628244 0.777223 0.0351367 0 
0.0656546 0.25255 0.0307452 0.652203 0.75789 0.0152969 0 
0.0659171 0.252414 0.0306943 0.605831 0.795241 0.0236762 0 
0.0658964 0.252275 0.0309592 0.616887 0.786775 0.0208878 0 
0.0659664 0.252642 0.0309308 0.616887 0.786775 0.0208878 0 
0.0659733 0.252688 0.0308425 0.659512 0.751537 0.0153375 0 
0.066519 0.252555 0.0304757 0.662655 0.747793 0.0411499 0 
0.0669921 0.252463 0.0308039 0.444542 0.895679 0.011872 0 
0.0661696 0.251681 0.0310078 0.427731 0.90386 0.00915632 0 
0.0659526 0.252549 0.0311074 0.616887 0.786775 0.0208878 0 
0.0658131 0.252774 0.0315545 0.500299 0.865851 0.00133413 0 
0.0659388 0.252456 0.031284 0.590024 0.807328 0.00962743 0 
0.0660439 0.251999 0.0312784 0.400462 0.916268 -0.00907196 0 
0.0663819 0.252125 0.030918 0.454044 0.890978 0.00131607 0 
0.066282 0.252228 0.0313044 0.435151 0.900357 -0.00130676 0 
0.0666951 0.252367 0.0312963 0.788539 0.613622 -0.0409081 0 
0.0668756 0.252172 0.0309813 0.805345 0.592612 -0.0151952 0 
0.0668549 0.252032 0.0312462 0.506611 0.862174 0.0013367 0 
0.0664363 0.251998 0.0315353 0.385251 0.922811 -0.0012799 0 
0.06693 0.252045 0.0315986 0.469832 0.882755 0.00132347 0 
0.0665593 0.252087 0.0319314 0.664449 0.747332 -0.00138139 0 
0.0664704 0.251982 0.0317556 0.684397 0.729001 -0.012545 0 
0.0664428 0.251796 0.0321088 0.634246 0.773031 -0.0124906 0 
0.0665248 0.251855 0.0323729 0.527922 0.849266 0.00675092 0 
0.0678513 0.251268 0.0319415 0.192129 0.981353 0.00575236 0 
0.066414 0.253013 0.0304813 0.648304 0.760808 0.0295323 0 
0.0662252 0.25301 0.0306919 0.628244 0.777223 0.0351367 0 
0.066117 0.252916 0.0309738 0.616887 0.786775 0.0208878 0 
0.0662607 0.253145 0.031105 0.616887 0.786775 0.0208878 0 
0.065983 0.253037 0.0311398 0.635584 0.77188 0.0152985 0 
0.0662538 0.253098 0.0311933 0.60759 0.793899 0.0236362 0 
0.0663482 0.253099 0.031088 0.616887 0.786775 0.0208878 0 
0.0663275 0.25296 0.0313529 0.566921 0.823744 0.00683038 0 
0.0666517 0.252993 0.0311691 0.616849 0.786726 0.0236714 0 
0.0659213 0.252868 0.0312726 0.590024 0.807328 0.00962743 0 
0.0659075 0.252775 0.0314493 0.566921 0.823744 0.00683038 0 
0.0662262 0.252913 0.0315465 0.549316 0.83556 0.00954147 0 
0.0661442 0.252853 0.0312824 0.590024 0.807328 0.00962743 0 
0.0663137 0.252867 0.0315295 0.549316 0.83556 0.00954147 0 
0.0666324 0.253005 0.0316268 0.515275 0.856998 0.00672683 0 
0.0658541 0.252803 0.0316866 0.494241 0.869274 0.00937584 0 
0.0660374 0.25291 0.0317571 0.526725 0.850035 -0.00134712 0 
0.0658403 0.252711 0.0318632 0.877504 0.472931 0.0795194 0 
0.0659361 0.252863 0.0319507 0.861936 0.499612 0.0863352 0 
0.0662999 0.252774 0.0317061 0.4879 0.872874 0.00668357 0 
0.0666187 0.252912 0.0318034 0.830816 0.556166 0.0205987 0 
0.0662465 0.252803 0.0319435 0.535459 0.844534 0.00677796 0 
0.06658 0.252227 0.0316665 0.698541 0.715339 -0.0181984 0 
0.0667403 0.25285 0.0320068 0.648154 0.761478 0.00690996 0 
0.0670028 0.252714 0.0319558 0.468844 0.883232 0.00929718 0 
0.0659223 0.25277 0.0321273 0.830783 0.547595 0.099694 0 
0.0662724 0.252589 0.0320593 0.791096 0.607985 0.067236 0 
0.0664198 0.252312 0.0323786 0.753991 0.653075 0.0706416 0 
0.0658947 0.252584 0.0324805 0.787026 0.602543 0.132411 0 
0.0663171 0.252114 0.0323794 0.75283 0.655321 0.0616604 0 
0.0660246 0.25272 0.0327884 0.817782 0.545692 0.182905 0 
0.06616 0.25275 0.0328151 0.801357 0.567184 0.190075 0 
0.0662941 0.25263 0.0326491 0.796404 0.587999 0.141417 0 
0.0665386 0.251948 0.0321963 0.516454 0.856263 -0.00943912 0 
0.0661476 0.252809 0.0331845 0.808035 0.542295 0.230205 0 
0.0662282 0.252717 0.0332558 0.801509 0.558441 0.213838 0 
0.0663895 0.252533 0.0333985 0.773537 0.593717 0.221675 0 
0.0684491 0.251665 0.0321968 0.238324 0.923326 -0.301116 0 
0.0686638 0.251453 0.0321021 0.538726 0.555614 -0.633299 0 
0.0685721 0.251754 0.0325929 0.503348 0.129101 -0.854385 0 
0.0688416 0.251665 0.0324537 0.49 0.628075 -0.604501 0 
0.0690397 0.251767 0.0332022 0.75287 0.348101 -0.558581 0 
0.0691834 0.251995 0.0333335 0.765843 0.294555 -0.571596 0 
0.069152 0.252314 0.0334987 0.802453 0.267484 -0.533405 0 
0.0690494 0.252115 0.0334995 0.751437 0.379794 -0.539535 0 
0.0688499 0.252571 0.0336105 0.751437 0.379794 -0.539535 0 
0.0692082 0.252587 0.033647 0.802453 0.267484 -0.533405 0 
0.0691723 0.251495 0.0328434 0.662823 0.474884 -0.578922 0 
0.069141 0.251814 0.0330086 0.729337 0.385155 -0.565441 0 
0.0695169 0.252128 0.0341088 0.812271 -0.232738 -0.534835 0 
0.0698955 0.252034 0.0345423 0.396472 0.893891 -0.209209 0 
0.0700392 0.252263 0.0346736 0.594618 0.730716 -0.335384 0 
0.0700255 0.25217 0.0348502 0.577179 0.775338 -0.256349 0 
0.0700734 0.252246 0.0348939 -0.456033 0.686555 0.566283 0 
0.0703083 0.251924 0.0351962 -0.333185 0.64524 0.687498 0 
0.0704216 0.251665 0.035295 -0.24116 0.657278 0.714022 0 
0.0709118 0.250912 0.0362964 0.759012 0.645378 -0.0859533 0 
0.0711951 0.250915 0.0359806 0.769635 0.61843 -0.158766 0 
0.0714051 0.250001 0.0359693 0.62905 0.764169 -0.142625 0 
0.0713015 0.250609 0.0361678 0.723389 0.671827 -0.159237 0 
0.0714369 0.25064 0.0361945 0.708583 0.657856 -0.255217 0 
0.0717497 0.249924 0.0361825 0.605541 0.756533 -0.246935 0 
0.0717769 0.249861 0.0364911 0.560749 0.768434 -0.308332 0 
0.07056 0.250693 0.0368335 0.793488 0.595485 -0.125599 0 
0.0718478 0.249421 0.0362651 0.424015 0.656807 -0.623551 0 
0.072856 0.249654 0.0361268 0.428426 0.793801 -0.43166 0 
0.0720897 0.249146 0.0364791 0.4472 0.556922 -0.699893 0 
0.0619569 0.253048 0.0421562 0.690961 0.480159 0.540388 0 
0.0622673 0.252988 0.042149 0.712327 0.45662 0.533 0 
0.0618966 0.25303 0.0424818 0.735093 0.497221 0.460879 0 
0.0619293 0.252862 0.0425094 0.706355 0.556774 0.437109 0 
0.0624958 0.252869 0.0418776 0.597483 0.567016 0.567016 0 
0.0629195 0.252549 0.0419693 0.609489 0.552085 0.568969 0 
0.0624544 0.25259 0.0424074 0.647496 0.586951 0.486042 0 
0.0628919 0.252364 0.0423225 0.567457 0.638178 0.520309 0 
0.0630687 0.252673 0.0418194 0.599591 0.575945 0.555677 0 
0.0630001 0.252458 0.0420406 0.583862 0.594016 0.553399 0 
0.061828 0.252815 0.042703 0.716641 0.557755 0.41873 0 
0.0619155 0.252769 0.042686 0.710737 0.564945 0.419153 0 
0.0618073 0.252675 0.0429679 0.739351 0.573606 0.352613 0 
0.0618948 0.25263 0.0429509 0.739351 0.573606 0.352613 0 
0.0618903 0.251928 0.0430344 0.721581 0.618267 0.311555 0 
0.0617784 0.252338 0.0431283 0.732695 0.60709 0.307571 0 
0.0618483 0.252705 0.0430999 0.742711 0.56719 0.355916 0 
0.0618345 0.252612 0.0432765 0.737082 0.602192 0.306716 0 
0.0610724 0.252557 0.0442071 0.767664 0.580892 0.270661 0 
0.0617098 0.252123 0.0433494 0.735619 0.610612 0.293286 0 
0.0617029 0.252077 0.0434377 0.740662 0.606287 0.289546 0 
0.0616388 0.252563 0.0435754 0.751309 0.594986 0.285529 0 
0.0616319 0.252517 0.0436637 0.767664 0.580892 0.270661 0 
0.0620133 0.252017 0.0434305 0.729074 0.616909 0.296437 0 
0.0619926 0.251877 0.0436954 0.731869 0.620255 0.282224 0 
0.0618328 0.252212 0.0437456 0.753226 0.597823 0.274333 0 
0.0620746 0.251937 0.0439595 0.763732 0.593664 0.253528 0 
0.062035 0.252058 0.0440203 0.769177 0.586714 0.253246 0 
0.0623448 0.252345 0.0424965 0.684708 0.574755 0.448142 0 
0.0623241 0.252206 0.0427614 0.710021 0.570996 0.41211 0 
0.0628781 0.252271 0.0424991 0.551353 0.672014 0.494375 0 
0.0628575 0.252131 0.042764 0.647129 0.620374 0.443125 0 
0.0622555 0.25199 0.0429826 0.728905 0.606074 0.318391 0 
0.0622141 0.251712 0.0435124 0.72459 0.625419 0.289516 0 
0.0622414 0.251649 0.043821 0.741247 0.621131 0.254458 0 
0.0623851 0.251877 0.0439523 0.759551 0.599149 0.253184 0 
0.060803 0.252646 0.0443464 0.762605 0.592085 0.260517 0 
0.0611375 0.251972 0.0449241 0.743004 0.637964 0.202356 0 
0.0620143 0.251919 0.0442852 0.755243 0.596911 0.270748 0 
0.063862 0.253714 0.0395975 -0.682976 0.70456 -0.192713 0 
0.062964 0.253379 0.0411632 -0.520064 0.823818 -0.225515 0 
0.0636397 0.253382 0.0411042 0.0882381 0.919034 0.384175 0 
0.0636848 0.253156 0.0407624 -0.475305 0.879649 0.0174055 0 
0.0647254 0.253817 0.0384733 -0.287512 -0.937541 0.195842 0 
0.0646241 0.253769 0.0386669 -0.938545 0.300939 -0.169021 0 
0.0646172 0.253723 0.0387552 -0.928387 0.33266 -0.165634 0 
0.0647609 0.253951 0.0388864 -0.931707 0.308706 -0.19137 0 
0.0645928 0.254088 0.0388321 -0.915205 0.357257 -0.186457 0 
0.0649046 0.254179 0.0390177 -0.916166 0.342666 -0.207894 0 
0.0654048 0.253315 0.0386023 -0.974096 0.139877 -0.177681 0 
0.0648254 0.254422 0.0391392 -0.893686 0.391813 -0.218652 0 
0.0644215 0.253674 0.0390541 -0.880149 0.420037 -0.22115 0 
0.0641452 0.253717 0.0392816 -0.725049 0.660119 -0.196335 0 
0.064416 0.253779 0.0393352 -0.888279 0.364 -0.280115 0 
0.0645173 0.253826 0.0391416 -0.889931 0.392399 -0.232478 0 
0.0645597 0.254007 0.0394664 -0.888279 0.364 -0.280115 0 
0.0645652 0.253902 0.0391853 -0.903852 0.365325 -0.222688 0 
0.0648839 0.25404 0.0392826 -0.892357 0.404555 -0.200087 0 
0.0646951 0.254038 0.0394932 -0.904646 0.33576 -0.26245 0 
0.0641383 0.253671 0.0393699 -0.701717 0.689433 -0.179652 0 
0.0643133 0.25358 0.0393359 -0.720124 0.671198 -0.175826 0 
0.064457 0.253809 0.0394672 -0.722689 0.667452 -0.179522 0 
0.0643884 0.253593 0.0396883 -0.680086 0.710789 -0.179616 0 
0.0653597 0.253541 0.0389441 -0.929454 0.303236 -0.21015 0 
0.0654827 0.25363 0.0393403 -0.906986 0.347945 -0.237301 0 
0.0649797 0.254192 0.0393701 -0.892357 0.404555 -0.200087 0 
0.0650276 0.254268 0.0394138 -0.892357 0.404555 -0.200087 0 
0.0647909 0.25419 0.0395807 -0.904646 0.33576 -0.26245 0 
0.0648388 0.254266 0.0396244 -0.87432 0.424413 -0.235452 0 
0.0650069 0.254129 0.0396787 -0.87432 0.424413 -0.235452 0 
0.0641176 0.253532 0.0396348 -0.682976 0.70456 -0.192713 0 
0.0641996 0.253591 0.0398989 -0.69022 0.68709 -0.226943 0 
0.0644621 0.253455 0.039848 -0.682976 0.70456 -0.192713 0 
0.0641927 0.253545 0.0399872 -0.69022 0.68709 -0.226943 0 
0.0642406 0.253621 0.040031 -0.69022 0.68709 -0.226943 0 
0.06451 0.253531 0.0398917 -0.682976 0.70456 -0.192713 0 
0.064172 0.253405 0.0402521 -0.675017 0.712089 -0.193083 0 
0.0644894 0.253392 0.0401566 -0.69022 0.68709 -0.226943 0 
0.0643949 0.253391 0.0402619 -0.66974 0.716143 -0.196437 0 
0.0651926 0.25358 0.0397444 -0.913393 0.318017 -0.254124 0 
0.0647974 0.253988 0.0401542 -0.7229 0.674606 -0.149409 0 
0.0645142 0.253984 0.0404701 -0.699022 0.680257 -0.220497 0 
0.0643811 0.253298 0.0404385 -0.701663 0.679882 -0.213144 0 
0.0641854 0.253249 0.0407374 -0.667179 0.719567 -0.192604 0 
0.0643085 0.253338 0.0411336 -0.491759 0.869825 0.0397243 0 
0.0703442 0.252307 0.0349475 -0.406609 0.668831 0.622361 0 
0.0703373 0.252261 0.0350358 -0.406609 0.668831 0.622361 0 
0.0705791 0.251986 0.0352497 0.191948 0.823715 0.533526 0 
0.0705653 0.251893 0.0354263 -0.575385 0.42615 0.698089 0 
0.0708072 0.251618 0.0356402 -0.329671 0.554812 0.763872 0 
0.0708878 0.251526 0.0357115 0.769852 0.627998 -0.113779 0 
0.0712988 0.251016 0.0368344 0.738617 0.628376 -0.244106 0 
0.071284 0.251021 0.0361564 0.771173 0.612984 -0.171879 0 
0.0712633 0.250882 0.0364213 0.725621 0.64726 -0.233515 0 
0.0717077 0.250701 0.036248 0.664423 0.680589 -0.308771 0 
0.0717746 0.250517 0.0364959 0.579131 0.723504 -0.375697 0 
0.0717677 0.25047 0.0365843 0.584844 0.719178 -0.375152 0 
0.0722328 0.25043 0.0361461 0.584948 0.694315 -0.41924 0 
0.0724654 0.250764 0.0364532 0.58815 0.710063 -0.387157 0 
0.0722996 0.250245 0.036394 0.540148 0.712996 -0.447076 0 
0.0722927 0.250199 0.0364823 0.540148 0.712996 -0.447076 0 
0.0721122 0.250394 0.0367974 0.555876 0.720825 -0.414021 0 
0.0727303 0.249972 0.0363974 0.476307 0.743303 -0.469715 0 
0.0730665 0.249698 0.036506 0.315972 0.678934 -0.66273 0 
0.0733374 0.249759 0.0365595 0.214608 0.588241 -0.77969 0 
0.0733429 0.249655 0.0362784 0.171909 0.521706 -0.835626 0 
0.0727971 0.249787 0.0366453 0.476307 0.743303 -0.469715 0 
0.0609739 0.252811 0.0447863 0.752629 0.607468 0.254032 0 
0.0609136 0.252793 0.045112 0.707607 0.666814 0.233777 0 
0.061008 0.252795 0.0450067 0.731502 0.640651 0.233391 0 
0.0611448 0.252976 0.0452263 0.694916 0.685547 0.217064 0 
0.0610969 0.2529 0.0451825 0.70472 0.676718 0.213127 0 
0.061131 0.252884 0.0454029 0.673534 0.713607 0.192658 0 
0.0608998 0.252701 0.0452886 0.662048 0.715262 0.223813 0 
0.0607041 0.252652 0.0455875 0.595491 0.774912 0.211902 0 
0.0608584 0.252422 0.0458184 0.595491 0.774912 0.211902 0 
0.0597721 0.253043 0.0479851 -0.172829 0.822064 -0.542532 0 
0.0608773 0.252161 0.0460225 0.582352 0.781128 0.225176 0 
0.0608635 0.252068 0.0461992 0.525232 0.822302 0.218974 0 
0.0609252 0.252237 0.0460663 0.557943 0.799048 0.224104 0 
0.0610689 0.252466 0.0461976 0.567048 0.792631 0.224038 0 
0.0609745 0.252465 0.0463029 0.56045 0.798217 0.220783 0 
0.0608884 0.252661 0.0465127 0.456763 0.860765 0.224613 0 
0.0608212 0.252597 0.0469266 0.18191 0.974788 0.129219 0 
0.0608677 0.252522 0.0467776 0.234115 0.961308 0.145177 0 
0.0607899 0.252916 0.0470918 0.0782966 0.992892 0.0896439 0 
0.0602262 0.252502 0.0470569 0.605765 0.43555 0.665841 0 
0.060118 0.252408 0.0473388 -0.482892 0.624226 -0.614131 0 
0.0601986 0.252316 0.0474101 -0.101835 0.989082 -0.106517 0 
0.0604887 0.252366 0.0470059 -0.107794 0.994101 -0.0119771 0 
0.0604818 0.25232 0.0470942 -0.144796 0.988087 -0.0521265 0 
0.0604611 0.25218 0.0473591 0.254297 0.901062 0.351311 0 
0.0601931 0.252421 0.0476912 -0.153711 0.960364 -0.232537 0 
0.0602806 0.252376 0.0476742 -0.1932 0.944077 -0.267192 0 
0.060066 0.252588 0.0477689 -0.176495 0.942677 -0.283213 0 
0.0603285 0.252452 0.0477179 -0.178487 0.954168 -0.24022 0 
0.0601221 0.252861 0.0479172 -0.188479 0.919722 -0.344364 0 
0.0605818 0.252925 0.0477601 -0.109349 0.979223 -0.17078 0 
0.060568 0.252832 0.0479367 -0.140666 0.958372 -0.248467 0 
0.0606324 0.252595 0.0471372 -0.0254712 0.999488 0.0193581 0 
0.0606117 0.252455 0.0474021 -0.165817 0.973381 -0.158222 0 
0.0606817 0.252822 0.0473737 -0.0677984 0.994747 -0.07669 0 
0.0606817 0.252822 0.0473737 -0.0677984 0.994747 -0.07669 0 
0.0606048 0.252409 0.0474904 -0.196453 0.961167 -0.193816 0 
0.0604492 0.253197 0.0481189 -0.100611 0.966626 -0.235607 0 
0.0625689 0.253786 0.041573 0.5726 0.599625 0.559087 0 
0.0620937 0.25323 0.0423757 0.67337 0.545749 0.49873 0 
0.062073 0.25309 0.0426406 0.719164 0.547226 0.428192 0 
0.0619717 0.253043 0.0428342 0.765128 0.507367 0.396431 0 
0.0622167 0.253319 0.0427719 0.734181 0.5329 0.42071 0 
0.0629995 0.253513 0.0415764 -0.47456 0.854207 -0.212422 0 
0.0632059 0.253104 0.0413771 -0.515204 0.827079 -0.224733 0 
0.0637871 0.253105 0.0414235 -0.561331 0.804726 -0.193195 0 
0.0631852 0.252964 0.041642 -0.304825 0.950488 -0.0604505 0 
0.0620523 0.252951 0.0429055 0.746697 0.540824 0.387237 0 
0.061951 0.252903 0.0430991 0.751462 0.559945 0.348951 0 
0.0621822 0.253086 0.0432134 0.766813 0.544033 0.340626 0 
0.0620179 0.252719 0.0433471 0.750479 0.580135 0.316583 0 
0.0621274 0.252964 0.0432579 0.760577 0.550651 0.343955 0 
0.0622887 0.25278 0.0434006 0.745659 0.574206 0.338054 0 
0.0611682 0.252709 0.0442947 0.77305 0.573859 0.27033 0 
0.0616057 0.252482 0.0442097 0.767003 0.580392 0.273591 0 
0.061439 0.25277 0.0443482 0.77305 0.573859 0.27033 0 
0.0619972 0.25258 0.043612 0.74853 0.595313 0.29207 0 
0.0619903 0.252533 0.0437002 0.751188 0.598727 0.277924 0 
0.0622597 0.252444 0.043561 0.744272 0.60022 0.292907 0 
0.0617139 0.252576 0.0439278 0.760008 0.592522 0.26703 0 
0.0619558 0.252301 0.0441417 0.756017 0.594353 0.274195 0 
0.0617891 0.252589 0.0442802 0.767003 0.580392 0.273591 0 
0.0619641 0.252499 0.0442462 0.765488 0.585559 0.266737 0 
0.0619765 0.25244 0.0438768 0.772667 0.580681 0.256507 0 
0.0619807 0.252894 0.0444553 0.768844 0.582553 0.263649 0 
0.0625084 0.252215 0.0436866 0.735619 0.610612 0.293286 0 
0.0623933 0.252075 0.0440568 0.766464 0.590193 0.253389 0 
0.0642399 0.253123 0.0413547 -0.413095 0.909873 0.0385202 0 
0.0611475 0.25257 0.0445596 0.770457 0.585296 0.252635 0 
0.0612912 0.252798 0.0446908 0.763119 0.593188 0.256471 0 
0.0615537 0.252662 0.0446398 0.774549 0.579734 0.252946 0 
0.0611968 0.252797 0.0447961 0.759311 0.602104 0.246815 0 
0.061387 0.25295 0.0447783 0.760638 0.600668 0.246227 0 
0.0611655 0.253116 0.0449614 0.727246 0.638904 0.250829 0 
0.0614349 0.253026 0.0448221 0.74981 0.610897 0.254146 0 
0.0618724 0.2528 0.0447371 0.771872 0.583227 0.253099 0 
0.0609532 0.252672 0.0450512 0.736933 0.640337 0.216562 0 
0.0622059 0.252223 0.0444602 0.758022 0.593441 0.270609 0 
0.0619121 0.252678 0.0446764 0.77471 0.576711 0.259284 0 
0.0620788 0.25239 0.0445379 0.769612 0.579974 0.267073 0 
0.0617408 0.252264 0.0448983 0.75535 0.615182 0.225826 0 
0.0620894 0.251932 0.0446376 0.754231 0.60997 0.243047 0 
0.0620688 0.251793 0.0449025 0.745957 0.631194 0.212466 0 
0.0620512 0.252204 0.0448911 0.75535 0.615182 0.225826 0 
0.0619393 0.252615 0.044985 0.745543 0.630365 0.216347 0 
0.06151 0.253039 0.0451745 0.727684 0.649773 0.219707 0 
0.0614635 0.253114 0.0453235 0.680242 0.708007 0.189727 0 
0.0620558 0.252907 0.0448077 0.768561 0.586244 0.256187 0 
0.0612019 0.252443 0.0451769 0.727655 0.653183 0.209453 0 
0.0609804 0.252609 0.0453599 0.687585 0.699946 0.193142 0 
0.0609666 0.252516 0.0455365 0.642317 0.738278 0.205851 0 
0.0611103 0.252744 0.0456678 0.612734 0.763988 0.202187 0 
0.0614917 0.252244 0.0454346 0.690301 0.702546 0.172958 0 
0.0609459 0.252377 0.0458014 0.595491 0.774912 0.211902 0 
0.0611034 0.252698 0.0457561 0.625087 0.754735 0.199102 0 
0.060939 0.25233 0.0458897 0.58966 0.778475 0.215125 0 
0.0610896 0.252605 0.0459327 0.607685 0.765404 0.211839 0 
0.0616147 0.252333 0.0458307 0.649312 0.735681 0.192789 0 
0.0616243 0.251973 0.0450757 0.738562 0.646049 0.192735 0 
0.0618062 0.251929 0.0449534 0.744843 0.636895 0.198933 0 
0.0618813 0.251941 0.0453059 0.725985 0.66815 0.162852 0 
0.0622314 0.25176 0.0452379 0.723357 0.664997 0.185831 0 
0.0617473 0.252062 0.0454719 0.713468 0.679857 0.169582 0 
0.0619481 0.251757 0.0455538 0.70964 0.688457 0.149796 0 
0.0618293 0.252121 0.045736 0.687207 0.705574 0.17295 0 
0.0614018 0.252945 0.0454564 0.672837 0.715948 0.186301 0 
0.0613811 0.252806 0.0457213 0.632518 0.74948 0.19545 0 
0.0613742 0.252759 0.0458096 0.608974 0.766228 0.205047 0 
0.0612333 0.252833 0.0460639 0.574822 0.790573 0.211128 0 
0.0623726 0.251935 0.0443217 0.773748 0.582273 0.249545 0 
0.062352 0.251796 0.0445866 0.757381 0.60307 0.250361 0 
0.0610441 0.251873 0.0458841 0.586216 0.781106 0.214998 0 
0.0617277 0.251825 0.0465915 0.592226 0.781983 0.194348 0 
0.0619754 0.251694 0.0458624 0.669513 0.721603 0.176188 0 
0.0612126 0.252694 0.0463288 0.592717 0.773177 0.225575 0 
0.0613739 0.252511 0.0464714 0.611407 0.755268 0.236119 0 
0.0617032 0.25219 0.0466684 0.57782 0.778256 0.245848 0 
0.06142 0.252187 0.0469842 0.593405 0.778362 0.204994 0 
0.0618097 0.251884 0.0468556 0.578262 0.789934 0.204002 0 
0.0617783 0.252203 0.0470208 0.579309 0.786315 0.214731 0 
0.0617576 0.252064 0.0472857 0.741758 -0.484042 0.464218 0 
0.0615651 0.252566 0.0473083 0.526046 0.82621 0.201626 0 
0.0618276 0.25243 0.0472573 0.52304 0.830533 0.191429 0 
0.0617986 0.252093 0.0474177 0.732446 -0.464599 0.497666 0 
0.0597593 0.252852 0.0490164 0.429617 0.869786 -0.242696 0 
0.0599154 0.252313 0.047726 -0.136272 0.964285 -0.22712 0 
0.0603322 0.251947 0.0479059 -0.149984 0.963807 -0.220411 0 
0.0600467 0.2526 0.0482266 -0.0326229 0.99106 -0.129367 0 
0.060189 0.252677 0.0481651 -0.136793 0.975119 -0.174442 0 
