0.0731 0.2451 0.0138 0.8679 0.445192 0.220348 0 
0.0728 0.2454 0.0136 0.661751 -0.216431 0.717805 0 
0.073 0.2453 0.0139 0.847414 0.120231 0.51714 0 
0.0728 0.2454 0.0139 0.873206 0.235151 0.426867 0 
0.073 0.2453 0.0144 0.848077 0.177366 0.499307 0 
0.0728 0.2459 0.0139 0.824294 0.534962 0.185353 0 
0.0725 0.246 0.0142 0.17107 0.846424 -0.504284 0 
0.0728 0.2463 0.0142 0.203458 0.842469 -0.49885 0 
0.0725 0.246 0.0144 0.0753459 0.831648 -0.550167 0 
0.0727 0.2462 0.0142 0.17107 0.846424 -0.504284 0 
0.0728 0.2457 0.0138 0.854296 0.173228 0.490073 0 
0.0731 0.246 0.0136 0.880853 0.214662 0.421921 0 
0.0734 0.2457 0.0138 0.826406 0.0404145 0.561622 0 
0.0728 0.246 0.0141 0.239862 0.844864 -0.478196 0 
0.0731 0.2463 0.0144 0.157018 0.814997 -0.557787 0 
0.0734 0.246 0.0141 0.849323 0.488548 0.199929 0 
0.0734 0.2462 0.0142 -0.261038 0.605925 -0.751474 0 
0.0719 0.246 0.015 -0.221914 0.768164 -0.600565 0 
0.0718 0.246 0.0151 -0.225575 0.773177 -0.592717 0 
0.0719 0.2463 0.015 -0.333227 0.648573 -0.684334 0 
0.0713 0.2463 0.0153 -0.665018 0.326818 -0.671522 0 
0.0713 0.2463 0.0155 -0.721838 0.264938 -0.639342 0 
0.0716 0.2463 0.0157 -0.552444 -0.804814 -0.216977 0 
0.0715 0.2463 0.0159 -0.637203 0.443199 -0.630513 0 
0.0724 0.2457 0.0145 0.202886 0.852121 -0.482418 0 
0.0721 0.246 0.0147 -0.195511 0.76203 -0.617321 0 
0.0722 0.2462 0.0145 -0.158991 0.743473 -0.649592 0 
0.0725 0.2463 0.0144 -0.0918048 0.767955 -0.633891 0 
0.0721 0.2463 0.0148 -0.258757 0.706421 -0.658797 0 
0.0746 0.2439 0.013 0.825585 0.282478 0.488484 0 
0.0743 0.2447 0.013 0.903214 0.262887 0.339256 0 
0.0742 0.2442 0.0136 0.824607 0.218773 0.52169 0 
0.074 0.2448 0.0136 0.873736 0.155557 0.460856 0 
0.0743 0.2445 0.0132 0.888292 0.182326 0.421538 0 
0.0746 0.2445 0.0129 0.887468 0.29282 0.355888 0 
0.0746 0.2445 0.0132 0.865163 0.279233 0.41656 0 
0.0737 0.2451 0.0129 0.937837 0.276488 0.209798 0 
0.074 0.245 0.013 0.925992 0.243233 0.28875 0 
0.0739 0.2453 0.013 0.902766 0.402335 0.15212 0 
0.0737 0.2454 0.0132 0.779851 0.621286 -0.0763994 0 
0.074 0.2448 0.0132 0.920253 0.1767 0.349159 0 
0.074 0.2456 0.0135 0.698777 -0.258278 0.667086 0 
0.0737 0.2457 0.0136 0.820165 -0.0520516 0.569754 0 
0.0739 0.2454 0.0138 0.830303 -0.0606164 0.554005 0 
0.0737 0.2457 0.0138 0.891698 0.303207 0.336067 0 
0.0737 0.2457 0.0142 0.864022 0.465471 0.19184 0 
0.0737 0.2462 0.0144 -0.215923 0.632235 -0.74408 0 
0.0737 0.246 0.0147 -0.281094 0.589187 -0.757526 0 
0.0728 0.2469 0.0138 -0.260227 0.585116 -0.768063 0 
0.0724 0.2466 0.0144 -0.359803 0.517923 -0.776078 0 
0.0731 0.2466 0.0142 -0.271131 0.607271 -0.7468 0 
0.0719 0.2466 0.015 -0.49485 0.442241 -0.748029 0 
0.0719 0.2468 0.0151 -0.563511 0.337461 -0.754039 0 
0.0716 0.2465 0.0154 -0.576891 0.43724 -0.689941 0 
0.0718 0.2465 0.0153 -0.53834 0.416514 -0.732603 0 
0.0718 0.2466 0.0153 -0.558538 0.366388 -0.744174 0 
0.0719 0.2468 0.0153 -0.5677 0.334798 -0.752082 0 
0.0716 0.2468 0.0154 -0.647068 0.290619 -0.704871 0 
0.0716 0.2469 0.0155 -0.652924 0.301474 -0.694841 0 
0.0716 0.2466 0.0156 -0.646302 0.322341 -0.691657 0 
0.0716 0.2468 0.0156 -0.656391 0.293691 -0.694908 0 
0.0713 0.2466 0.0159 -0.769061 0.225281 -0.598159 0 
0.0713 0.2471 0.0157 -0.740578 0.281898 -0.609982 0 
0.071 0.2472 0.0159 -0.763397 0.263949 -0.589539 0 
0.0722 0.2466 0.0145 -0.421834 0.467437 -0.776891 0 
0.0722 0.2465 0.0147 -0.436142 0.472079 -0.766108 0 
0.0722 0.2466 0.0147 -0.427218 0.482871 -0.764409 0 
0.0721 0.2466 0.0148 -0.428895 0.464772 -0.77462 0 
0.0722 0.2466 0.015 -0.446058 0.462397 -0.766304 0 
0.0721 0.2469 0.0148 -0.584654 0.141329 -0.798878 0 
0.0731 0.2466 0.0144 -0.327017 0.558989 -0.761965 0 
0.0733 0.2468 0.0147 -0.449556 0.452825 -0.769967 0 
0.0731 0.2469 0.0147 -0.608822 0.222664 -0.761417 0 
0.0733 0.2466 0.0148 -0.3193 0.563187 -0.762147 0 
0.0736 0.2466 0.0148 -0.273591 0.580392 -0.767003 0 
0.0736 0.2468 0.015 -0.401279 0.420463 -0.813748 0 
0.0733 0.2469 0.0151 -0.500394 0.325653 -0.802219 0 
0.0722 0.2469 0.0153 -0.53243 0.354414 -0.768706 0 
0.0721 0.2469 0.0154 -0.54189 0.34778 -0.765117 0 
0.0728 0.2469 0.0153 -0.502563 0.286508 -0.815686 0 
0.0736 0.2465 0.0154 -0.502732 0.44669 -0.740087 0 
0.0734 0.2472 0.0154 -0.308431 0.369206 -0.876674 0 
0.073 0.2472 0.0155 -0.424506 0.318768 -0.847456 0 
0.0737 0.2472 0.0153 -0.0994173 0.446678 -0.889154 0 
0.071 0.2465 0.0162 -0.783673 0.235258 -0.574901 0 
0.071 0.2468 0.016 -0.800883 0.183884 -0.569888 0 
0.0709 0.2466 0.0163 -0.813601 0.160323 -0.558883 0 
0.0707 0.2472 0.0162 -0.812231 0.17631 -0.556054 0 
0.071 0.2471 0.016 -0.768364 0.249836 -0.589236 0 
0.071 0.2469 0.0162 -0.799496 0.183565 -0.571935 0 
0.0707 0.2466 0.0166 -0.84901 -0.341162 -0.403474 0 
0.0707 0.2469 0.0166 -0.801817 0.187141 -0.56751 0 
0.0709 0.2469 0.0165 -0.813601 0.160323 -0.558883 0 
0.0709 0.2472 0.0166 -0.808793 0.176876 -0.560864 0 
0.071 0.2472 0.0168 -0.807848 0.17365 -0.563229 0 
0.071 0.2472 0.0162 -0.782837 0.231894 -0.577401 0 
0.071 0.2472 0.0163 -0.782837 0.231894 -0.577401 0 
0.071 0.2475 0.0162 -0.779798 0.29699 -0.5511 0 
0.0712 0.2475 0.0165 -0.779922 -0.00412657 -0.625863 0 
0.071 0.2472 0.0166 -0.802739 0.190403 -0.565116 0 
0.0712 0.2475 0.0166 -0.768632 0.343226 -0.539815 0 
0.0707 0.2466 0.0168 -0.859679 -0.214545 -0.463597 0 
0.0707 0.2468 0.0171 -0.864935 -0.307703 -0.396492 0 
0.0707 0.2469 0.0168 -0.806262 0.189798 -0.560284 0 
0.0707 0.2469 0.0171 -0.852481 -0.3618 -0.377328 0 
0.0709 0.2472 0.0169 -0.809726 0.180107 -0.558484 0 
0.0704 0.2468 0.0172 -0.853503 -0.365343 -0.371561 0 
0.0706 0.2471 0.0174 -0.852284 -0.386555 -0.352402 0 
0.0707 0.2472 0.0171 -0.822972 0.176029 -0.540122 0 
0.071 0.2472 0.0168 -0.807848 0.17365 -0.563229 0 
0.0709 0.2474 0.0171 -0.810737 0.216094 -0.544067 0 
0.0706 0.2472 0.0174 -0.838765 -0.435783 -0.326447 0 
0.0707 0.2475 0.0172 -0.803548 0.260568 -0.535178 0 
0.0706 0.2475 0.0174 -0.814406 -0.496205 -0.300873 0 
0.0706 0.2478 0.0175 -0.814355 0.236426 -0.530026 0 
0.0692 0.2478 0.0194 -0.808015 0.314667 -0.498092 0 
0.0692 0.248 0.0194 -0.821447 0.309417 -0.479047 0 
0.0692 0.2478 0.0195 -0.812716 0.31404 -0.490786 0 
0.0692 0.248 0.0197 -0.212422 0.854207 -0.47456 0 
0.0694 0.248 0.0198 -0.212422 0.854207 -0.47456 0 
0.0691 0.2478 0.0207 0.319278 0.898434 -0.301458 0 
0.0688 0.2484 0.0201 -0.913466 0.0944965 -0.39579 0 
0.0686 0.2486 0.0203 0.240686 0.893342 -0.379486 0 
0.0686 0.2487 0.0203 0.240686 0.893342 -0.379486 0 
0.0681 0.2484 0.0207 0.230123 0.883374 -0.408282 0 
0.0683 0.2486 0.0207 0.273672 0.886816 -0.372373 0 
0.0684 0.2484 0.0206 0.235198 0.891978 -0.38608 0 
0.0684 0.2487 0.0204 -0.91277 0.0974537 -0.396678 0 
0.0686 0.2487 0.0206 0.272824 0.890031 -0.365256 0 
0.0684 0.2487 0.0207 0.273672 0.886816 -0.372373 0 
0.0686 0.2487 0.0207 0.288989 0.887928 -0.357867 0 
0.0695 0.2481 0.0195 -0.798508 0.371138 -0.473964 0 
0.0692 0.2483 0.0198 -0.209174 0.850238 -0.483055 0 
0.0692 0.2481 0.0197 -0.212902 0.850097 -0.481671 0 
0.0692 0.2484 0.02 -0.248069 0.827409 -0.503841 0 
0.0689 0.2481 0.0203 -0.914809 0.123548 -0.384525 0 
0.0689 0.249 0.0207 0.290217 0.885688 -0.362395 0 
0.0695 0.249 0.0206 0.137738 0.898848 -0.416054 0 
0.0692 0.249 0.0207 0.222281 0.893541 -0.390096 0 
0.0698 0.2489 0.0207 0.143641 0.900243 -0.411011 0 
0.0684 0.2481 0.0209 0.210363 0.889996 -0.404543 0 
0.0683 0.2484 0.021 0.910632 -0.00129535 0.413217 0 
0.0684 0.2486 0.0209 0.906377 -0.0552176 0.418846 0 
0.0686 0.2487 0.0209 0.313624 0.880268 -0.356046 0 
0.0686 0.2486 0.0212 0.287599 0.8926 -0.347205 0 
0.0686 0.2487 0.0212 0.271094 0.896239 -0.351089 0 
0.0683 0.2487 0.0213 0.25728 0.911381 -0.321236 0 
0.068 0.2486 0.0215 0.204409 0.916265 -0.344493 0 
0.0684 0.2484 0.0213 0.198256 0.904454 -0.3777 0 
0.068 0.2489 0.0215 0.225171 0.919328 -0.322697 0 
0.0683 0.2489 0.0213 0.258405 0.909526 -0.325561 0 
0.068 0.249 0.0215 0.225171 0.919328 -0.322697 0 
0.0688 0.249 0.0213 0.225691 0.90422 -0.362561 0 
0.0686 0.249 0.0215 0.229052 0.914766 -0.332773 0 
0.0686 0.2493 0.0213 0.252634 0.906853 -0.337332 0 
0.0678 0.2487 0.0216 0.270259 0.910116 -0.314085 0 
0.0677 0.249 0.0216 -0.849784 0.117261 -0.513924 0 
0.0678 0.2495 0.0218 0.312667 0.905706 -0.286244 0 
0.0674 0.2495 0.0224 0.485306 0.836574 -0.254208 0 
0.0677 0.2495 0.0221 0.430817 0.863156 -0.263361 0 
0.0677 0.2495 0.0222 0.466414 0.84872 -0.249264 0 
0.0683 0.2493 0.0216 0.856437 -0.0600763 0.512744 0 
0.068 0.2495 0.0216 0.230022 0.921516 -0.312887 0 
0.0688 0.2492 0.0221 0.379017 0.895188 -0.234489 0 
0.0686 0.2493 0.0221 0.284786 0.917965 -0.276112 0 
0.0698 0.2487 0.0213 0.157507 0.90957 -0.384545 0 
0.0689 0.2489 0.0209 0.300503 0.880368 -0.366946 0 
0.0689 0.249 0.0209 0.282277 0.880039 -0.381904 0 
0.0689 0.2489 0.021 0.315231 0.872597 -0.3731 0 
0.0691 0.249 0.021 0.315231 0.872597 -0.3731 0 
0.0695 0.249 0.0209 0.187626 0.894497 -0.405796 0 
0.0694 0.2492 0.021 0.153575 0.894182 -0.420538 0 
0.0695 0.249 0.0212 0.104681 0.897461 -0.428492 0 
0.0691 0.2493 0.0212 0.227787 0.894982 -0.383564 0 
0.0692 0.249 0.0213 0.256718 0.891834 -0.372463 0 
0.0692 0.249 0.0215 0.215663 0.907523 -0.360404 0 
0.0695 0.249 0.0215 0.205869 0.895018 -0.395677 0 
0.0691 0.2493 0.0215 0.231182 0.908735 -0.3475 0 
0.0698 0.249 0.0209 -0.195382 0.857591 -0.475777 0 
0.0692 0.249 0.0218 0.505241 0.840058 -0.197572 0 
0.0691 0.2493 0.0218 0.314069 0.903871 -0.290477 0 
0.0689 0.2493 0.0218 0.319642 0.902953 -0.287236 0 
0.0689 0.249 0.0221 0.515711 0.844826 -0.142518 0 
0.0671 0.2495 0.0225 0.526242 0.807321 -0.267025 0 
0.0675 0.249 0.0227 0.512306 0.821856 -0.249188 0 
0.0672 0.2495 0.0227 0.446082 0.853842 -0.268263 0 
0.0675 0.2493 0.0231 0.436417 0.855991 -0.277163 0 
0.0688 0.2492 0.0225 0.433792 0.880819 -0.189692 0 
0.0681 0.2495 0.0225 0.424918 0.872358 -0.241738 0 
0.0686 0.2493 0.0225 0.472525 0.860084 -0.192289 0 
0.0686 0.2495 0.0227 0.451452 0.868634 -0.204122 0 
0.0683 0.2495 0.023 0.488069 0.839969 -0.23715 0 
0.0686 0.2493 0.0231 0.584945 0.79353 -0.167775 0 
0.0674 0.2495 0.0233 0.398114 0.878855 -0.262905 0 
0.0683 0.2495 0.0233 0.543876 0.808881 -0.223405 0 
0.068 0.2496 0.0218 0.29085 0.910551 -0.293773 0 
0.068 0.2496 0.0221 0.383402 0.882577 -0.27214 0 
0.0677 0.2498 0.0222 0.489491 0.840217 -0.233309 0 
0.068 0.2499 0.0224 0.473723 0.848436 -0.2361 0 
0.0671 0.2499 0.0228 0.425557 0.86179 -0.276078 0 
0.0662 0.2502 0.0239 0.416703 0.90401 -0.0955233 0 
0.0671 0.2498 0.0234 0.341904 0.909319 -0.23715 0 
0.0671 0.2501 0.0234 0.378796 0.899458 -0.217918 0 
0.0671 0.2504 0.0234 0.484099 0.861432 -0.153566 0 
0.0671 0.2499 0.0237 0.353544 0.914633 -0.196095 0 
0.0668 0.2501 0.0239 0.435803 0.892762 -0.11424 0 
0.0666 0.2505 0.0237 0.436614 0.891596 -0.120104 0 
0.0666 0.2507 0.0237 0.422159 0.899016 -0.116409 0 
0.0665 0.2508 0.0239 0.399194 0.912248 -0.0919107 0 
0.0659 0.2519 0.0237 0.778742 0.386943 0.493797 0 
0.0662 0.2517 0.0239 0.763509 0.498652 0.410366 0 
0.066 0.2519 0.0239 0.721082 0.459172 0.518847 0 
0.0662 0.2502 0.0243 0.439996 0.897377 -0.0334343 0 
0.0663 0.2505 0.0242 0.42565 0.903667 -0.046996 0 
0.0663 0.2505 0.0243 0.439996 0.897377 -0.0334343 0 
0.0663 0.2508 0.0243 0.431364 0.901457 0.0360583 0 
0.0663 0.2505 0.0246 0.440881 0.896592 0.041796 0 
0.0663 0.251 0.0245 0.449787 0.889886 0.0761178 0 
0.0671 0.2507 0.0242 0.421944 0.902988 -0.0810903 0 
0.0665 0.2507 0.0245 0.422757 0.905527 0.0360077 0 
0.0665 0.2507 0.0246 0.425928 0.903928 0.0387207 0 
0.0662 0.2502 0.0248 0.465032 0.881186 0.085186 0 
0.0662 0.2504 0.025 0.503348 0.854385 0.129101 0 
0.066 0.2504 0.0252 0.621578 0.754885 0.20926 0 
0.0663 0.2505 0.0248 0.450386 0.888222 0.0906349 0 
0.0663 0.2507 0.0248 0.451708 0.888128 0.0847822 0 
0.0662 0.2505 0.025 0.542989 0.825642 0.153227 0 
0.0662 0.2507 0.025 0.520711 0.845611 0.117486 0 
0.0659 0.2505 0.0254 0.607047 0.778767 0.158164 0 
0.066 0.2505 0.0252 0.704526 0.656815 0.268769 0 
0.0662 0.2507 0.0252 0.62573 0.747443 0.223141 0 
0.0662 0.2505 0.0254 0.558995 0.815388 0.150556 0 
0.0662 0.251 0.0252 0.659545 0.718795 0.219848 0 
0.066 0.2508 0.0254 0.700078 0.681368 0.21361 0 
0.0666 0.2507 0.0248 0.442367 0.89432 0.0671082 0 
0.0668 0.2507 0.025 0.43654 0.896491 0.0757404 0 
0.0665 0.2507 0.0254 0.472256 0.875021 0.106364 0 
0.0674 0.2498 0.0225 0.461729 0.848292 -0.259243 0 
0.0672 0.2498 0.0225 0.463825 0.842897 -0.272747 0 
0.0675 0.2499 0.0227 0.414309 0.869593 -0.268618 0 
0.0677 0.2498 0.0225 0.456445 0.853354 -0.251884 0 
0.0675 0.2499 0.0228 0.432383 0.860182 -0.27043 0 
0.0672 0.2498 0.0231 0.393803 0.881939 -0.259042 0 
0.0674 0.2499 0.0231 0.419218 0.870219 -0.258795 0 
0.068 0.2496 0.023 0.49667 0.831883 -0.247566 0 
0.0678 0.2501 0.0228 0.435219 0.859748 -0.26724 0 
0.068 0.2501 0.0231 0.410056 0.867367 -0.282009 0 
0.0677 0.2504 0.0231 0.388771 0.886278 -0.251733 0 
0.0683 0.2496 0.0227 0.434005 0.869512 -0.235774 0 
0.0683 0.2499 0.0227 0.430028 0.864615 -0.25984 0 
0.068 0.2498 0.023 0.425913 0.862513 -0.273256 0 
0.068 0.2498 0.0231 0.42707 0.858731 -0.283182 0 
0.0672 0.2498 0.0233 0.35074 0.906686 -0.234312 0 
0.0672 0.2499 0.0233 0.342572 0.90818 -0.240529 0 
0.0678 0.2501 0.0234 0.392127 0.889315 -0.235276 0 
0.0678 0.2502 0.0237 0.338433 0.910719 -0.236758 0 
0.0677 0.2504 0.0239 0.377282 0.90169 -0.21122 0 
0.0683 0.2496 0.0234 0.489784 0.832787 -0.258025 0 
0.068 0.2499 0.0234 0.361324 0.893646 -0.266161 0 
0.0683 0.2499 0.0239 0.499731 0.83186 -0.241408 0 
0.0681 0.2501 0.0237 0.364192 0.893385 -0.26311 0 
0.0674 0.2507 0.0237 0.45848 0.878154 -0.136538 0 
0.0674 0.2505 0.0239 0.455053 0.87996 -0.136372 0 
0.0677 0.2505 0.0237 0.381539 0.899028 -0.21489 0 
0.0672 0.2511 0.0237 0.437945 0.888729 -0.13552 0 
0.0672 0.2508 0.0239 0.42944 0.896649 -0.10771 0 
0.068 0.2501 0.024 0.331014 0.908465 -0.255187 0 
0.068 0.2501 0.0243 0.322442 0.915272 -0.24147 0 
0.0677 0.2501 0.0245 0.268436 0.942969 -0.196853 0 
0.068 0.2501 0.0245 0.305974 0.929203 -0.207273 0 
0.0683 0.2499 0.024 0.429175 0.859877 -0.276444 0 
0.0681 0.2501 0.024 0.339517 0.903908 -0.260149 0 
0.0681 0.2501 0.0242 0.305198 0.915594 -0.261805 0 
0.0674 0.2505 0.0242 0.37869 0.913643 -0.147816 0 
0.0674 0.2505 0.0245 0.373734 0.922783 -0.0937733 0 
0.0677 0.2504 0.0248 0.227719 0.957484 -0.177114 0 
0.0674 0.2507 0.0248 0.363537 0.931324 -0.0218379 0 
0.0672 0.2507 0.0254 0.277396 0.960407 -0.0258903 0 
0.0653 0.2531 0.0237 0.999999 0.000977516 0.000977516 0 
0.066 0.2535 0.0239 0.999999 0.000977516 0.000977516 0 
0.0799 0.2397 0.0018 -0.116547 -0.900079 0.41985 0 
0.0796 0.24 0.003 -0.36074 -0.904041 0.229296 0 
0.0799 0.24 0.0031 -0.319001 -0.916587 0.241055 0 
0.0805 0.2391 0.0014 -0.0204833 -0.845279 0.533932 0 
0.0814 0.2391 0.0016 0.0629197 -0.85431 0.515942 0 
0.0805 0.2394 0.0011 -0.0151861 -0.807627 0.589498 0 
0.0805 0.2394 0.0014 -0.040075 -0.85263 0.520975 0 
0.0806 0.2395 0.0016 -0.0507624 -0.879424 0.473325 0 
0.0808 0.2394 0.0013 0.00134944 -0.846097 0.533028 0 
0.0808 0.2397 0.0016 -0.0509689 -0.869226 0.491781 0 
0.082 0.2388 0.0007 0.254624 -0.828685 0.498446 0 
0.0823 0.2391 0.0007 0.236795 -0.838714 0.490395 0 
0.0826 0.2389 0.0005 0.142732 -0.880902 0.451264 0 
0.0826 0.2394 0.0005 0.129422 -0.888887 0.439466 0 
0.0826 0.2392 0.0007 0.113953 -0.893333 0.434708 0 
0.0823 0.2392 0.001 0.20971 -0.8494 0.484294 0 
0.0822 0.2392 0.001 0.19949 -0.853455 0.481475 0 
0.0822 0.2395 0.0013 0.176214 -0.860339 0.478295 0 
0.0819 0.2397 0.0013 0.128743 -0.863587 0.487486 0 
0.0826 0.2394 0.001 0.757475 0.351975 0.549859 0 
0.0825 0.2394 0.0013 0.197354 -0.868061 0.455546 0 
0.0826 0.2392 0.0013 0.735561 0.378429 0.561909 0 
0.0825 0.2395 0.0016 0.171032 -0.875623 0.451699 0 
0.0805 0.2388 0.0016 0.00941266 -0.861931 0.506939 0 
0.0805 0.2391 0.0017 -0.0508187 -0.877652 0.476597 0 
0.0802 0.2397 0.0016 -0.0761143 -0.887078 0.455302 0 
0.0803 0.2397 0.0017 -0.0504725 -0.888043 0.456981 0 
0.08 0.2398 0.0019 -0.0989058 -0.898511 0.427663 0 
0.0805 0.24 0.0017 -0.0559824 -0.888891 0.454686 0 
0.0814 0.2394 0.0016 0.017601 -0.85974 0.510428 0 
0.0814 0.2397 0.0019 -0.00401701 -0.866335 0.499448 0 
0.0816 0.2397 0.0018 0.0629197 -0.85431 0.515942 0 
0.0811 0.2395 0.002 -0.0174428 -0.876168 0.481691 0 
0.0816 0.24 0.0022 0.00133851 -0.863341 0.504619 0 
0.0814 0.24 0.0022 -0.0093592 -0.875754 0.482667 0 
0.0814 0.24 0.0025 -0.00931745 -0.879834 0.47519 0 
0.0816 0.24 0.0024 0.00941266 -0.861931 0.506939 0 
0.0819 0.24 0.0018 0.0629197 -0.85431 0.515942 0 
0.0819 0.24 0.0022 0.0689158 -0.853712 0.516165 0 
0.079 0.2404 0.0022 -0.0706735 -0.879955 0.469771 0 
0.0797 0.2406 0.0018 -0.239579 -0.898053 0.368922 0 
0.0799 0.2403 0.002 -0.173836 -0.900785 0.397954 0 
0.0793 0.2406 0.0022 -0.26629 -0.891106 0.367451 0 
0.0793 0.2403 0.0024 -0.169246 -0.892518 0.418052 0 
0.0794 0.2401 0.0026 -0.209362 -0.908198 0.362413 0 
0.0794 0.2404 0.0024 -0.266129 -0.91182 0.312666 0 
0.0794 0.2404 0.0026 -0.324319 -0.911874 0.251602 0 
0.0797 0.2406 0.0025 -0.293188 -0.917114 0.270079 0 
0.0799 0.2406 0.0028 -0.27391 -0.934104 0.228961 0 
0.0797 0.24 0.0028 -0.331929 -0.911718 0.242062 0 
0.0797 0.2403 0.0031 -0.31252 -0.926248 0.210704 0 
0.0799 0.2406 0.003 -0.288696 -0.930869 0.223915 0 
0.082 0.24 0.0016 0.113547 -0.860942 0.495868 0 
0.0802 0.24 0.0029 -0.277461 -0.921515 0.27171 0 
0.0811 0.2401 0.0026 -0.0391046 -0.894013 0.446332 0 
0.0808 0.2403 0.0026 -0.102662 -0.918483 0.381903 0 
0.0811 0.2403 0.0029 -0.075151 -0.905911 0.416746 0 
0.0814 0.24 0.0028 -0.0119276 -0.889271 0.457226 0 
0.0823 0.2401 0.0016 0.111877 -0.8851 0.451755 0 
0.0797 0.24 0.0034 -0.344693 -0.916797 0.201667 0 
0.0797 0.2403 0.0034 -0.273827 -0.942569 0.191266 0 
0.0796 0.2406 0.0034 -0.287719 -0.933331 0.214736 0 
0.0796 0.2406 0.0032 -0.287944 -0.936165 0.2017 0 
0.0796 0.2403 0.0037 -0.267904 -0.939746 0.21238 0 
0.0794 0.2407 0.0037 -0.244207 -0.948178 0.203278 0 
0.0793 0.2404 0.0038 -0.263417 -0.945844 0.189715 0 
0.0794 0.2407 0.004 -0.294123 -0.93534 0.196547 0 
0.079 0.2412 0.0034 -0.297276 -0.933699 0.19958 0 
0.0793 0.2409 0.0035 -0.26829 -0.942455 0.199498 0 
0.0796 0.2409 0.0037 -0.229265 -0.950976 0.20756 0 
0.079 0.2404 0.0044 -0.509272 -0.852635 0.116859 0 
0.0791 0.2406 0.0047 -0.634881 -0.772599 0.00413155 0 
0.0793 0.2406 0.004 -0.343829 -0.921122 0.182526 0 
0.0794 0.2407 0.0041 -0.371479 -0.912329 0.172218 0 
0.0793 0.2406 0.0043 -0.534263 -0.838315 0.10859 0 
0.0793 0.2407 0.0043 -0.509272 -0.852635 0.116859 0 
0.0793 0.2406 0.0046 -0.509272 -0.852635 0.116859 0 
0.0791 0.241 0.0047 -0.437945 -0.888729 0.13552 0 
0.0796 0.2409 0.004 -0.275522 -0.940098 0.200757 0 
0.0796 0.2412 0.004 -0.300147 -0.933947 0.194049 0 
0.0794 0.2409 0.0042 -0.40405 -0.900904 0.158479 0 
0.0796 0.241 0.0042 -0.448776 -0.881679 0.145744 0 
0.0793 0.2409 0.0044 -0.51724 -0.84862 0.11094 0 
0.0793 0.2409 0.0046 -0.452133 -0.882872 0.12694 0 
0.0784 0.2413 0.0055 -0.812445 0.106478 -0.573233 0 
0.0784 0.241 0.0056 -0.815036 0.0879951 -0.572689 0 
0.0781 0.2412 0.0058 -0.800852 0.0883399 -0.592312 0 
0.0779 0.2415 0.0059 -0.782573 0.0555926 -0.620072 0 
0.0781 0.2415 0.0058 -0.784388 0.100787 -0.612027 0 
0.0782 0.2415 0.0058 -0.78649 0.113196 -0.607141 0 
0.0778 0.2413 0.006 -0.782573 0.0555926 -0.620072 0 
0.0787 0.2406 0.0052 -0.341242 -0.926228 0.160175 0 
0.079 0.2407 0.0049 -0.887302 -0.386237 -0.252024 0 
0.0784 0.2406 0.0053 -0.320731 -0.931647 0.170779 0 
0.0787 0.2407 0.0052 -0.354659 -0.920993 0.161209 0 
0.0787 0.241 0.005 -0.366766 -0.917617 0.15317 0 
0.079 0.2409 0.0048 -0.917205 -0.0195705 -0.397934 0 
0.079 0.2412 0.0049 -0.390369 -0.907075 0.157567 0 
0.0787 0.2412 0.0052 -0.364951 -0.91731 0.159226 0 
0.0791 0.2413 0.0052 -0.354659 -0.920993 0.161209 0 
0.0785 0.2409 0.0054 -0.350547 -0.923153 0.157816 0 
0.0785 0.2412 0.0052 -0.360795 -0.919535 0.15583 0 
0.0787 0.2413 0.0053 -0.383724 -0.910459 0.154339 0 
0.079 0.2413 0.0053 -0.397215 -0.906102 0.145598 0 
0.079 0.2412 0.0054 -0.411011 -0.900243 0.143641 0 
0.0793 0.2412 0.0049 -0.917205 -0.0195705 -0.397934 0 
0.0793 0.2413 0.0049 -0.346953 -0.922867 0.167155 0 
0.0793 0.2415 0.0052 -0.348838 -0.923231 0.16111 0 
0.0793 0.2413 0.0055 -0.389611 -0.906238 0.164122 0 
0.0796 0.2412 0.0054 -0.31625 -0.932031 0.176933 0 
0.0794 0.2407 0.0058 -0.864761 0.119426 -0.487777 0 
0.0787 0.2413 0.0056 -0.817298 0.0940254 -0.568492 0 
0.0785 0.2415 0.0056 -0.802269 0.125585 -0.583603 0 
0.0787 0.2415 0.0058 -0.803562 0.118992 -0.583206 0 
0.0791 0.2413 0.0056 -0.396289 -0.902739 0.167386 0 
0.079 0.2413 0.0058 -0.411721 -0.898949 0.149587 0 
0.079 0.2412 0.0064 -0.799405 0.0437064 -0.599201 0 
0.0787 0.2413 0.0063 -0.80076 0.0670868 -0.595217 0 
0.079 0.2412 0.006 -0.831185 0.0234331 -0.555502 0 
0.0793 0.2413 0.0058 -0.392082 -0.903367 0.17378 0 
0.0775 0.2418 0.0061 -0.404743 -0.895077 0.187139 0 
0.0778 0.2418 0.0063 -0.406402 -0.892919 0.193733 0 
0.0781 0.2416 0.006 -0.792473 0.067353 -0.606177 0 
0.0781 0.2418 0.006 -0.784873 0.0763271 -0.614937 0 
0.0781 0.2418 0.0063 -0.791216 0.0584502 -0.608737 0 
0.0797 0.2416 0.0052 -0.884304 0.139023 -0.445735 0 
0.0811 0.2403 0.0032 -0.126482 -0.934332 0.333204 0 
0.0784 0.2415 0.0064 -0.80076 0.0670868 -0.595217 0 
0.0787 0.2415 0.0064 -0.792473 0.067353 -0.606177 0 
0.0785 0.2415 0.007 -0.374547 -0.902119 0.214235 0 
0.0772 0.2416 0.0066 -0.418652 -0.883164 0.211545 0 
0.0775 0.2418 0.0064 -0.394307 -0.897741 0.196426 0 
0.0775 0.2418 0.0066 -0.402107 -0.893409 0.200323 0 
0.0772 0.2416 0.007 -0.353065 -0.90809 0.225206 0 
0.0775 0.2418 0.0069 -0.408292 -0.891217 0.19756 0 
0.0773 0.2418 0.007 -0.38984 -0.892953 0.225077 0 
0.0775 0.2421 0.0072 -0.430115 -0.876602 0.215802 0 
0.0776 0.2419 0.0064 -0.423893 -0.884454 0.195079 0 
0.0778 0.2418 0.0067 -0.410961 -0.89066 0.194512 0 
0.0778 0.2421 0.0067 -0.3777 -0.904454 0.198256 0 
0.0779 0.2422 0.0067 -0.381725 -0.901335 0.204651 0 
0.0782 0.2421 0.0066 -0.418681 -0.888421 0.188188 0 
0.0778 0.2418 0.0069 -0.402107 -0.893409 0.200323 0 
0.0776 0.2419 0.007 -0.414859 -0.884344 0.214073 0 
0.0782 0.2418 0.0069 -0.430041 -0.882098 0.192271 0 
0.0781 0.2419 0.007 -0.381725 -0.901335 0.204651 0 
0.0778 0.2421 0.007 -0.397512 -0.893301 0.209757 0 
0.0776 0.2421 0.0072 -0.418124 -0.879399 0.227662 0 
0.0778 0.2422 0.0072 -0.423858 -0.878948 0.218622 0 
0.0781 0.2422 0.007 -0.412147 -0.884861 0.217153 0 
0.0772 0.2416 0.0072 -0.376684 -0.893701 0.243737 0 
0.0775 0.2418 0.0072 -0.38984 -0.892953 0.225077 0 
0.0772 0.2419 0.0073 -0.362668 -0.890998 0.27312 0 
0.077 0.2422 0.0073 -0.397663 -0.88846 0.229137 0 
0.0769 0.2424 0.0076 -0.371717 -0.897704 0.236547 0 
0.0772 0.2424 0.0073 -0.39468 -0.886168 0.242765 0 
0.0782 0.2418 0.0075 -0.331259 -0.909138 0.252457 0 
0.0778 0.2421 0.0075 -0.411727 -0.87885 0.241047 0 
0.0781 0.2421 0.0073 -0.398437 -0.887226 0.232545 0 
0.0778 0.2424 0.0078 -0.430435 -0.871368 0.235464 0 
0.0769 0.2425 0.0076 -0.362158 -0.90173 0.236063 0 
0.0775 0.2424 0.0075 -0.399978 -0.884709 0.239392 0 
0.0772 0.2424 0.0078 -0.360649 -0.894943 0.262695 0 
0.0775 0.2424 0.0078 -0.356833 -0.895783 0.265033 0 
0.0776 0.2424 0.0072 -0.482826 -0.853541 0.195821 0 
0.0785 0.2416 0.0066 -0.804938 0.0377971 -0.592154 0 
0.0785 0.2416 0.0066 -0.804938 0.0377971 -0.592154 0 
0.0778 0.2424 0.0081 -0.397042 -0.877116 0.27023 0 
0.0775 0.2424 0.0081 -0.351089 -0.896239 0.271094 0 
0.0772 0.243 0.0081 -0.322701 -0.909697 0.261373 0 
0.0772 0.243 0.0081 -0.322701 -0.909697 0.261373 0 
0.0769 0.2433 0.0082 -0.170819 -0.877453 0.448216 0 
0.0769 0.2434 0.0082 -0.0894126 -0.855807 0.50951 0 
0.0769 0.2436 0.0084 0.110782 -0.760701 0.639579 0 
0.0769 0.2456 0.0097 0.999999 0.000977516 0.000977516 0 
0.0632 0.2493 0.0279 0.999999 0.000977516 0.000977516 0 
0.0633 0.2495 0.0278 0.999999 0.000977516 0.000977516 0 
0.0629 0.2495 0.028 0.999999 0.000977516 0.000977516 0 
0.0629 0.2495 0.0282 0.999999 0.000977516 0.000977516 0 
0.0626 0.2496 0.0284 0.999999 0.000977516 0.000977516 0 
0.0638 0.2522 0.0293 0.137198 0.900981 -0.411594 0 
0.0638 0.2525 0.0302 0.0334736 0.898432 -0.437835 0 
0.0621 0.254 0.032 0.334141 0.902327 -0.272317 0 
0.0639 0.2531 0.0304 0.463597 0.859679 -0.214545 0 
0.0638 0.2531 0.0306 0.406432 0.890628 -0.203949 0 
0.0638 0.2532 0.0306 0.44057 0.87672 -0.193026 0 
0.0638 0.2532 0.031 0.41178 0.894356 -0.174826 0 
0.0639 0.2534 0.0311 0.415688 0.900423 -0.128229 0 
0.0632 0.2534 0.0316 0.422882 0.895598 -0.138113 0 
0.0635 0.2534 0.0314 0.411158 0.904547 -0.112894 0 
0.0632 0.2537 0.0316 0.769543 -0.0858281 0.6328 0 
0.0626 0.2537 0.032 0.308119 0.921492 -0.236464 0 
0.063 0.2537 0.0317 0.766738 -0.0887496 0.635796 0 
0.0632 0.254 0.0316 0.781072 0.530872 0.328788 0 
0.063 0.2537 0.032 0.30309 0.920761 -0.245632 0 
0.0629 0.254 0.0319 0.296859 0.922128 -0.2481 0 
0.0635 0.2537 0.0316 0.398921 0.904316 -0.151902 0 
0.0638 0.2538 0.0314 0.405103 0.908371 -0.103695 0 
0.0614 0.2541 0.0325 0.528717 0.832543 -0.165317 0 
0.0623 0.254 0.0322 0.283504 0.91959 -0.271991 0 
0.0624 0.2538 0.0325 0.282444 0.921886 -0.265239 0 
0.0624 0.2543 0.0329 0.312097 0.906986 -0.282792 0 
0.0623 0.2543 0.0332 0.233579 0.935714 -0.26435 0 
0.0627 0.2538 0.0323 0.245208 0.928389 -0.279225 0 
0.0629 0.2538 0.0322 0.291753 0.921248 -0.25726 0 
0.0627 0.2543 0.032 0.262788 0.927569 -0.265628 0 
0.0627 0.2543 0.0322 0.208172 0.924737 -0.318631 0 
0.0629 0.254 0.032 0.296859 0.922128 -0.2481 0 
0.0629 0.254 0.0322 0.280854 0.920338 -0.272213 0 
0.0626 0.2538 0.0326 0.22185 0.928378 -0.298155 0 
0.0626 0.254 0.0328 0.211501 0.934248 -0.287138 0 
0.0626 0.2543 0.0326 0.163684 0.93671 -0.309486 0 
0.0627 0.2543 0.0325 0.199934 0.932559 -0.3006 0 
0.0626 0.2543 0.0326 0.163684 0.93671 -0.309486 0 
0.0629 0.254 0.0325 0.234365 0.927517 -0.291181 0 
0.0624 0.254 0.0329 0.275606 0.919167 -0.281378 0 
0.0626 0.2543 0.0328 0.275606 0.919167 -0.281378 0 
0.0632 0.254 0.0332 0.234631 0.93431 -0.268351 0 
0.0621 0.2544 0.0334 0.191121 0.941856 -0.276369 0 
0.0624 0.2546 0.0332 0.154184 0.950581 -0.269488 0 
0.0621 0.2544 0.0335 0.225529 0.934336 -0.275958 0 
0.0623 0.2546 0.0334 0.191121 0.941856 -0.276369 0 
0.0626 0.2546 0.0322 0.182052 0.921549 -0.342935 0 
0.0624 0.2547 0.0325 0.312526 0.899068 -0.306601 0 
0.0626 0.2544 0.0328 0.275606 0.919167 -0.281378 0 
0.0624 0.2546 0.0331 0.233579 0.935714 -0.26435 0 
0.0624 0.2547 0.0331 0.154184 0.950581 -0.269488 0 
0.0624 0.2547 0.0332 0.224863 0.937163 -0.266763 0 
0.0626 0.2546 0.0335 0.196707 0.942269 -0.270988 0 
0.0635 0.2546 0.0334 0.361861 0.89653 -0.255519 0 
0.0624 0.2541 0.0347 0.271493 0.920777 -0.280111 0 
0.0626 0.2543 0.035 0.417918 0.86775 -0.268987 0 
0.0633 0.2543 0.0346 0.213955 0.935531 -0.281079 0 
0.0624 0.2546 0.0338 0.194271 0.941044 -0.27694 0 
0.0624 0.2546 0.034 0.307163 0.912755 -0.269314 0 
0.0624 0.2547 0.0341 0.352023 0.895654 -0.271815 0 
0.0623 0.2546 0.0343 0.417575 0.867038 -0.271803 0 
0.0624 0.2547 0.0344 0.522655 0.823067 -0.222243 0 
0.0624 0.2549 0.0343 0.540555 0.81313 -0.215916 0 
0.0623 0.2549 0.0344 0.555041 0.805804 -0.20642 0 
0.0612 0.2546 0.0347 0.735996 0.67187 -0.0830728 0 
0.0621 0.2546 0.0344 0.487154 0.837535 -0.247419 0 
0.0624 0.2547 0.0347 0.54993 0.805639 -0.22028 0 
0.0618 0.2549 0.0346 0.324714 0.863339 -0.386271 0 
0.0623 0.2549 0.0346 0.567881 0.795649 -0.210839 0 
0.0623 0.2549 0.0346 0.567881 0.795649 -0.210839 0 
0.0621 0.2546 0.035 0.553441 0.803184 -0.220452 0 
0.0618 0.2549 0.035 0.48442 0.827096 -0.285044 0 
0.0621 0.2549 0.035 0.287878 0.854397 -0.432587 0 
0.0624 0.2549 0.0349 0.19138 0.867885 -0.458421 0 
0.0621 0.255 0.035 0.384281 0.842282 -0.378007 0 
0.0621 0.2553 0.0344 0.298193 0.867055 -0.39912 0 
0.0618 0.2555 0.035 -0.545592 0.462168 -0.699092 0 
0.0623 0.2552 0.035 0.31231 0.843702 -0.436612 0 
0.0624 0.2544 0.0337 0.225529 0.934336 -0.275958 0 
0.0626 0.2546 0.0338 0.225529 0.934336 -0.275958 0 
0.0624 0.2547 0.034 0.307163 0.912755 -0.269314 0 
0.0632 0.2547 0.034 0.313358 0.916969 -0.246932 0 
0.0627 0.2544 0.0344 0.297162 0.914678 -0.273969 0 
0.063 0.2546 0.0343 0.198152 0.938106 -0.284065 0 
0.0635 0.2546 0.0338 0.238465 0.938522 -0.249622 0 
0.0633 0.2546 0.0344 0.261396 0.92417 -0.278536 0 
0.0636 0.2547 0.034 0.132622 0.966985 -0.217604 0 
0.0635 0.2549 0.034 0.188218 0.957111 -0.220256 0 
0.0636 0.2549 0.0343 0.146004 0.958889 -0.24334 0 
0.0627 0.2546 0.0346 0.443662 0.858356 -0.257659 0 
0.063 0.2544 0.0346 0.155142 0.948392 -0.276558 0 
0.0599 0.2558 0.0383 -0.813041 0.20593 -0.54457 0 
0.0605 0.2555 0.038 -0.793418 0.48442 -0.368545 0 
0.0602 0.2556 0.0382 -0.178985 0.983846 0.00342009 0 
0.06 0.2559 0.0382 -0.829744 0.00135801 -0.558142 0 
0.0603 0.2559 0.0383 -0.256473 0.966331 -0.0206637 0 
0.0606 0.2558 0.038 -0.817519 0.449239 -0.360343 0 
0.0605 0.2558 0.0382 -0.585402 0.777947 -0.22826 0 
0.0615 0.2556 0.0355 -0.895137 -0.428478 -0.123028 0 
0.0615 0.2559 0.0355 -0.898493 -0.41589 -0.140523 0 
0.0615 0.2556 0.0356 -0.8984 -0.412778 -0.149971 0 
0.0615 0.2559 0.0356 -0.902739 -0.396289 -0.167386 0 
0.0615 0.2556 0.0358 -0.906506 -0.382365 -0.17901 0 
0.0614 0.2559 0.0358 -0.927064 -0.309965 -0.210889 0 
0.0617 0.2555 0.0352 -0.792218 -0.607981 0.0524366 0 
0.0617 0.2558 0.0358 -0.905456 -0.386003 -0.176499 0 
0.0623 0.2556 0.0358 -0.830951 -0.554433 -0.0460864 0 
0.0611 0.2559 0.0362 -0.931267 -0.162382 -0.326151 0 
0.0609 0.2559 0.0364 -0.899316 0.0527419 -0.434106 0 
0.0615 0.2556 0.0361 -0.922527 -0.330182 -0.19981 0 
0.0615 0.2559 0.0361 -0.929898 -0.28927 -0.227183 0 
0.0611 0.2555 0.0368 -0.89522 0.117013 -0.429988 0 
0.0623 0.2559 0.0362 -0.90779 -0.365136 -0.206381 0 
0.0623 0.2558 0.0365 -0.91828 -0.292639 -0.26669 0 
0.0612 0.2555 0.0374 -0.883966 0.111733 -0.454005 0 
0.0611 0.2555 0.0376 -0.87567 0.158815 -0.456048 0 
0.0609 0.2559 0.0377 -0.877916 0.0174243 -0.478498 0 
0.0648 0.249 0.0274 0.999999 0.000977516 0.000977516 0 
0.0654 0.251 0.0263 0.823703 0.5545 0.118508 0 
0.0656 0.251 0.0263 0.819114 0.561217 0.118691 0 
0.0653 0.2504 0.027 0.942084 0.0996563 0.320229 0 
0.0656 0.2507 0.0264 0.824748 0.552274 0.121588 0 
0.0656 0.2507 0.0266 -0.0930395 0.898456 -0.429093 0 
0.0653 0.2511 0.0264 -0.237535 0.832138 -0.501122 0 
0.0654 0.251 0.0266 -0.0390575 0.892935 -0.448488 0 
0.0654 0.2508 0.0269 0.306601 0.899068 -0.312526 0 
0.0653 0.2511 0.0269 -0.129155 0.857647 -0.497755 0 
0.0653 0.2511 0.027 0.858678 0.499098 0.116504 0 
0.0659 0.2505 0.0257 0.847309 -0.209939 0.487845 0 
0.0659 0.2505 0.0258 0.856325 -0.176608 0.4853 0 
0.0662 0.2505 0.0257 0.854568 -0.150979 0.49691 0 
0.0656 0.2505 0.0263 0.902548 0.314636 0.293956 0 
0.0656 0.2507 0.0263 0.849209 0.494004 0.186557 0 
0.0657 0.2511 0.0263 0.816697 0.565406 0.115419 0 
0.0665 0.2507 0.0257 0.372878 0.927679 -0.0193535 0 
0.0668 0.251 0.0257 0.372047 0.928213 -0.00126979 0 
0.0659 0.2501 0.027 0.931373 -0.0192698 0.363557 0 
0.0654 0.2513 0.0263 0.859237 0.491618 0.141504 0 
0.0653 0.2514 0.0266 0.870752 0.472199 0.137183 0 
0.0654 0.2516 0.0266 0.00924482 0.891465 -0.452996 0 
0.0653 0.2513 0.0266 0.206057 0.909245 -0.361681 0 
0.0653 0.2514 0.0267 0.00924482 0.891465 -0.452996 0 
0.0656 0.2516 0.0267 0.00924482 0.891465 -0.452996 0 
0.0654 0.2513 0.027 0.867287 0.479252 0.134654 0 
0.0653 0.2514 0.0272 -0.152588 0.831087 -0.5348 0 
0.0656 0.2516 0.027 -0.24367 0.802405 -0.544766 0 
0.0653 0.2516 0.0272 -0.102363 0.840533 -0.532001 0 
0.0656 0.2517 0.0272 -0.202334 0.816941 -0.540063 0 
0.0659 0.2513 0.0263 0.819114 0.561217 0.118691 0 
0.0656 0.2514 0.0263 0.812445 0.573233 0.106478 0 
0.0659 0.2516 0.0266 0.82837 0.54885 0.112099 0 
0.0651 0.2505 0.0274 0.940474 0.0138862 0.339581 0 
0.0653 0.2511 0.0272 -0.152965 0.830168 -0.536119 0 
0.0653 0.2516 0.0273 -0.063207 0.844165 -0.532344 0 
0.065 0.2516 0.0275 -0.0806428 0.855946 -0.510738 0 
0.065 0.2517 0.0275 -0.117309 0.844333 -0.52282 0 
0.0653 0.2516 0.0273 -0.063207 0.844165 -0.532344 0 
0.0653 0.2519 0.0273 -0.0809017 0.8445 -0.529409 0 
0.0653 0.2519 0.0275 -0.0601902 0.852461 -0.519315 0 
0.0654 0.2519 0.0274 -0.0809017 0.8445 -0.529409 0 
0.0653 0.2514 0.0278 -0.113954 0.849608 -0.514957 0 
0.065 0.2519 0.0278 -0.188051 0.831938 -0.52203 0 
0.0651 0.2519 0.0278 -0.184509 0.835539 -0.517524 0 
0.065 0.2519 0.0279 -0.252793 0.81421 -0.522645 0 
0.065 0.2519 0.0279 -0.252793 0.81421 -0.522645 0 
0.0656 0.2519 0.0276 -0.0601902 0.852461 -0.519315 0 
0.0647 0.2523 0.0279 0.893031 0.443065 0.078675 0 
0.0653 0.2522 0.0278 -0.17508 0.836494 -0.519255 0 
0.0647 0.2519 0.0285 0.761473 0.642083 -0.0888142 0 
0.0647 0.2519 0.0287 0.688514 0.706753 -0.162629 0 
0.065 0.2516 0.028 0.910831 0.396316 0.115418 0 
0.0651 0.2516 0.0282 0.905032 0.417602 0.080782 0 
0.0648 0.2519 0.0281 0.906751 0.414398 0.077956 0 
0.065 0.2519 0.0281 0.903522 0.422373 0.0724458 0 
0.0648 0.2517 0.0284 0.891633 0.450552 0.0446493 0 
0.0647 0.252 0.0284 0.788791 0.611277 -0.0644203 0 
0.0647 0.2522 0.0284 0.760245 0.643509 -0.0890115 0 
0.0645 0.2522 0.0285 0.604712 0.773113 -0.191365 0 
0.0647 0.2522 0.0287 0.500202 0.825411 -0.261716 0 
0.0647 0.2523 0.0286 0.518602 0.8145 -0.260079 0 
0.0648 0.2522 0.0282 0.866191 0.499045 0.0258361 0 
0.0648 0.2523 0.0284 0.757379 0.646472 -0.0919361 0 
0.065 0.2525 0.0285 0.506837 0.818736 -0.269793 0 
0.0651 0.2525 0.0287 0.470296 0.836599 -0.280936 0 
0.0657 0.2516 0.0278 -0.0988069 0.852031 -0.514082 0 
0.066 0.2519 0.028 -0.104677 0.856054 -0.506176 0 
0.0647 0.2519 0.029 0.29941 0.886193 -0.353575 0 
0.0647 0.2522 0.029 0.261162 0.898575 -0.352643 0 
0.0647 0.2523 0.0288 0.29941 0.886193 -0.353575 0 
0.0644 0.2522 0.0291 0.184863 0.909982 -0.371158 0 
0.0644 0.2523 0.0291 0.184863 0.909982 -0.371158 0 
0.0647 0.2525 0.029 0.219573 0.905919 -0.362077 0 
0.0647 0.2526 0.0291 0.191386 0.908002 -0.372698 0 
0.0642 0.2522 0.0293 0.224406 0.896158 -0.38281 0 
0.0645 0.2522 0.0293 0.166897 0.90581 -0.389427 0 
0.0645 0.2522 0.0296 0.179544 0.903464 -0.389251 0 
0.0644 0.2525 0.0294 0.179544 0.903464 -0.389251 0 
0.0644 0.2525 0.0293 0.234226 0.894185 -0.381538 0 
0.065 0.2525 0.029 0.235311 0.904705 -0.355159 0 
0.0654 0.2528 0.0293 -0.0198766 0.899747 -0.43596 0 
0.065 0.2519 0.0299 -0.0361925 0.896771 -0.441013 0 
0.0644 0.2525 0.0296 0.179544 0.903464 -0.389251 0 
0.0641 0.2528 0.0299 0.0444848 0.899132 -0.435412 0 
0.0644 0.2525 0.0298 0.149552 0.901586 -0.405927 0 
0.0647 0.2522 0.03 -0.0619469 0.885152 -0.46116 0 
0.065 0.2523 0.0296 -0.00658034 0.896243 -0.443515 0 
0.0648 0.2525 0.0299 -0.0253561 0.892801 -0.449737 0 
0.0651 0.2528 0.0298 0.42014 0.826012 -0.375748 0 
0.0654 0.2526 0.0296 0.439203 0.829607 -0.344751 0 
0.0654 0.2526 0.0299 0.0527419 0.899316 -0.434106 0 
0.065 0.2525 0.0302 -0.0820164 0.885499 -0.457346 0 
0.0654 0.2528 0.0302 0.00920127 0.897781 -0.440346 0 
0.065 0.2528 0.0305 0.242765 0.886168 -0.39468 0 
0.065 0.2526 0.0304 0.27023 0.877116 -0.397042 0 
0.065 0.2526 0.0308 0.207883 0.886085 -0.414293 0 
0.065 0.2528 0.031 0.0752629 0.901787 -0.425578 0 
0.0665 0.2528 0.0308 -0.276313 0.841287 -0.464637 0 
0.0647 0.2528 0.0288 0.217249 0.902533 -0.371803 0 
0.0645 0.2528 0.029 0.191386 0.908002 -0.372698 0 
0.0644 0.2528 0.0293 0.179544 0.903464 -0.389251 0 
0.0644 0.2531 0.0293 0.179544 0.903464 -0.389251 0 
0.0642 0.2529 0.0294 0.201944 0.899304 -0.387906 0 
0.0644 0.2531 0.0294 0.16733 0.905296 -0.390436 0 
0.0645 0.2531 0.0293 0.179544 0.903464 -0.389251 0 
0.0645 0.2531 0.0296 0.122368 0.901588 -0.414927 0 
0.0648 0.2532 0.0294 0.179744 0.904472 -0.386809 0 
0.0642 0.2528 0.0296 0.149552 0.901586 -0.405927 0 
0.0642 0.2528 0.0298 0.122368 0.901588 -0.414927 0 
0.0644 0.2531 0.0298 0.101259 0.903008 -0.41752 0 
0.0644 0.2529 0.0296 0.149552 0.901586 -0.405927 0 
0.0645 0.2531 0.0298 0.101259 0.903008 -0.41752 0 
0.0647 0.2534 0.0298 0.0611909 0.901545 -0.428336 0 
0.0641 0.2529 0.03 0.0388637 0.901906 -0.430181 0 
0.0642 0.2531 0.03 0.0754576 0.898631 -0.432166 0 
0.0641 0.2529 0.0302 0.539913 0.815222 -0.209541 0 
0.0641 0.2531 0.0302 0.513637 0.830658 -0.214904 0 
0.0645 0.2531 0.03 0.0306128 0.90108 -0.432572 0 
0.0647 0.2534 0.03 0.470633 0.830252 -0.298641 0 
0.0644 0.2532 0.0302 0.0840285 0.902273 -0.422898 0 
0.065 0.2528 0.0302 0.290285 0.870854 -0.396672 0 
0.0648 0.2535 0.0302 0.222025 0.892513 -0.392588 0 
0.0651 0.2535 0.0302 0.00920069 0.900354 -0.435061 0 
0.0641 0.2531 0.0304 0.46302 0.858171 -0.221707 0 
0.0645 0.2531 0.0304 0.405708 0.870677 -0.27807 0 
0.0647 0.2531 0.0308 0.35232 0.889045 -0.292351 0 
0.0641 0.2531 0.0308 0.394544 0.893224 -0.215606 0 
0.0647 0.2529 0.0309 0.353255 0.885392 -0.302146 0 
0.0641 0.2534 0.031 0.435934 0.887694 -0.148189 0 
0.0642 0.2535 0.031 0.411721 0.898949 -0.149587 0 
0.0644 0.2534 0.0309 0.406432 0.890628 -0.203949 0 
0.065 0.2528 0.0308 0.0642233 0.895027 -0.441364 0 
0.0641 0.2537 0.0313 0.421793 0.900661 -0.104404 0 
0.0642 0.2537 0.0314 0.411405 0.902845 -0.124966 0 
0.0644 0.2537 0.0316 0.370304 0.919519 -0.131756 0 
0.0668 0.2535 0.0308 -0.159657 0.685766 -0.710095 0 
0.0671 0.2534 0.0308 0.326182 0.403476 -0.854875 0 
0.0668 0.2538 0.0311 0.528319 -0.0344856 -0.848345 0 
0.0671 0.2538 0.031 0.247116 0.447235 -0.859601 0 
0.0671 0.2543 0.0316 0.596051 0.379305 -0.707708 0 
0.0671 0.2546 0.0316 0.634704 0.341011 -0.693443 0 
0.0669 0.2549 0.0316 0.670601 0.355796 -0.650926 0 
0.0669 0.2547 0.0317 0.578123 0.412472 -0.704018 0 
0.0665 0.255 0.0316 0.578123 0.412472 -0.704018 0 
0.0668 0.2552 0.0316 0.670601 0.355796 -0.650926 0 
0.0674 0.254 0.0314 0.464244 0.42515 -0.776998 0 
0.0672 0.2543 0.0314 0.560138 0.395875 -0.727687 0 
0.0672 0.2552 0.0322 0.906763 -0.0224381 -0.421044 0 
0.0675 0.2555 0.0326 -0.0237034 0.779424 -0.626049 0 
0.0675 0.2558 0.0326 0.2443 0.695073 -0.676159 0 
0.0675 0.2558 0.0328 0.198718 0.753279 -0.626962 0 
0.0675 0.2559 0.0328 -0.80506 0.553575 0.213149 0 
0.0678 0.2559 0.0332 -0.700752 0.632465 0.330052 0 
0.068 0.2558 0.0334 -0.630609 0.695788 0.34382 0 
0.0686 0.2559 0.0346 0.386847 0.816677 -0.428238 0 
0.0689 0.2559 0.0343 0.419727 0.769227 -0.481788 0 
0.0695 0.2553 0.0347 0.228634 0.820936 -0.523251 0 
0.0691 0.2558 0.0346 0.354844 0.788364 -0.502562 0 
0.0692 0.2559 0.0346 0.364752 0.727868 -0.580659 0 
0.0698 0.2555 0.0349 0.229655 0.757706 -0.610852 0 
0.0698 0.2556 0.0352 0.196406 0.719126 -0.666545 0 
0.0683 0.2558 0.0352 0.446988 0.778572 -0.440486 0 
0.0701 0.2552 0.0352 0.179299 0.430026 -0.884833 0 
0.0709 0.2558 0.0349 0.0887631 0.621342 -0.778496 0 
0.0704 0.2552 0.0355 0.258594 0.331644 -0.907272 0 
0.0588 0.2558 0.0394 0.295937 0.932692 0.206174 0 
0.0591 0.2559 0.0394 0.326259 0.921788 0.209433 0 
0.0587 0.2559 0.0397 0.339747 0.931917 0.126894 0 
0.0588 0.2558 0.0398 0.290361 0.953674 0.07872 0 
0.0594 0.2558 0.0392 0.167732 0.966084 0.196337 0 
0.0599 0.2558 0.0394 0.186361 0.960885 0.204865 0 
0.0594 0.2558 0.0398 0.216753 0.969686 0.112813 0 
0.0599 0.2558 0.0398 0.118764 0.9849 0.125962 0 
0.06 0.2559 0.0392 0.168552 0.968854 0.181419 0 
0.06 0.2558 0.0395 0.145298 0.974129 0.173094 0 
0.0587 0.2558 0.04 0.304081 0.950736 0.0603031 0 
0.0588 0.2558 0.04 0.294901 0.953642 0.0600016 0 
0.0587 0.2558 0.0403 0.328951 0.944326 -0.00625382 0 
0.0588 0.2558 0.0403 0.328951 0.944326 -0.00625382 0 
0.0591 0.2553 0.0407 0.298635 0.952299 -0.062803 0 
0.0588 0.2556 0.0406 0.313325 0.94771 -0.0606019 0 
0.0587 0.2559 0.0404 0.332624 0.943059 0.00124578 0 
0.0587 0.2559 0.0406 0.31957 0.945772 -0.0582213 0 
0.0579 0.2559 0.0415 0.363884 0.927836 -0.0819074 0 
0.0588 0.2555 0.0409 0.317701 0.945258 -0.0745224 0 
0.0588 0.2555 0.041 0.323922 0.942914 -0.0773741 0 
0.0585 0.2559 0.0409 0.338975 0.937787 -0.0751812 0 
0.0585 0.2559 0.041 0.363884 0.927836 -0.0819074 0 
0.0591 0.2556 0.041 0.308323 0.948387 -0.0741537 0 
0.0591 0.2556 0.0413 0.311837 0.946037 -0.0881564 0 
0.0588 0.2558 0.0412 0.342064 0.935685 -0.0865143 0 
0.0591 0.2558 0.0415 0.356474 0.928458 -0.104367 0 
0.059 0.2559 0.0415 0.363114 0.926145 -0.101998 0 
0.0594 0.2556 0.04 0.26119 0.961944 0.0802682 0 
0.0594 0.2556 0.0403 0.292216 0.955079 0.0493352 0 
0.0599 0.2558 0.04 0.0924675 0.992028 0.0856181 0 
0.0599 0.2558 0.0403 0.207911 0.976332 0.0595769 0 
0.0594 0.2555 0.0406 0.308152 0.950029 -0.0498669 0 
0.0594 0.2555 0.0412 0.300985 0.949861 -0.0846927 0 
0.0594 0.2556 0.0415 0.323816 0.939201 -0.114209 0 
0.0594 0.2559 0.0415 0.35074 0.930342 -0.106983 0 
0.0576 0.2559 0.0416 0.354974 0.929952 -0.0958296 0 
0.0581 0.2558 0.0424 0.326696 0.93004 -0.168214 0 
0.059 0.2559 0.0418 0.343695 0.934797 -0.0896014 0 
0.0606 0.2561 0.0367 -0.884009 0.127103 -0.449859 0 
0.0597 0.2561 0.0383 -0.790812 0.279389 -0.544571 0 
0.0603 0.2564 0.0382 -0.405709 0.909063 -0.0948946 0 
0.0605 0.2561 0.038 -0.817519 0.449239 -0.360343 0 
0.0615 0.2561 0.0356 0.139361 -0.765737 0.627874 0 
0.0614 0.2561 0.0358 -0.928571 -0.29539 -0.224723 0 
0.0614 0.2561 0.0359 -0.934747 -0.264868 -0.23684 0 
0.0614 0.2564 0.0359 -0.922556 -0.296076 -0.247445 0 
0.0612 0.2564 0.0358 -0.931383 -0.247332 -0.267119 0 
0.0614 0.2567 0.0359 -0.921492 -0.268828 -0.280329 0 
0.0623 0.2561 0.0359 -0.885687 -0.437787 -0.154598 0 
0.0612 0.2569 0.0359 -0.922545 -0.226715 -0.312268 0 
0.0612 0.2561 0.0362 -0.922527 -0.19981 -0.330182 0 
0.0609 0.2561 0.0364 -0.900036 0.0696537 -0.430214 0 
0.0611 0.2563 0.0364 -0.894121 -0.272253 -0.355565 0 
0.0612 0.2563 0.0362 -0.917427 -0.22828 -0.325909 0 
0.0611 0.2566 0.0364 -0.894121 -0.272253 -0.355565 0 
0.0612 0.2564 0.0362 -0.918555 -0.25235 -0.304262 0 
0.0614 0.2567 0.0362 -0.930382 -0.206908 -0.30262 0 
0.0612 0.2567 0.0364 -0.89966 -0.291982 -0.324589 0 
0.0609 0.2561 0.0365 -0.895268 0.11103 -0.431471 0 
0.0611 0.2561 0.0365 -0.904438 0.0894802 -0.417115 0 
0.0611 0.2564 0.0365 -0.90433 0.0837089 -0.418544 0 
0.0611 0.2563 0.0368 -0.88701 0.135694 -0.441362 0 
0.0621 0.2564 0.0361 -0.915124 -0.306008 -0.2625 0 
0.0621 0.2567 0.0364 -0.911545 -0.272734 -0.307737 0 
0.0614 0.2569 0.0362 -0.930382 -0.206908 -0.30262 0 
0.0614 0.257 0.0362 -0.930382 -0.206908 -0.30262 0 
0.0612 0.2569 0.0364 -0.89966 -0.291982 -0.324589 0 
0.0612 0.257 0.0364 -0.917775 -0.198399 -0.343987 0 
0.0614 0.257 0.0365 -0.917775 -0.198399 -0.343987 0 
0.0609 0.2561 0.0368 -0.884009 0.127103 -0.449859 0 
0.0609 0.2563 0.037 -0.876819 0.0942967 -0.471484 0 
0.0612 0.2563 0.037 -0.884009 0.127103 -0.449859 0 
0.0609 0.2563 0.0371 -0.876819 0.0942967 -0.471484 0 
0.0609 0.2564 0.0371 -0.876819 0.0942967 -0.471484 0 
0.0612 0.2564 0.037 -0.884009 0.127103 -0.449859 0 
0.0609 0.2563 0.0374 -0.880945 0.133216 -0.454081 0 
0.0612 0.2564 0.0373 -0.876819 0.0942967 -0.471484 0 
0.0611 0.2564 0.0374 -0.877493 0.136883 -0.459639 0 
0.0618 0.2567 0.0368 -0.899897 -0.306884 -0.309849 0 
0.0612 0.257 0.037 -0.912802 0.103258 -0.395134 0 
0.0609 0.257 0.0373 -0.882329 0.0852965 -0.462838 0 
0.0611 0.2564 0.0376 -0.885605 0.0878632 -0.456052 0 
0.0609 0.2564 0.0379 -0.876916 0.145912 -0.457961 0 
0.0609 0.2567 0.0382 -0.830937 0.444528 -0.334574 0 
0.0677 0.2561 0.0328 -0.764176 0.586976 0.267383 0 
0.0677 0.2561 0.0329 -0.764176 0.586976 0.267383 0 
0.068 0.2561 0.0332 -0.296592 0.951942 0.0764144 0 
0.068 0.2561 0.0334 -0.81478 0.354183 0.459008 0 
0.0683 0.2561 0.0337 -0.669402 0.59929 0.439035 0 
0.0684 0.2561 0.0338 0.407343 0.796975 -0.445984 0 
0.0688 0.2564 0.035 0.40309 0.725562 -0.557745 0 
0.0689 0.2561 0.0344 0.426925 0.760614 -0.489083 0 
0.0689 0.2561 0.0347 0.381011 0.737492 -0.557616 0 
0.0694 0.2561 0.0346 0.326476 0.700056 -0.635086 0 
0.0695 0.2561 0.0349 0.244203 0.663287 -0.707401 0 
0.0695 0.2561 0.035 0.247713 0.66425 -0.705273 0 
0.07 0.2561 0.0346 0.268718 0.624888 -0.733011 0 
0.07 0.2566 0.0347 0.258668 0.652224 -0.712527 0 
0.0701 0.2561 0.0349 0.226048 0.606432 -0.762327 0 
0.0701 0.2561 0.035 0.226048 0.606432 -0.762327 0 
0.0698 0.2563 0.0352 0.229754 0.632996 -0.739276 0 
0.0706 0.2561 0.035 0.160932 0.58808 -0.79263 0 
0.071 0.2561 0.0352 0.0823985 0.376872 -0.922593 0 
0.0712 0.2563 0.0352 0.0545714 0.209797 -0.976221 0 
0.0713 0.2561 0.035 0.0555447 0.11449 -0.99187 0 
0.0707 0.2561 0.0353 0.160932 0.58808 -0.79263 0 
0.0576 0.2563 0.0419 0.338506 0.934602 -0.109239 0 
0.0575 0.2564 0.0422 0.278451 0.948346 -0.152004 0 
0.0576 0.2564 0.0421 0.308898 0.940301 -0.142882 0 
0.0576 0.2567 0.0422 0.261362 0.949301 -0.174693 0 
0.0576 0.2566 0.0422 0.274215 0.945428 -0.175989 0 
0.0576 0.2567 0.0424 0.235002 0.949515 -0.207834 0 
0.0575 0.2564 0.0424 0.218342 0.959382 -0.178643 0 
0.0573 0.2564 0.0427 0.134964 0.967886 -0.212087 0 
0.0575 0.2564 0.043 0.134964 0.967886 -0.212087 0 
0.0559 0.2573 0.0447 -0.432644 0.305487 -0.848231 0 
0.0576 0.2563 0.0433 0.117549 0.971993 -0.203499 0 
0.0576 0.2563 0.0435 0.0499292 0.973011 -0.225291 0 
0.0576 0.2564 0.0433 0.0882433 0.973162 -0.21253 0 
0.0576 0.2567 0.0433 0.0989156 0.972879 -0.2091 0 
0.0575 0.2567 0.0434 0.0909287 0.972812 -0.212997 0 
0.0573 0.2569 0.0435 -0.0277083 0.9722 -0.232509 0 
0.0572 0.257 0.0439 -0.305196 0.88552 -0.350299 0 
0.0573 0.2569 0.0438 -0.255616 0.90707 -0.334491 0 
0.057 0.2573 0.0439 -0.396492 0.832475 -0.387014 0 
0.0567 0.2567 0.0441 0.221138 0.912014 0.345438 0 
0.0566 0.2567 0.0444 -0.600904 -0.02649 -0.798882 0 
0.0567 0.2567 0.0445 -0.519356 0.657178 -0.546248 0 
0.057 0.2567 0.0441 -0.5424 0.699279 -0.46563 0 
0.057 0.2567 0.0442 -0.565574 0.659557 -0.495087 0 
0.057 0.2567 0.0445 -0.245797 0.961078 -0.12615 0 
0.0566 0.2569 0.0447 -0.531607 0.555234 -0.639616 0 
0.0567 0.2569 0.0447 -0.552571 0.508903 -0.660062 0 
0.0564 0.257 0.0447 -0.532261 0.508754 -0.67666 0 
0.0567 0.257 0.0447 -0.548352 0.534854 -0.642838 0 
0.0563 0.2573 0.0447 -0.522507 0.459475 -0.71824 0 
0.0567 0.2575 0.0445 -0.510327 0.618119 -0.597908 0 
0.0567 0.2575 0.0447 -0.516122 0.553108 -0.653979 0 
0.057 0.257 0.0441 -0.477986 0.757222 -0.445135 0 
0.057 0.257 0.0444 -0.559164 0.59295 -0.579436 0 
0.0569 0.2573 0.0442 -0.497252 0.691464 -0.52404 0 
0.0569 0.2573 0.0442 -0.497252 0.691464 -0.52404 0 
0.057 0.257 0.0445 -0.573589 0.553285 -0.604045 0 
0.0564 0.2578 0.0447 -0.485938 0.583462 -0.65072 0 
0.0591 0.2564 0.0385 0.134599 0.974897 0.177368 0 
0.0588 0.2561 0.0395 0.257786 0.955792 0.141452 0 
0.0588 0.2561 0.0398 0.310675 0.947624 0.074094 0 
0.0587 0.2561 0.04 0.373184 0.925655 0.0624186 0 
0.0588 0.2564 0.0398 0.329546 0.941374 0.0722114 0 
0.0596 0.2564 0.0386 -0.765235 0.330259 -0.55258 0 
0.06 0.2561 0.0386 -0.787012 0.286618 -0.546316 0 
0.0605 0.2564 0.0386 -0.823801 0.259086 -0.504209 0 
0.06 0.2561 0.0389 -0.68763 0.550439 -0.473478 0 
0.0588 0.2561 0.0401 0.342195 0.938776 0.0400303 0 
0.0587 0.2561 0.0403 0.343255 0.939235 -0.00377203 0 
0.0588 0.2564 0.0403 0.366788 0.930297 -0.00380749 0 
0.0588 0.2561 0.0406 0.339052 0.939805 -0.0425426 0 
0.0588 0.2563 0.0404 0.356252 0.934369 -0.006339 0 
0.059 0.2563 0.0406 0.335074 0.942001 -0.0189665 0 
0.0579 0.2561 0.0415 0.370367 0.925245 -0.0821542 0 
0.0584 0.2561 0.0415 0.36065 0.929109 -0.081783 0 
0.0581 0.2563 0.0415 0.370367 0.925245 -0.0821542 0 
0.0588 0.2561 0.0409 0.335103 0.939604 -0.0696489 0 
0.0588 0.2561 0.041 0.338941 0.937073 -0.0837385 0 
0.0591 0.2561 0.0409 0.329546 0.941374 -0.0722114 0 
0.0585 0.2561 0.0412 0.350058 0.932146 -0.0925439 0 
0.0588 0.2561 0.0415 0.34527 0.934495 -0.0866507 0 
0.0585 0.2563 0.0415 0.36065 0.929109 -0.081783 0 
0.0587 0.2563 0.0415 0.359046 0.929218 -0.0874083 0 
0.0588 0.2561 0.0412 0.368021 0.924805 -0.0964187 0 
0.0585 0.2567 0.0415 0.36311 0.927347 -0.0904399 0 
0.0594 0.2561 0.0411 0.317638 0.945071 -0.0771219 0 
0.0593 0.2561 0.0415 0.360648 0.926797 -0.104792 0 
0.0609 0.2566 0.0385 -0.779939 0.511885 -0.360096 0 
0.0579 0.2561 0.0418 0.365472 0.925228 -0.101897 0 
0.0579 0.2564 0.0418 0.356573 0.928717 -0.101684 0 
0.0582 0.2564 0.0418 0.371197 0.923234 -0.0992578 0 
0.0578 0.2564 0.0419 0.349809 0.929649 -0.115696 0 
0.0579 0.2566 0.0418 0.352305 0.929051 -0.112901 0 
0.0576 0.2567 0.0419 0.304873 0.944167 -0.124904 0 
0.0579 0.2567 0.0418 0.336015 0.935173 -0.112005 0 
0.0584 0.2567 0.0418 0.367923 0.924559 -0.0991084 0 
