0.0648554 0.257962 -0.00194731 0.252878 0.368226 -0.894686 1 
0.0648211 0.258267 -0.00182182 0.304283 0.272253 -0.912848 1 
0.0646145 0.258588 -0.00170127 0.0696335 0.555647 -0.828497 1 
0.0645366 0.258273 -0.001992 0.0897175 0.514095 -0.853028 1 
0.0645321 0.258187 -0.00210476 0.198388 0.418819 -0.886133 1 
0.0643511 0.258148 -0.0019795 0.144251 0.482295 -0.864051 1 
0.0642477 0.258309 -0.0019192 0.126747 0.517186 -0.846436 1 
0.0647126 0.257587 -0.00219053 0.30429 0.427859 -0.851084 1 
0.064665 0.257114 -0.00200799 0.464265 0.460984 -0.756275 1 
0.0646479 0.257528 -0.00214291 0.423191 0.45562 -0.783147 1 
0.0645613 0.257158 -0.00230347 0.464265 0.460984 -0.756275 1 
0.0643808 0.257758 -0.00221772 0.433486 0.449721 -0.780923 1 
0.0640656 0.257399 -0.0024658 0.217013 0.374312 -0.901552 1 
0.0641742 0.258079 -0.00209716 0.432373 0.554962 -0.710683 1 
0.0641697 0.257993 -0.00220992 0.457156 0.496765 -0.737721 1 
0.0638854 0.258115 -0.00202435 0.53497 0.595724 -0.599099 1 
0.063769 0.258135 -0.00194661 0.497209 0.61182 -0.615191 1 
0.0634242 0.258166 -0.00195645 -0.0178391 0.561244 -0.827458 1 
0.0639753 0.257699 -0.00242294 0.472426 0.459258 -0.752261 1 
0.0637557 0.257879 -0.00228496 0.480765 0.467548 -0.741798 1 
0.0647528 0.258877 -0.00157087 0.104829 0.518403 -0.848687 1 
0.0642485 0.259064 -0.00160301 0.037926 0.599793 -0.799256 1 
0.0636278 0.25927 -0.00155745 -0.0618054 0.711481 -0.699982 1 
0.064261 0.258564 -0.00158085 0.0999195 0.566211 -0.818182 1 
0.0640281 0.258489 -0.00178117 0.109361 0.573053 -0.812189 1 
0.063847 0.25845 -0.00165588 0.229857 0.617644 -0.752118 1 
0.0636326 0.259472 -0.00108895 -0.0209616 0.74763 -0.663784 1 
0.0633697 0.259264 -0.000655621 0.302981 0.840578 -0.449033 1 
0.063305 0.259204 -0.000608042 0.302981 0.840578 -0.449033 1 
0.0635669 0.258541 -0.00171323 0.0644816 0.63192 -0.772347 1 
0.0633814 0.258417 -0.00170073 -0.0466868 0.621076 -0.782358 1 
0.0631483 0.258342 -0.00190108 -0.0498039 0.653142 -0.755596 1 
0.0633949 0.259196 -0.00175774 0.260294 0.755642 -0.601043 1 
0.0621717 0.261811 -0.00350838 -0.982439 0.142435 -0.120522 1 
0.0615962 0.257958 -0.00154988 -0.172753 0.428253 -0.886992 1 
0.0614412 0.258198 -0.00145943 -0.210173 0.563019 -0.799272 1 
0.0613424 0.258444 -0.00128639 -0.28363 0.556169 -0.781172 1 
0.061484 0.257948 -0.00171515 -0.172261 0.415454 -0.893154 1 
0.061329 0.258188 -0.00162469 -0.197658 0.514515 -0.834389 1 
0.0610833 0.25809 -0.00145182 -0.547929 0.461327 -0.697819 1 
0.0610053 0.257774 -0.0017426 -0.0825541 0.385704 -0.918922 1 
0.0607726 0.257816 -0.00158715 -0.0848885 0.449492 -0.889242 1 
0.0607298 0.258066 -0.00133145 -0.463681 0.516863 -0.71962 1 
0.0606554 0.257081 -0.00182559 0.157886 0.21269 -0.96428 1 
0.0606038 0.257161 -0.00179546 0.139166 0.227608 -0.963757 1 
0.0605652 0.257381 -0.00178273 -0.0825541 0.385704 -0.918922 1 
0.0607209 0.257896 -0.00155698 -0.404875 0.519617 -0.752379 1 
0.0603675 0.257872 -0.00143658 -0.436656 0.549556 -0.712264 1 
0.0601512 0.257267 -0.00185776 -0.415267 0.450815 -0.790138 1 
0.0610405 0.25834 -0.00119613 -0.619569 0.333364 -0.710635 1 
0.0610541 0.259119 -0.00125316 0.393966 0.521474 -0.756872 1 
0.0607434 0.258845 -0.00138845 0.918161 0.364171 -0.156073 1 
0.0607604 0.258431 -0.00125355 -0.711182 0.199875 -0.673996 1 
0.060549 0.25855 -0.00160146 0.867414 0.414718 -0.274959 1 
0.0579839 0.257639 7.48038e-005 -0.696574 0.26181 0.668012 1 
0.0577595 0.257619 -0.000255734 -0.428995 -0.21524 0.877288 1 
0.0575654 0.25744 -0.000112996 -0.32974 -0.323718 0.886836 1 
0.0657927 0.263139 0.00181831 0.64624 -0.0152874 0.762981 1 
0.0654218 0.262891 0.00184333 0.621683 -0.100932 0.776738 1 
0.0657588 0.263967 0.00154844 0.664983 0.162822 0.728894 1 
0.0663789 0.263529 0.000791356 0.650174 0.142648 0.746274 1 
0.0663228 0.263524 0.000708714 0.638196 0.136009 0.757765 1 
0.0662837 0.263105 0.000760987 0.650174 0.142648 0.746274 1 
0.066107 0.263151 0.000999093 0.650174 0.142648 0.746274 1 
0.0661934 0.263405 0.000803858 0.650174 0.142648 0.746274 1 
0.0663095 0.263268 0.000370398 0.661805 0.162789 0.731789 1 
0.0658702 0.26363 0.000646457 0.650174 0.142648 0.746274 1 
0.0655639 0.263034 0.001375 0.64624 -0.0152874 0.762981 1 
0.065499 0.262858 0.0010668 0.638216 -0.0237411 0.769491 1 
0.0657544 0.263882 0.00143565 0.664983 0.162822 0.728894 1 
0.0656894 0.263707 0.00112748 0.664983 0.162822 0.728894 1 
0.0655345 0.263947 0.00121792 0.664983 0.162822 0.728894 1 
0.0653664 0.264048 0.0013258 0.634737 0.192112 0.748467 1 
0.0657066 0.263816 0.000867069 0.650174 0.142648 0.746274 1 
0.0656033 0.263976 0.000927374 0.666371 0.152616 0.729835 1 
0.0653404 0.263768 0.00136065 0.627863 0.212388 0.748785 1 
0.0651207 0.263949 0.00149867 0.599711 0.119353 0.791265 1 
0.0617551 0.263238 -0.00270808 -0.817082 0.222283 -0.531946 1 
0.0620833 0.263737 -0.00247738 -0.799272 0.210173 -0.563019 1 
0.0618376 0.263638 -0.00230452 -0.778804 0.23162 -0.582937 1 
0.0617815 0.263633 -0.00238715 -0.773484 0.211512 -0.597482 1 
0.061812 0.263998 -0.00230922 -0.747842 0.296254 -0.59411 1 
0.0647714 0.263488 0.00212722 0.574511 0.0235342 0.818159 1 
0.0647581 0.263232 0.00178879 0.576839 -0.00409106 0.816848 1 
0.0648009 0.262982 0.00153317 0.600396 -0.0494444 0.798173 1 
0.0636512 0.264082 0.0026091 0.533063 0.0459297 0.844828 1 
0.0637762 0.264116 0.00240116 0.556047 0.0577163 0.829144 1 
0.0636904 0.264501 0.00255682 0.497755 0.129155 0.857647 1 
0.0637245 0.264196 0.00243129 0.563851 0.0937348 0.82054 1 
0.0636342 0.264496 0.0024742 0.497755 0.129155 0.857647 1 
0.0634527 0.263818 0.00263906 0.507505 -0.0258514 0.861261 1 
0.0632631 0.263724 0.00289454 0.448608 -0.0307999 0.893198 1 
0.0631081 0.263965 0.00298496 0.388005 0.0489973 0.920354 1 
0.0631081 0.263965 0.00298496 0.388005 0.0489973 0.920354 1 
0.059032 0.260909 0.00412442 0.667842 0.658045 -0.3478 1 
0.0591053 0.261023 0.00394662 0.734478 0.623433 -0.268092 1 
0.0590189 0.261176 0.00339068 0.906706 0.421018 -0.0250763 1 
0.0637295 0.26492 0.00250456 0.448158 0.0907486 0.889336 1 
0.0632852 0.264558 0.00270733 0.410967 0.0982446 0.906341 1 
0.0632205 0.264498 0.00275496 0.410967 0.0982446 0.906341 1 
0.0627546 0.263941 0.00310542 0.377545 0.0738968 0.923038 1 
0.0629922 0.264624 0.00302318 0.422295 0.113641 0.899307 1 
0.0627335 0.264386 0.00321341 0.416151 0.104386 0.903284 1 
0.0625863 0.263926 0.00285752 0.385451 0.0711808 0.919979 1 
0.0622373 0.263988 0.00309068 0.4679 0.0393307 0.882906 1 
0.0598825 0.262086 0.00444299 0.925245 0.370367 0.0821542 1 
0.0597703 0.262076 0.00427768 0.92986 0.362128 0.0649973 1 
0.0595762 0.261897 0.00442041 0.905777 0.421447 0.0441516 1 
0.0593046 0.262042 0.00423281 0.945191 0.325971 -0.0188787 1 
0.0593821 0.261718 0.00456315 0.885501 0.46459 -0.00661809 1 
0.0588907 0.261521 0.00490889 0.996376 -0.020378 -0.0825844 1 
0.0592093 0.261618 0.00420249 0.889513 0.452318 -0.0646169 1 
0.0591836 0.261454 0.00459307 0.888128 0.451708 -0.0847822 1 
0.0590714 0.261444 0.00442785 0.828041 0.546654 -0.124573 1 
0.0589892 0.261159 0.00438009 0.747873 0.626597 -0.219231 1 
0.0588904 0.261405 0.00455315 0.873736 0.460856 -0.155557 1 
0.0595206 0.262531 0.00429821 0.275919 -0.696975 -0.661887 1 
0.0594556 0.262355 0.00399002 0.432299 -0.632592 -0.642607 1 
0.059447 0.262301 0.00412028 0.988741 0.122861 -0.0854179 1 
0.0591236 0.262003 0.00435808 0.975388 0.190593 -0.110868 1 
0.0590321 0.262247 0.00222684 0.912526 0.404522 0.0604767 1 
0.0592395 0.262681 0.00242248 0.935162 0.137885 -0.326283 1 
0.0592136 0.262925 0.00206199 -0.15608 -0.741002 -0.653112 1 
0.0594469 0.263115 0.00261803 0.96184 0.107158 -0.251757 1 
0.0592012 0.263017 0.00279096 0.963941 0.138818 -0.227039 1 
0.0590071 0.262838 0.00293364 0.950405 0.073906 -0.302107 1 
0.0592139 0.263041 0.00241776 0.922634 0.0627551 -0.380537 1 
0.0588257 0.262683 0.00270322 0.924694 0.0299971 -0.379529 1 
0.0594853 0.261965 0.00375177 0.916436 0.379646 0.126549 1 
0.0594593 0.261686 0.00378664 0.889282 0.453548 0.0589201 1 
0.0591488 0.261935 0.00325598 0.923591 0.375083 0.0793186 1 
0.0592912 0.262194 0.00314337 0.949407 0.313987 0.00620527 1 
0.0591228 0.261248 0.00404191 0.810349 0.560779 -0.169888 1 
0.0590972 0.261608 0.00403723 0.89826 0.427544 -0.101664 1 
0.0590322 0.261432 0.00372908 0.907768 0.41947 0.00129867 1 
0.058877 0.261149 0.00421485 0.755486 0.590074 -0.284699 1 
0.058709 0.26125 0.00432269 0.845943 0.481443 -0.229331 1 
0.0589503 0.261263 0.00403701 0.818649 0.530974 -0.218816 1 
0.0589503 0.261263 0.00403701 0.818649 0.530974 -0.218816 1 
0.0589422 0.261848 0.00412768 0.962401 0.255017 -0.0935489 1 
0.0588467 0.261308 0.00374156 0.873808 0.466512 -0.137209 1 
0.0590666 0.26165 0.00320822 0.931717 0.352578 0.087139 1 
0.0589544 0.26164 0.00304295 0.941733 0.333665 0.0425132 1 
0.0588986 0.261751 0.00331607 0.933551 0.352557 0.0647015 1 
0.0589544 0.26164 0.00304295 0.941733 0.333665 0.0425132 1 
0.0588728 0.261995 0.00295559 0.95451 0.297429 -0.021156 1 
0.0587739 0.26224 0.00312866 0.213082 -0.710791 -0.670352 1 
0.0589288 0.262 0.00303823 0.95451 0.297429 -0.021156 1 
0.0587739 0.26224 0.00312866 0.213082 -0.710791 -0.670352 1 
0.0588513 0.262323 0.00270791 0.962303 0.150564 -0.226501 1 
0.0586056 0.262225 0.00288075 0.965189 0.0690317 -0.25228 1 
0.0587301 0.261212 0.00346354 0.898142 0.436163 -0.0557092 1 
0.0585619 0.261197 0.00321561 0.902653 0.424697 -0.0696449 1 
0.0586054 0.261702 0.00327612 0.968585 0.248447 0.0108021 1 
0.058243 0.261508 0.00317097 0.982957 0.183224 -0.0149806 1 
0.0589119 0.262414 0.00290331 0.967806 0.0660151 -0.242886 1 
0.058813 0.262659 0.00307637 0.973868 0.180627 -0.13768 1 
0.0586189 0.26248 0.00321911 0.987213 0.121776 -0.102859 1 
0.0586447 0.262644 0.00282849 0.962193 0.10978 -0.249266 1 
0.0584762 0.262106 0.00297596 0.97235 0.0626926 -0.224956 1 
0.0585414 0.262804 0.0028888 0.962678 0.125679 -0.239698 1 
0.0586168 0.26466 0.00405489 0.648975 0.591959 -0.477928 1 
0.0583364 0.264635 0.00364171 0.648975 0.591959 -0.477928 1 
0.0617933 0.261971 -0.0019301 -0.864718 0.194971 -0.46287 1 
0.0617202 0.26238 -0.00214763 -0.810074 0.25033 -0.530202 1 
0.0614486 0.262525 -0.00233522 -0.827286 0.265414 -0.49513 1 
0.0618973 0.262973 -0.0024253 -0.814464 0.226326 -0.534252 1 
0.0616946 0.26274 -0.00215234 -0.778447 0.252173 -0.574829 1 
0.0614836 0.262975 -0.00214456 -0.767244 0.228772 -0.599166 1 
0.0612936 0.262766 -0.0022448 -0.768465 0.28045 -0.57516 1 
0.0613837 0.261943 -0.00189233 -0.871868 0.155743 -0.464317 1 
0.0617327 0.262288 -0.00287655 -0.848104 0.34391 -0.403044 1 
0.0617069 0.262125 -0.00248596 -0.840397 0.310277 -0.444366 1 
0.0617757 0.262154 -0.00277652 -0.835547 0.354045 -0.420134 1 
0.0621807 0.261981 -0.00328285 -0.954994 0.200132 -0.218937 1 
0.0619004 0.262072 -0.00334023 -0.971963 0.135948 -0.191851 1 
0.0619476 0.261906 -0.00348312 -0.974437 0.137404 -0.177743 1 
0.0618182 0.261787 -0.003388 -0.901764 0.342759 -0.263321 1 
0.0616546 0.261973 -0.00316733 -0.85791 0.369442 -0.357076 1 
0.0618316 0.262043 -0.00304969 -0.882849 0.324466 -0.339557 1 
0.0615128 0.261946 -0.00234325 -0.868498 0.268279 -0.416818 1 
0.0617416 0.262459 -0.00265104 -0.799003 0.377798 -0.467827 1 
0.0619401 0.262723 -0.00268097 -0.786761 0.352353 -0.506809 1 
0.061716 0.262818 -0.00265577 -0.785072 0.348386 -0.512143 1 
0.0618279 0.262713 -0.00284624 -0.835671 0.340226 -0.431162 1 
0.0608105 0.262507 -0.00238504 -0.809874 0.232935 -0.538373 1 
0.0617337 0.263159 -0.00220466 -0.769946 0.228651 -0.595736 1 
0.0616435 0.263459 -0.00216177 -0.769844 0.238917 -0.591827 1 
0.0614885 0.2637 -0.00207137 -0.733998 0.321023 -0.598491 1 
0.0614755 0.26356 -0.00205395 -0.746298 0.281652 -0.603085 1 
0.0610871 0.263086 -0.00212422 -0.754268 0.202064 -0.6247 1 
0.0597167 0.263089 -0.000831082 -0.680389 0.28016 -0.677187 1 
0.0596393 0.263006 -0.000410348 -0.78846 0.129183 -0.601368 1 
0.0593285 0.262732 -0.000545651 -0.813897 0.503393 -0.290117 1 
0.060078 0.260668 0.00125077 -0.877154 0.427408 -0.218916 1 
0.0598969 0.260628 0.00137603 -0.678915 0.678915 -0.279553 1 
0.0594431 0.258933 0.00178824 -0.799933 0.548304 -0.243863 1 
0.0590548 0.258983 0.00132263 -0.442255 0.62917 -0.639183 1 
0.0590895 0.259317 0.00115757 -0.855735 0.457507 -0.241673 1 
0.0600263 0.260748 0.0012809 -0.741502 0.625003 -0.244019 1 
0.0597289 0.260729 0.00148395 -0.542236 0.788851 -0.289298 1 
0.0596725 0.260608 0.00104553 0.0105952 0.975938 -0.217791 1 
0.0595176 0.260849 0.00113595 -0.40424 0.873582 -0.271007 1 
0.0596225 0.262198 0.00170802 0.925412 0.34197 0.163308 1 
0.0596468 0.260445 0.0014362 -0.365883 0.875995 -0.314265 1 
0.0591294 0.260491 0.00142142 -0.214898 0.923633 -0.317365 1 
0.059263 0.26058 0.00108331 -0.197081 0.932289 -0.303308 1 
0.0590128 0.260396 0.00114341 -0.969854 0.144773 -0.196021 1 
0.059043 0.260644 0.000865549 -0.152532 0.963427 -0.220324 1 
0.0584215 0.260911 -0.000907257 0.158278 -0.516252 -0.841684 1 
0.0582104 0.261146 -0.000899434 0.145555 -0.451077 -0.880536 1 
0.0580688 0.261642 -0.000470668 0.274958 -0.197583 -0.940935 1 
0.060598 0.26434 0.000672266 -0.700285 0.64877 -0.297822 1 
0.0604253 0.264239 0.000311583 -0.645602 0.564691 -0.514122 1 
0.0608829 0.264858 0.000447094 -0.687746 0.678216 -0.258898 1 
0.0603515 0.263486 0.000528947 -0.832392 0.40277 -0.380657 1 
0.060119 0.26405 0.000289053 -0.428764 0.384135 -0.817681 1 
0.0601577 0.26383 0.000276357 -0.4171 0.342116 -0.842012 1 
0.0597392 0.263631 8.85576e-005 -0.665283 0.223848 -0.712244 1 
0.0595967 0.263372 0.000201136 -0.676845 -0.26596 -0.686401 1 
0.0600926 0.264062 -0.000782937 -0.527188 0.560874 -0.638352 1 
0.0598985 0.263883 -0.000640213 -0.489305 0.516025 -0.703063 1 
0.0596784 0.263425 -0.000462607 -0.365189 0.54048 -0.75797 1 
0.0596919 0.264204 -0.000519633 -0.349265 0.513436 -0.783835 1 
0.0593123 0.263901 -0.000364363 -0.029073 0.823734 -0.566231 1 
0.0597303 0.263868 -0.000888065 0.113954 0.640805 -0.759199 1 
0.0595362 0.263689 -0.000745371 0.379011 0.589026 -0.713722 1 
0.0592771 0.263335 -0.000910819 0.391277 0.632317 -0.668638 1 
0.0592904 0.263591 -0.000572488 -0.00686231 0.800146 -0.599766 1 
0.0594282 0.263241 -0.00040251 -0.402752 0.298618 -0.865227 1 
0.0583862 0.264674 -2.51532e-005 -0.447698 -0.513779 -0.731846 1 
0.0580335 0.265405 0.000411436 0.291947 -0.519192 -0.803248 1 
0.0579169 0.26531 0.00013338 0.888094 0.172967 -0.425878 1 
0.0573338 0.264426 -0.000505701 0.896855 0.441054 0.0335147 1 
0.0574166 0.264942 0.000253558 0.494348 -0.438508 -0.750554 1 
0.0572616 0.265183 0.000344038 0.525069 -0.400753 -0.750799 1 
0.0573127 0.264871 -0.000397667 0.608965 0.68818 0.394424 1 
0.0590579 0.26241 0.00183623 0.913736 0.404484 0.0384591 1 
0.0591482 0.26211 0.0017934 0.921244 0.380132 0.0825197 1 
0.0591185 0.2625 0.00203161 0.910647 0.410526 0.0468027 1 
0.0590063 0.26249 0.00186636 0.905032 0.417602 0.080782 1 
0.0587694 0.262562 0.0022648 0.917863 0.0856672 -0.387542 1 
0.0587988 0.262056 0.00167079 0.91557 0.38368 0.120506 1 
0.0586394 0.262211 0.00164844 0.916647 0.384578 0.108895 1 
0.0590795 0.262604 0.00168858 0.923095 0.364561 0.122437 1 
0.0591576 0.26292 0.00197932 0.607011 -0.456512 -0.650488 1 
0.0590026 0.26316 0.00206982 -0.313856 -0.748426 -0.584255 1 
0.0590454 0.26291 0.0018141 0.733316 -0.343081 -0.586978 1 
0.0588904 0.26315 0.0019045 0.731655 -0.251259 -0.63368 1 
0.058593 0.263131 0.00210753 0.805706 -0.0761184 -0.587404 1 
0.058653 0.26299 0.00159144 -0.0499819 -0.738304 -0.672614 1 
0.0585622 0.262651 0.00167385 0.914774 0.22041 -0.338538 1 
0.0586188 0.263295 0.0017169 -0.298399 -0.806782 -0.509962 1 
0.058498 0.26323 0.00168188 0.333984 -0.566321 -0.753482 1 
0.058317 0.263191 0.00180715 0.800419 -0.0436081 -0.597853 1 
0.0582431 0.262845 0.00127342 0.413432 -0.501675 -0.759866 1 
0.0583036 0.262936 0.00146887 -0.187966 -0.774788 -0.603632 1 
0.0582048 0.263181 0.0016419 0.835902 0.0606135 -0.545521 1 
0.0578771 0.263321 0.00137171 0.511105 -0.287792 -0.809906 1 
0.058114 0.263249 0.00097324 0.768157 0.634058 -0.0889138 1 
0.0579674 0.263021 0.00132881 -0.119973 -0.762794 -0.635415 1 
0.0578035 0.263091 0.00119369 0.30869 -0.435888 -0.845406 1 
0.0575663 0.261709 0.00313389 0.46093 -0.655359 -0.598371 1 
0.057644 0.261909 0.00306886 -0.0294159 -0.77462 -0.631743 1 
0.0576705 0.263642 0.00149225 0.674348 -0.0125137 -0.738307 1 
0.0577608 0.263342 0.00144939 0.0324191 -0.677982 -0.734363 1 
0.0573892 0.262861 0.000762925 0.702947 0.156379 -0.693838 1 
0.0579331 0.263733 0.000703216 -0.390367 -0.716497 -0.578139 1 
0.0575841 0.263795 0.000936419 0.866487 0.404972 -0.291886 1 
0.0578042 0.264253 0.000758812 -0.347611 -0.713174 -0.608728 1 
0.0577482 0.264248 0.000676155 -0.451735 -0.698439 -0.555084 1 
0.0577224 0.264085 0.00106679 0.873075 0.306262 -0.379399 1 
0.0576749 0.264134 0.000853956 -0.251197 -0.706195 -0.661959 1 
0.0576188 0.264129 0.000771329 -0.301511 -0.691702 -0.656231 1 
0.0576188 0.264129 0.000771329 -0.301511 -0.691702 -0.656231 1 
0.057804 0.264138 0.000403032 -0.437399 -0.686867 -0.580427 1 
0.0578301 0.264417 0.000368178 -0.376855 -0.653326 -0.656617 1 
0.0575066 0.264119 0.00060609 0.875738 0.0536166 -0.4798 1 
0.0574505 0.264114 0.000523403 -0.852891 -0.516261 -0.0777927 1 
0.0578513 0.263565 0.00101118 -0.287076 -0.704058 -0.64953 1 
0.0576963 0.263805 0.00110163 0.849805 0.453332 -0.268926 1 
0.05736 0.263891 0.000961632 0.907056 0.285745 -0.30919 1 
0.0570365 0.263593 0.00119948 -0.478694 -0.748474 -0.458954 1 
0.0577873 0.264668 0.000623867 -0.366735 -0.652887 -0.662755 1 
0.0574638 0.26437 0.000861704 0.928292 0.242348 -0.282031 1 
0.0574294 0.264559 0.000631496 0.907052 0.403911 -0.118797 1 
0.0573127 0.264463 0.000353426 0.78336 -0.148284 -0.603622 1 
0.057438 0.264613 0.000501275 0.940741 0.312678 -0.131298 1 
0.0571967 0.2646 0.000786915 0.936796 0.140451 -0.320447 1 
0.0571406 0.264595 0.000704318 0.34986 -0.52076 -0.778721 1 
0.0571194 0.26504 0.000812337 0.318435 -0.54886 -0.772885 1 
0.0572225 0.264763 0.000396281 0.820215 0.543298 0.179093 1 
0.0570026 0.264421 0.000929654 0.939884 0.215188 -0.265167 1 
0.056796 0.264742 0.00105026 0.120199 -0.633643 -0.76423 1 
0.0573039 0.264293 0.000127912 0.78336 -0.148284 -0.603622 1 
0.0573855 0.263938 0.000215232 0.852031 0.0988069 -0.514082 1 
0.0567302 0.263404 0.001177 0.699723 0.0295658 -0.713802 1 
0.0562137 0.264205 0.0014784 -0.46381 -0.457255 -0.758814 1 
0.0589762 0.26102 0.00439751 0.69403 0.671795 -0.258871 1 
0.0588085 0.261236 0.00486113 0.997764 -0.0522893 -0.041618 1 
0.058683 0.260971 0.00435756 0.737806 0.602782 -0.303802 1 
0.0585147 0.260955 0.00410965 0.789202 0.517063 -0.331369 1 
0.0579281 0.261264 0.00327864 0.973982 0.215483 -0.0701858 1 
0.0588472 0.258025 0.00152236 -0.589673 0.613327 -0.525468 1 
0.0586559 0.265079 0.00400257 0.648975 0.591959 -0.477928 1 
0.0585571 0.265325 0.00417565 0.648975 0.591959 -0.477928 1 
0.0584394 0.266511 -0.00017406 0.648975 0.591959 -0.477928 1 
0.0565458 0.264558 0.00111035 0.298117 -0.506325 -0.809173 1 
0.0626191 0.261272 -0.00462614 -0.807711 0.579857 0.106624 1 
0.0625335 0.261773 -0.00411474 -0.699229 -0.708062 0.0986281 1 
0.0623525 0.261734 -0.00398947 -0.960504 0.261021 -0.0964362 1 
0.0620419 0.26239 -0.00527116 -0.793193 0.576173 0.197152 1 
0.0621276 0.261482 -0.00503145 -0.807711 0.579857 0.106624 1 
0.0618823 0.262022 -0.00489815 -0.845255 0.531263 0.0574717 1 
0.0618476 0.261688 -0.00473308 -0.836002 0.54763 0.0346601 1 
0.0616796 0.261789 -0.00462525 -0.547173 -0.83661 0.0261871 1 
0.0618862 0.261876 -0.0054969 -0.682131 0.659448 0.315952 1 
0.0617701 0.262012 -0.00506342 -0.807711 0.579857 0.106624 1 
0.0617402 0.261472 -0.00367873 -0.887025 0.426762 -0.17624 1 
0.0617916 0.261276 -0.00406463 -0.93016 0.357342 -0.0843167 1 
0.0616794 0.261266 -0.00422991 -0.906214 0.417103 -0.0692907 1 
0.0615459 0.261177 -0.00389174 -0.884653 0.445911 -0.136211 1 
0.0615245 0.261506 -0.00413946 -0.884242 0.454147 -0.108939 1 
0.0614339 0.261283 -0.00370122 -0.883512 0.435206 -0.173209 1 
0.0611882 0.261184 -0.00352836 -0.818176 0.502169 -0.280026 1 
0.0613779 0.261278 -0.00378387 -0.893464 0.418676 -0.162579 1 
0.0617657 0.26152 -0.00442509 -0.590332 -0.806272 0.0378597 1 
0.0614856 0.26161 -0.00448249 -0.835428 0.547156 -0.0517769 1 
0.0614684 0.261501 -0.0042221 -0.876104 0.473912 -0.0885948 1 
0.0614853 0.261494 -0.00483825 -0.807711 0.579857 0.106624 1 
0.0610971 0.261137 -0.00455281 -0.817129 0.571848 0.0727288 1 
0.0609282 0.259552 -0.00361467 -0.705955 0.488995 -0.51236 1 
0.0605755 0.260283 -0.00317809 -0.746024 0.560737 -0.359197 1 
0.0603595 0.259794 -0.00324349 -0.752627 0.658376 -0.00970238 1 
0.0603814 0.260105 -0.00303535 -0.739451 0.559893 -0.373806 1 
0.0600104 0.259856 -0.00301035 -0.80856 0.577543 -0.112584 1 
0.0606049 0.259777 -0.00377215 -0.724429 0.479085 -0.495662 1 
0.0601476 0.259275 -0.00355187 -0.541807 0.57894 -0.609322 1 
0.0599971 0.2596 -0.00334869 -0.601311 0.510356 -0.614786 1 
0.0596958 0.259729 -0.00254688 0.435519 0.84138 -0.320005 1 
0.059712 0.258967 -0.00347929 -0.541807 0.57894 -0.609322 1 
0.0596176 0.259297 -0.00319339 -0.568299 0.820562 -0.0609398 1 
0.0594495 0.259398 -0.00308555 -0.568299 0.820562 -0.0609398 1 
0.0593763 0.259284 -0.00290774 -0.410731 0.85992 0.303049 1 
0.0592555 0.259219 -0.00294279 -0.568299 0.820562 -0.0609398 1 
0.0594628 0.259654 -0.00274722 -0.849574 0.506223 -0.148199 1 
0.0594112 0.259734 -0.00271706 -0.817877 0.550754 -0.166577 1 
0.0596864 0.259326 -0.00348396 -0.541807 0.57894 -0.609322 1 
0.0589881 0.258926 -0.00262234 -0.622127 0.678234 -0.391098 1 
0.0578064 0.257745 -0.00150549 -0.624484 0.714848 0.314662 1 
0.0596898 0.258541 -0.00404313 -0.527979 0.598826 -0.6022 1 
0.057772 0.257527 -0.000984684 -0.623724 0.380159 0.68297 1 
0.0575912 0.257604 -0.000503615 -0.285024 -0.353669 0.890887 1 
0.0574229 0.257588 -0.000751495 -0.231788 -0.385329 0.893194 1 
0.0573799 0.257723 -0.000851542 -0.384032 -0.214649 0.898023 1 
0.0573455 0.257505 -0.000330731 -0.213787 -0.337181 0.916845 1 
0.0568008 0.256285 -0.00133829 -0.905296 0.390436 0.16733 1 
0.0566325 0.25627 -0.00158618 -0.922819 0.361103 0.134203 1 
0.056836 0.256851 -0.000791892 -0.63192 0.709495 -0.311919 1 
0.0568751 0.25727 -0.000844136 -0.549675 -0.163255 0.819271 1 
0.0566552 0.257335 -0.00106187 -0.790019 0.566517 -0.234367 1 
0.0565689 0.257081 -0.000866696 -0.599108 0.734756 -0.318125 1 
0.0568102 0.256687 -0.000401244 -0.500217 -0.286958 0.816969 1 
0.0562965 0.256471 -0.00137043 -0.925476 0.362262 0.110729 1 
0.0565364 0.255498 -0.0026838 -0.960743 0.277114 0.0134284 1 
0.0567696 0.256096 -0.00287883 -0.297038 0.938086 -0.178223 1 
0.0564937 0.255748 -0.00242811 -0.402107 -0.893409 0.200323 1 
0.0564462 0.255798 -0.00264095 -0.974979 0.215445 0.0547741 1 
0.0564634 0.255907 -0.00290138 -0.956591 0.202021 0.210049 1 
0.056472 0.255961 -0.00303157 -0.956591 0.202021 0.210049 1 
0.0563768 0.255537 -0.00306192 -0.959899 0.0134508 0.280022 1 
0.0563984 0.255731 -0.00320953 -0.959899 0.0134508 0.280022 1 
0.0563946 0.255471 -0.00185969 -0.856657 0.515087 -0.0286919 1 
0.0564118 0.25558 -0.00212012 -0.855192 0.51801 -0.0176749 1 
0.0562996 0.25557 -0.00228538 -0.835428 0.547156 -0.0517769 1 
0.0558811 0.25537 -0.00247319 -0.773951 0.633232 0.00413877 1 
0.0559539 0.254845 -0.00261137 -0.940919 0.338631 -0.00124956 1 
0.0560147 0.255052 -0.00206023 -0.791571 0.61072 0.0208674 1 
0.0563859 0.255823 -0.00248061 -0.914393 0.404217 -0.0222385 1 
0.0562823 0.255868 -0.0027761 -0.863517 0.499636 0.0685775 1 
0.0561401 0.256132 -0.00305884 -0.951394 -0.0737815 0.299009 1 
0.0561445 0.256217 -0.00294606 -0.947626 -0.0906882 0.306237 1 
0.0561534 0.256388 -0.00272049 -0.964052 -0.133644 0.22966 1 
0.0565284 0.255675 -0.0018421 -0.859361 0.510714 -0.0258762 1 
0.0564942 0.25598 -0.00171655 -0.869293 0.494251 -0.00669717 1 
0.056369 0.25583 -0.00186446 -0.858197 0.512172 -0.0343279 1 
0.0561415 0.256712 -0.00128001 -0.900579 0.424697 0.0926863 1 
0.0557565 0.255452 -0.00190951 -0.817824 0.575097 0.0206869 1 
0.054704 0.253052 0.00100966 -0.533339 0.281615 0.797648 1 
0.0545616 0.252793 0.00112227 -0.437956 0.284288 0.852863 1 
0.0547559 0.253495 0.0005842 -0.948239 0.310026 -0.0687506 1 
0.0541737 0.252959 0.00101238 -0.437956 0.284288 0.852863 1 
0.0540054 0.252944 0.000764519 -0.437956 0.284288 0.852863 1 
0.0551026 0.255497 0.000831038 -0.934851 0.129273 -0.330668 1 
0.0546622 0.254988 0.000435129 -0.927064 0.210889 -0.309965 1 
0.0546538 0.255457 0.000169978 -0.937442 0.172578 -0.302356 1 
0.0549897 0.254325 0.00110069 -0.907027 0.379719 0.181978 1 
0.0550155 0.254081 0.00146119 -0.678984 0.322477 0.659538 1 
0.0548606 0.254322 0.0015516 -0.671099 0.300949 0.677537 1 
0.05477 0.254506 0.00123875 -0.645327 0.283432 0.70938 1 
0.0547447 0.254981 0.00158975 -0.688868 0.340362 0.640012 1 
0.0543638 0.253692 0.000717297 -0.564566 0.320082 0.760797 1 
0.0544851 0.254395 0.000712767 -0.917072 0.354032 -0.183414 1 
0.0545107 0.254036 0.000717506 -0.948239 0.310026 -0.0687506 1 
0.053967 0.253279 0.00113295 -0.533339 0.281615 0.797648 1 
0.0541225 0.253678 0.00100294 -0.564566 0.320082 0.760797 1 
0.0541055 0.254092 0.000868052 -0.564566 0.320082 0.760797 1 
0.0540708 0.253758 0.00103308 -0.564566 0.320082 0.760797 1 
0.0538723 0.253494 0.00106305 -0.533339 0.281615 0.797648 1 
0.0539795 0.253187 0.00040403 -0.448034 0.310657 0.838307 1 
0.0539542 0.253663 0.000755057 -0.567331 0.316613 0.760192 1 
0.0538335 0.253598 0.000719994 -0.533339 0.281615 0.797648 1 
0.0541875 0.254261 0.000560015 -0.946128 0.314506 -0.0769952 1 
0.053877 0.254103 0.000780463 -0.564566 0.320082 0.760797 1 
0.0550618 0.254383 -0.00125121 -0.846906 0.385241 -0.366525 1 
0.0555669 0.254952 -0.000902906 -0.777145 0.536791 -0.328484 1 
0.0553814 0.254827 -0.000890359 -0.83416 0.466194 -0.294685 1 
0.0552603 0.254647 -0.00128116 -0.734814 0.58558 -0.342264 1 
0.0553986 0.254936 -0.00115082 -0.767554 0.556036 -0.31888 1 
0.0570857 0.253812 -0.00488956 0.527363 -0.102024 0.843493 1 
0.0565857 0.25356 -0.00441361 0.3485 -0.00377437 0.937301 1 
0.0566371 0.253364 -0.00479949 0.519473 -0.249657 0.817202 1 
0.0564602 0.253294 -0.00491719 0.254186 -0.0231078 0.966879 1 
0.0561758 0.253415 -0.00473157 0.106876 0.00323866 0.994267 1 
0.0559171 0.253177 -0.00454129 0.162623 0.0334474 0.986121 1 
0.0562145 0.252788 -0.0039932 0.293304 0.00613607 0.955999 1 
0.0560116 0.252439 -0.00407605 0.293304 0.00613607 0.955999 1 
0.0557872 0.252419 -0.00440654 0.0694773 0.334278 0.93991 1 
0.0564047 0.253521 -0.00428829 0.243868 -0.0279053 0.969407 1 
0.0561244 0.253611 -0.00434567 0.0662951 -0.0489063 0.996601 1 
0.0563319 0.254046 -0.00415008 -0.380538 -0.214326 0.899586 1 
0.0557751 0.253557 -0.00446823 0.104811 0.0297883 0.994046 1 
0.0558093 0.253252 -0.00459374 0.105691 0.0670516 0.992136 1 
0.0558485 0.253264 -0.00389495 0.190593 -0.110868 0.975388 1 
0.0555813 0.253494 -0.00396982 0.0787481 -0.0632203 0.994888 1 
0.0549347 0.253421 -0.00388937 0.0488005 0.0661518 0.996616 1 
0.0557788 0.252887 -0.00467168 0.0905943 0.165486 0.982042 1 
0.0554898 0.2524 -0.00420354 0.0419397 0.311371 0.949363 1 
0.055244 0.252302 -0.00403064 0.0419397 0.311371 0.949363 1 
0.0547656 0.252244 -0.00370233 -0.0416281 0.29392 0.954923 1 
0.0550932 0.252511 -0.00418322 0.0419397 0.311371 0.949363 1 
0.0564832 0.254475 -0.00403712 -0.711118 -0.296968 0.637277 1 
0.0566955 0.255634 -0.0037683 -0.963049 0.114741 0.243663 1 
0.0566011 0.255965 -0.00348248 -0.961917 0.112331 0.249195 1 
0.0562301 0.255716 -0.00345741 -0.961917 0.112331 0.249195 1 
0.0560361 0.255537 -0.00331473 -0.961917 0.112331 0.249195 1 
0.05598 0.255532 -0.00339734 -0.961917 0.112331 0.249195 1 
0.0564108 0.255639 -0.0039385 -0.933633 -0.11247 0.340119 1 
0.0561135 0.255621 -0.00373548 -0.939273 0.186199 0.288264 1 
0.0563075 0.255799 -0.0038782 -0.960258 0.126384 0.248859 1 
0.0560618 0.255701 -0.00370532 -0.939273 0.186199 0.288264 1 
0.0560574 0.255616 -0.00381807 -0.932453 -0.0591825 0.35641 1 
0.0559452 0.255606 -0.00398334 -0.887023 -0.157212 0.434136 1 
0.055695 0.255422 -0.00392328 -0.885687 -0.154598 0.437787 1 
0.0556817 0.255166 -0.00426162 -0.52626 -0.379624 0.760878 1 
0.0553755 0.254977 -0.0042841 -0.552202 -0.312114 0.773083 1 
0.0553193 0.254972 -0.00436676 -0.505035 -0.297357 0.810258 1 
0.0551644 0.255212 -0.00427631 -0.633269 -0.219388 0.742185 1 
0.0551297 0.254878 -0.00411122 -0.482082 -0.324022 0.814007 1 
0.0557777 0.255938 -0.00316396 -0.937477 -0.155102 0.311577 1 
0.0561231 0.256546 -0.00319375 -0.943848 -0.14178 0.298413 1 
0.0558774 0.256447 -0.00302087 -0.934874 -0.106573 0.338605 1 
0.0554545 0.256163 -0.00332142 -0.922593 -0.0823985 0.376872 1 
0.05558 0.256429 -0.00281785 -0.938269 -0.117452 0.325356 1 
0.0554154 0.255744 -0.00326912 -0.84869 0.486904 0.20652 1 
0.0544603 0.253741 -0.00455511 0.0335406 0.0768188 0.996481 1 
0.0546248 0.254833 -0.00485488 -0.336153 -0.163195 0.92756 1 
0.0541968 0.253301 -0.00483334 0.0626587 0.161967 0.984805 1 
0.0542857 0.252446 0.00157295 -0.403073 0.304987 0.862853 1 
0.0543676 0.252615 0.001265 -0.437956 0.284288 0.852863 1 
0.0540571 0.252456 0.00148544 -0.403073 0.304987 0.862853 1 
0.0539277 0.252337 0.00158057 -0.26182 0.326179 0.908327 1 
0.0540524 0.252255 0.0010169 -0.102154 0.366393 0.924836 1 
0.0541951 0.25263 0.00126009 -0.437956 0.284288 0.852863 1 
0.0539235 0.252775 0.00107253 -0.437956 0.284288 0.852863 1 
0.0534754 0.252966 0.00112294 -0.437956 0.284288 0.852863 1 
0.0528584 0.252503 0.000965148 -0.219465 0.334218 0.916588 1 
0.0617968 0.262523 -0.00438678 -0.970496 0.227986 -0.0784868 1 
0.0619386 0.26255 -0.00521085 -0.793193 0.576173 0.197152 1 
0.0619472 0.262605 -0.00534106 -0.80766 0.533772 0.250546 1 
0.0617273 0.262263 -0.0048077 -0.86881 0.495129 -0.00400373 1 
0.0615591 0.262247 -0.00505566 -0.807711 0.579857 0.106624 1 
0.0578518 0.260282 -0.00120801 0.00379104 -0.357621 -0.933859 1 
0.0574849 0.260003 -0.00142592 -0.313963 -0.250303 -0.915847 1 
0.0574197 0.259304 -0.00133877 -0.376301 -0.126359 -0.91784 1 
0.0567646 0.2597 -0.00152349 -0.469944 -0.159576 -0.868152 1 
0.0580591 0.260717 -0.00101241 0.124291 -0.345555 -0.930131 1 
0.058003 0.260712 -0.00109503 0.111584 -0.276991 -0.954372 1 
0.0580336 0.261076 -0.00101714 0.138049 -0.288161 -0.947579 1 
0.0578609 0.260976 -0.00137781 -0.0466303 -0.197282 -0.979237 1 
0.0581373 0.261555 -0.00111701 0.0546728 -0.212616 -0.975605 1 
0.0576031 0.262016 -0.00126664 -0.362954 -0.116419 -0.924506 1 
0.05784 0.261537 -0.000913993 0.0369901 -0.208815 -0.977255 1 
0.0579691 0.26154 -0.00136487 -0.0535307 -0.184383 -0.981396 1 
0.057775 0.261361 -0.00122216 -0.167185 -0.169737 -0.971205 1 
0.0579129 0.261535 -0.00144751 -0.235636 -0.11975 -0.964435 1 
0.057745 0.261636 -0.00133966 -0.328079 -0.105789 -0.938708 1 
0.0575034 0.261506 -0.00140977 -0.42787 -0.132199 -0.89412 1 
0.0579648 0.261978 -0.00187299 -0.320071 -0.149733 -0.935486 1 
0.0577708 0.261799 -0.00173026 -0.425878 -0.172967 -0.888094 1 
0.0574128 0.26169 -0.00172266 -0.422897 -0.15339 -0.893101 1 
0.0572277 0.261682 -0.00135437 -0.433756 -0.129416 -0.891688 1 
0.0574208 0.260175 -0.000666857 -0.0353431 -0.383538 -0.922848 1 
0.057516 0.2606 -0.000636518 -0.00893437 -0.366309 -0.93045 1 
0.0577956 0.260277 -0.00129065 -0.0462231 -0.381671 -0.923142 1 
0.0572525 0.26016 -0.000914738 -0.264622 -0.256132 -0.929716 1 
0.0573564 0.260639 -0.00101462 -0.369613 -0.178385 -0.911902 1 
0.0570761 0.260729 -0.00107199 -0.422897 -0.15339 -0.893101 1 
0.0570976 0.260401 -0.000824288 -0.42955 -0.141281 -0.891923 1 
0.0571534 0.259882 -0.000346333 -0.0414588 -0.290211 -0.956064 1 
0.0569852 0.259867 -0.000594229 -0.283504 -0.271991 -0.91959 1 
0.0569593 0.259704 -0.000203624 -0.287439 -0.275884 -0.917206 1 
0.0570243 0.260286 -0.000646532 -0.426943 -0.129076 -0.895019 1 
0.056735 0.259683 -0.000534147 -0.460235 -0.0971139 -0.882469 1 
0.0569551 0.260142 -0.000711694 -0.41831 -0.122535 -0.900001 1 
0.0567741 0.260103 -0.00058645 -0.408707 -0.115777 -0.905292 1 
0.0569035 0.260222 -0.000681549 -0.426943 -0.129076 -0.895019 1 
0.0566708 0.260263 -0.00052613 -0.408707 -0.115777 -0.905292 1 
0.0568051 0.261106 -0.000548095 -0.432045 -0.138312 -0.891183 1 
0.0573307 0.260998 -0.00101934 -0.365239 -0.177645 -0.913807 1 
0.0569426 0.260641 -0.000733897 -0.42955 -0.141281 -0.891923 1 
0.0567918 0.260851 -0.000886425 -0.42955 -0.141281 -0.891923 1 
0.0567793 0.26135 -0.000908569 -0.422897 -0.15339 -0.893101 1 
0.056749 0.261101 -0.000630707 -0.42613 -0.141093 -0.893591 1 
0.0566974 0.261181 -0.000600591 -0.417795 -0.159365 -0.894455 1 
0.0563217 0.260325 -0.000292972 -0.443543 -0.117617 -0.888502 1 
0.056555 0.260923 -0.000487968 -0.415155 -0.134606 -0.899738 1 
0.0565033 0.261003 -0.000457838 -0.407429 -0.14622 -0.901455 1 
0.0566058 0.260087 -0.000834316 -0.422897 -0.15339 -0.893101 1 
0.0586177 0.264576 -0.00235471 0.648975 0.591959 -0.477928 1 
0.0583981 0.264757 -0.00221673 0.648975 0.591959 -0.477928 1 
0.0587811 0.263867 -0.00218005 0.589778 -0.40475 -0.698813 1 
0.058587 0.263688 -0.00203732 0.618453 -0.362541 -0.697195 1 
0.0579573 0.263202 -0.00182195 0.207071 -0.180692 -0.961495 1 
0.0583589 0.264338 -0.00216442 0.160867 0.936328 0.312109 1 
0.0570925 0.26482 -0.000971168 0.830951 0.554433 0.0460864 1 
0.0575044 0.262784 -0.00148889 -0.402643 0.00647337 -0.915334 1 
0.0570646 0.2621 -0.00042221 -0.488069 0.23715 -0.839969 1 
0.0566514 0.263148 -0.000932127 -0.182324 0.307585 -0.933889 1 
0.0562246 0.26301 -0.00063397 0.76164 0.0124859 -0.64788 1 
0.0564695 0.262354 -0.00112301 -0.468404 -0.165924 -0.867795 1 
0.0570341 0.261735 -0.000500113 -0.430052 -0.0960311 -0.897682 1 
0.0567367 0.261717 -0.000297099 -0.423792 -0.107696 -0.899334 1 
0.0566718 0.261541 -0.000605285 -0.438514 -0.0816161 -0.895011 1 
0.0565596 0.261531 -0.000770554 -0.42787 -0.132199 -0.89412 1 
0.056676 0.26151 -0.000848278 -0.42787 -0.132199 -0.89412 1 
0.0564563 0.261691 -0.000710264 -0.420351 -0.156376 -0.893785 1 
0.0564391 0.261582 -0.000449806 -0.422315 -0.0955401 -0.9014 1 
0.0563227 0.261603 -0.000372097 -0.407028 -0.106966 -0.907131 1 
0.0562752 0.261652 -0.000584945 -0.393783 -0.157797 -0.905558 1 
0.0562497 0.262012 -0.000589669 -0.453652 -0.0531304 -0.889594 1 
0.055874 0.261155 -0.000282079 -0.408343 -0.161905 -0.898355 1 
0.0563404 0.262351 -0.000672102 -0.481712 0.01476 -0.876205 1 
0.0559011 0.262713 -0.000396073 -0.754798 0.417513 -0.505928 1 
0.0562619 0.261396 -0.000923291 -0.433146 -0.138664 -0.890594 1 
0.0564304 0.261935 -0.00107072 -0.404232 -0.155693 -0.901308 1 
0.0562583 0.262066 -0.00071989 -0.455876 -0.0503505 -0.888618 1 
0.0557272 0.260811 -0.000282273 -0.419644 -0.150384 -0.895144 1 
0.055805 0.258019 -0.00367332 -0.863546 -0.119258 0.489965 1 
0.0555306 0.259589 -0.00334135 -0.326648 -0.288218 0.900129 1 
0.0552627 0.259064 -0.00373234 -0.326648 -0.288218 0.900129 1 
0.055284 0.258735 -0.00348462 -0.326648 -0.288218 0.900129 1 
0.0553407 0.259379 -0.0034416 -0.326648 -0.288218 0.900129 1 
0.0552501 0.259563 -0.00375448 -0.326648 -0.288218 0.900129 1 
0.0556368 0.258004 -0.0039212 -0.880653 -0.115239 0.459533 1 
0.0554176 0.258824 -0.00382277 -0.326648 -0.288218 0.900129 1 
0.055176 0.258694 -0.0038929 -0.326648 -0.288218 0.900129 1 
0.055349 0.259318 -0.00392756 -0.326648 -0.288218 0.900129 1 
0.0552368 0.259308 -0.00409282 -0.326648 -0.288218 0.900129 1 
0.0553151 0.259739 -0.00344633 -0.348757 -0.291879 0.890604 1 
0.0553281 0.259879 -0.00346375 -0.360738 -0.300363 0.882978 1 
0.0551341 0.2597 -0.003321 -0.348757 -0.291879 0.890604 1 
0.0549658 0.259685 -0.00356892 -0.326648 -0.288218 0.900129 1 
0.0549746 0.259855 -0.00334337 -0.360738 -0.300363 0.882978 1 
0.0549661 0.259801 -0.00321315 -0.360738 -0.300363 0.882978 1 
0.0547203 0.259702 -0.00304028 -0.302045 -0.304992 0.903188 1 
0.0549402 0.260044 -0.00357363 -0.0277909 -0.240451 0.970263 1 
0.05469 0.25986 -0.00351354 -0.302045 -0.304992 0.903188 1 
0.0553751 0.257038 0.000188366 -0.456691 -0.127415 -0.880454 1 
0.0568169 0.259445 -9.10163e-005 -0.372698 -0.191386 -0.908002 1 
0.0567994 0.25922 -0.000186354 -0.277315 -0.178957 -0.943965 1 
0.0567092 0.25952 -0.000143498 -0.392971 -0.208903 -0.895507 1 
0.0563338 0.259186 -0.000231221 -0.424671 -0.0442086 -0.904268 1 
0.056412 0.260024 -0.000335857 -0.441532 -0.132888 -0.88735 1 
0.0562435 0.259486 -0.000188366 -0.438562 -0.105087 -0.892536 1 
0.0558209 0.259318 -0.000133216 -0.402697 -0.0718617 -0.912508 1 
0.0563604 0.260105 -0.000305668 -0.443434 -0.139201 -0.885432 1 
0.0561663 0.259926 -0.000162944 -0.465163 -0.115224 -0.877694 1 
0.0559722 0.259747 -2.0206e-005 -0.436625 -0.0990428 -0.894175 1 
0.0557442 0.260397 -0.000147343 -0.413717 -0.165775 -0.895185 1 
0.0556623 0.260228 0.000160635 -0.408531 -0.159112 -0.898769 1 
0.0557781 0.259568 0.000122502 -0.371197 -0.0992578 -0.923234 1 
0.055511 0.259799 4.76837e-005 -0.373693 -0.108138 -0.921227 1 
0.0556104 0.260192 -0.000164971 -0.416102 -0.165577 -0.894116 1 
0.0547205 0.258073 -3.5882e-005 -0.648975 -0.591959 0.477928 1 
0.0544357 0.257555 0.000189245 -0.648975 -0.591959 0.477928 1 
0.0544482 0.257056 0.000211433 -0.648975 -0.591959 0.477928 1 
0.0552918 0.260619 0.000146106 -0.370192 -0.184381 -0.910473 1 
0.055201 0.260279 0.000228524 -0.364608 -0.200318 -0.909359 1 
0.0553781 0.260872 -4.91142e-005 -0.382763 -0.163635 -0.909239 1 
0.0552099 0.260857 -0.000296965 -0.415155 -0.134606 -0.899738 1 
0.0548778 0.260505 7.10934e-005 -0.378367 -0.162967 -0.911197 1 
0.0558139 0.258189 -0.00344775 -0.918954 -0.203737 0.337662 1 
0.0556195 0.257895 -0.00366079 -0.865847 -0.110199 0.488023 1 
0.0552877 0.258065 -0.00368805 -0.952852 -0.203509 0.225072 1 
0.0555208 0.25814 -0.00348774 -0.918954 -0.203737 0.337662 1 
0.0553268 0.258485 -0.00374036 -0.326648 -0.288218 0.900129 1 
0.0553866 0.25782 -0.00386108 -0.818162 -0.0638081 0.571437 1 
0.0554257 0.258239 -0.00391343 -0.828038 -0.245173 0.504225 1 
0.0549511 0.258035 -0.00418383 -0.316724 -0.290207 0.903031 1 
0.0550889 0.257685 -0.00401381 -0.791571 -0.0208674 0.61072 1 
0.0547962 0.258275 -0.00409341 -0.326648 -0.288218 0.900129 1 
0.0544226 0.259567 -0.00319304 -0.302045 -0.304992 0.903188 1 
0.0562652 0.265347 -0.000804991 0.897159 0.202772 -0.392416 1 
0.0564943 0.265976 -0.000757039 0.748008 0.0922201 -0.657252 1 
0.0563821 0.265965 -0.000922307 0.683749 0.104851 -0.722145 1 
0.0567533 0.26633 -0.000591576 0.32025 -0.384606 -0.865747 1 
0.0563309 0.266685 -0.000931725 -0.139303 -0.141768 -0.980049 1 
0.0562788 0.266126 -0.000862002 0.683749 0.104851 -0.722145 1 
0.0561965 0.265841 -0.000909775 0.683749 0.104851 -0.722145 1 
0.0559249 0.265986 -0.00109735 0.774218 0.263329 -0.575539 1 
0.0564167 0.2663 -0.00108735 -0.656956 -0.60012 -0.456359 1 
0.0563265 0.2666 -0.00104453 0.774218 0.263329 -0.575539 1 
0.0563567 0.266848 -0.00132237 0.0270002 -0.196045 -0.980223 1 
0.0558866 0.266322 -0.00072889 -0.656956 -0.60012 -0.456359 1 
0.0556195 0.266552 -0.000803724 0.0270002 -0.196045 -0.980223 1 
0.0562005 0.265287 -0.000757426 0.896019 0.178046 -0.406755 1 
0.0801424 0.227726 0.0522205 -0.514392 -0.688649 -0.511041 0 
0.0803235 0.229102 0.0501977 -0.286171 -0.634692 -0.717825 0 
0.0800306 0.228762 0.0512646 -0.398655 -0.656706 -0.640165 0 
0.0800951 0.228298 0.0516123 -0.424942 -0.624914 -0.65491 0 
0.0802329 0.227949 0.0517823 -0.493636 -0.618309 -0.61157 0 
0.079974 0.228118 0.0512215 -0.463928 -0.621362 -0.631411 0 
0.0800646 0.227934 0.0515344 -0.477928 -0.591959 -0.648975 0 
0.080388 0.228639 0.0505454 -0.366521 -0.632783 -0.682091 0 
0.0801597 0.228765 0.0508136 -0.410381 -0.6596 -0.629694 0 
0.0800778 0.229411 0.0496195 -0.398909 -0.686918 -0.607467 0 
0.0799741 0.22771 0.0519726 -0.488674 -0.708827 -0.508687 0 
0.0794826 0.22792 0.0515673 -0.461293 -0.632391 -0.622326 0 
0.0793187 0.22799 0.0514322 -0.405948 -0.651174 -0.641232 0 
0.0801052 0.232015 0.0487148 -0.00134404 -0.85078 -0.525521 0 
0.0789156 0.232348 0.0487757 0.288368 -0.763139 -0.578328 0 
0.0793712 0.228258 0.0524693 -0.625386 -0.622032 -0.471135 0 
0.0784754 0.228872 0.0532817 -0.966842 -0.164376 -0.195439 0 
0.0786471 0.227695 0.0537216 -0.648975 -0.591959 0.477928 0 
0.0804445 0.22969 0.0498374 -0.262336 -0.662996 -0.701154 0 
0.0802246 0.229348 0.0503708 -0.279482 -0.662771 -0.694712 0 
0.0801688 0.229459 0.0506439 -0.279482 -0.662771 -0.694712 0 
0.07985 0.229769 0.0505992 -0.319595 -0.66677 -0.673259 0 
0.0802593 0.229682 0.0502057 -0.59366 -0.66724 -0.449843 0 
0.0800136 0.229583 0.0503786 -0.269331 -0.655001 -0.705999 0 
0.0799405 0.229992 0.050161 -0.34847 -0.678943 -0.646223 0 
0.0797334 0.229674 0.0503212 -0.251637 -0.653623 -0.713762 0 
0.0792248 0.22896 0.0516784 -0.424612 -0.671053 -0.607777 0 
0.0801342 0.229125 0.0508089 -0.376684 -0.676057 -0.63329 0 
0.07941 0.229376 0.050559 -0.312377 -0.665217 -0.678165 0 
0.0791387 0.22923 0.0514783 -0.398003 -0.68866 -0.606087 0 
0.0790565 0.228945 0.0514305 -0.402696 -0.681103 -0.611502 0 
0.0793275 0.228568 0.0509066 -0.369362 -0.681267 -0.632019 0 
0.0789143 0.229209 0.0511478 -0.311705 -0.676706 -0.667015 0 
0.0787202 0.22903 0.0512905 -0.37708 -0.693235 -0.614196 0 
0.0796692 0.229846 0.0510803 -0.363069 -0.668639 -0.648925 0 
0.0794752 0.229667 0.051223 -0.34847 -0.678943 -0.646223 0 
0.0794449 0.229826 0.0507498 -0.322507 -0.669324 -0.669324 0 
0.0793327 0.229816 0.0505845 -0.283101 -0.673364 -0.682961 0 
0.0790567 0.229468 0.0510352 -0.34847 -0.678943 -0.646223 0 
0.0791386 0.229637 0.0507272 -0.315254 -0.683858 -0.657991 0 
0.0789962 0.229378 0.0508398 -0.34847 -0.678943 -0.646223 0 
0.0788021 0.229199 0.0509825 -0.34847 -0.678943 -0.646223 0 
0.0802762 0.229675 0.0495895 -0.420053 -0.695661 -0.582761 0 
0.0801302 0.230086 0.0499055 -0.409091 -0.700589 -0.584653 0 
0.0799664 0.230156 0.0497704 -0.373661 -0.686417 -0.623866 0 
0.079953 0.2299 0.0494321 -0.337679 -0.663939 -0.667202 0 
0.0796904 0.229809 0.0502211 -0.209348 -0.646653 -0.733494 0 
0.0792035 0.23022 0.0502843 -0.732603 -0.53834 -0.416514 0 
0.0791133 0.23052 0.0503272 -0.666593 -0.565848 -0.485253 0 
0.078945 0.230504 0.0500793 -0.56587 -0.599653 -0.56587 0 
0.0787767 0.230489 0.0498314 -0.577185 -0.594111 -0.560259 0 
0.0788279 0.229363 0.0505919 -0.326766 -0.681169 -0.655158 0 
0.0790611 0.229961 0.0503969 -0.241316 -0.673476 -0.698711 0 
0.0789703 0.229622 0.0504794 -0.298017 -0.671747 -0.67819 0 
0.0787118 0.229906 0.0502743 -0.206286 -0.677798 -0.705716 0 
0.078802 0.229606 0.0502314 -0.2412 -0.660542 -0.71099 0 
0.0789059 0.230085 0.0501315 -0.182456 -0.663896 -0.725226 0 
0.0786343 0.23023 0.049944 -0.165492 -0.62401 -0.763691 0 
0.0785435 0.229891 0.0500264 -0.206215 -0.66826 -0.714775 0 
0.0785221 0.23022 0.0497787 -0.637961 -0.594196 -0.489833 0 
0.0788161 0.231024 0.0501349 -0.500313 -0.581171 -0.641815 0 
0.0787599 0.231426 0.0493011 0.0829299 -0.650345 -0.755099 0 
0.0784883 0.231572 0.0491135 0.528449 -0.633125 -0.565592 0 
0.0788158 0.230908 0.0497791 -0.0909195 -0.575823 -0.812503 0 
0.0784796 0.230994 0.0496391 0.222446 -0.526201 -0.82075 0 
0.0784404 0.230575 0.0496913 -0.499232 -0.579915 -0.64379 0 
0.0786176 0.231168 0.0494137 0.100628 -0.602308 -0.791896 0 
0.0783112 0.230979 0.0493912 0.164225 -0.577046 -0.80003 0 
0.0785836 0.231996 0.0491439 0.468926 -0.689204 -0.552364 0 
0.0787215 0.23217 0.0489185 0.346605 -0.73389 -0.584183 0 
0.0791085 0.228574 0.0525072 -0.589462 -0.643202 -0.488699 0 
0.0789269 0.228303 0.051921 -0.584401 -0.628189 -0.513667 0 
0.0790221 0.228727 0.0519513 -0.487814 -0.665505 -0.564925 0 
0.0789402 0.228558 0.0522593 -0.581171 -0.641815 -0.500313 0 
0.0789321 0.229143 0.05235 -0.562279 -0.633198 -0.531886 0 
0.0788538 0.228712 0.0517035 -0.420053 -0.695661 -0.582761 0 
0.0786553 0.228448 0.0517334 -0.562642 -0.656696 -0.502179 0 
0.0785689 0.228601 0.0511775 -0.286523 -0.699499 -0.65468 0 
0.0772258 0.237956 0.0402599 0.550706 -0.533864 -0.641648 0 
0.0771396 0.238225 0.0400599 0.544352 -0.547723 -0.635358 0 
0.0771482 0.23828 0.0399296 0.571369 -0.527547 -0.628674 0 
0.077088 0.238305 0.04009 0.544352 -0.547723 -0.635358 0 
0.0768552 0.238347 0.0402455 0.557759 -0.534168 -0.635272 0 
0.0768895 0.238041 0.04012 0.594493 -0.510287 -0.621439 0 
0.0768428 0.238846 0.0402233 0.427871 -0.594357 -0.68093 0 
0.0767479 0.238538 0.0405487 0.594493 -0.510287 -0.621439 0 
0.0769711 0.238094 0.0394562 0.435822 -0.619502 -0.652898 0 
0.0772132 0.238863 0.0394868 -0.29127 -0.771946 -0.565032 0 
0.077101 0.238853 0.0393215 0.0322972 -0.770919 -0.636114 0 
0.0770448 0.238847 0.0392389 -0.358395 -0.763819 -0.536781 0 
0.0770105 0.238629 0.0397597 0.592524 -0.514872 -0.619534 0 
0.0770191 0.238684 0.0396295 0.513004 -0.563463 -0.647562 0 
0.0768636 0.238285 0.0397595 0.578466 -0.511006 -0.635807 0 
0.0768294 0.23859 0.039885 0.474195 -0.588136 -0.65516 0 
0.0763249 0.238661 0.0394971 -0.850604 -0.510363 -0.1265 0 
0.0765186 0.238723 0.0389986 -0.924985 -0.378105 0.0379414 0 
0.07667 0.239153 0.0391116 -0.956675 -0.230829 0.177458 0 
0.076592 0.238838 0.0388208 -0.956675 -0.230829 0.177458 0 
0.0765017 0.239138 0.0388637 -0.947423 -0.249465 0.20039 0 
0.0765961 0.238807 0.0385778 -0.943946 -0.150327 0.293883 0 
0.0767086 0.23934 0.0383477 -0.938529 -0.310111 0.15164 0 
0.0763851 0.239042 0.0385856 -0.935294 -0.324546 0.141047 0 
0.0766089 0.238423 0.0389557 -0.938109 -0.346282 -0.00629604 0 
0.0762176 0.239375 0.039405 -0.891562 0.0760247 0.446472 0 
0.0766444 0.239105 0.039858 0.175917 -0.705197 -0.686841 0 
0.0765195 0.239071 0.0400659 0.255371 -0.677287 -0.689977 0 
0.076597 0.239155 0.0396451 -0.913481 -0.406713 0.0116946 0 
0.0763512 0.239056 0.039818 -0.863786 -0.497417 -0.0803194 0 
0.0760538 0.239037 0.040021 -0.949907 -0.182935 0.253399 0 
0.0762951 0.239051 0.0397353 -0.900111 -0.434765 -0.0279207 0 
0.0763726 0.239134 0.0393146 -0.946566 -0.291354 0.138293 0 
0.0762604 0.239124 0.0391493 -0.944695 -0.291405 0.150446 0 
0.0764414 0.23957 0.0382729 -0.889696 -0.449691 0.0788688 0 
0.0763897 0.239651 0.0383031 -0.912707 -0.398197 0.0916812 0 
0.0762045 0.239642 0.0386713 -0.8636 -0.501579 0.0511251 0 
0.0762301 0.239283 0.0386761 -0.88179 -0.468921 0.0505833 0 
0.0762346 0.239368 0.0387888 -0.88179 -0.468921 0.0505833 0 
0.0760496 0.239883 0.0387618 -0.937046 -0.269523 0.222042 0 
0.0753515 0.240006 0.0392281 -0.430007 -0.846042 -0.315131 0 
0.0746192 0.240434 0.0398199 -0.528643 -0.84266 -0.102272 0 
0.0764241 0.239869 0.0377822 -0.92934 -0.355774 0.0987509 0 
0.07645 0.239625 0.0381427 -0.91555 -0.394704 0.0773131 0 
0.076295 0.239865 0.0382331 -0.918922 -0.385704 0.0825541 0 
0.0762561 0.239969 0.0378902 -0.918979 -0.389262 0.0628705 0 
0.0760279 0.240096 0.0381584 -0.901545 -0.428336 0.0611909 0 
0.076338 0.240138 0.0375821 -0.936297 -0.343 0.0754865 0 
0.0763466 0.240192 0.0374519 -0.958214 -0.260143 0.11896 0 
0.0761269 0.240373 0.0375899 0.237781 -0.797266 -0.554822 0 
0.0760537 0.240259 0.0377678 0.238041 -0.785691 -0.570987 0 
0.076144 0.239959 0.0377249 0.285669 -0.748484 -0.598468 0 
0.0761012 0.24021 0.0379806 0.235127 -0.777011 -0.583926 0 
0.0762044 0.240457 0.0371691 0.23067 -0.863882 -0.447771 0 
0.0761528 0.240537 0.0371993 0.23067 -0.863882 -0.447771 0 
0.0763202 0.240204 0.0363799 -0.409895 -0.911321 0.0384692 0 
0.0762949 0.24068 0.0367309 0.119413 -0.943228 -0.309937 0 
0.0761266 0.240665 0.036483 -0.0988941 -0.992351 -0.0738864 0 
0.0760664 0.24069 0.0366434 0.0445292 -0.976033 -0.213018 0 
0.0762346 0.240706 0.0368913 0.170873 -0.919327 -0.354456 0 
0.0759373 0.240687 0.0370943 0.254231 -0.877023 -0.407673 0 
0.0758295 0.240762 0.0370419 0.229137 -0.88846 -0.397663 0 
0.0759114 0.240931 0.0367339 0.067841 -0.927161 -0.36847 0 
0.0756226 0.240967 0.0368067 0.230643 -0.860765 -0.453748 0 
0.0755063 0.240987 0.0368843 0.230643 -0.860765 -0.453748 0 
0.0759114 0.240523 0.0374849 0.199635 -0.848074 -0.490832 0 
0.0757304 0.240484 0.0376103 0.26055 -0.809733 -0.525781 0 
0.0757562 0.240648 0.0372196 0.273614 -0.857527 -0.435642 0 
0.0757004 0.240759 0.0374928 0.256523 -0.840228 -0.477716 0 
