0.0520592 0.252899 0.00439788 0.808235 0.15089 -0.5692 1 
0.0521865 0.252929 0.00480144 0.79885 0.144838 -0.583833 1 
0.0520163 0.252877 0.00471036 0.733053 0.223511 -0.642398 1 
0.0519069 0.252629 0.00483771 0.624352 0.271664 -0.732382 1 
0.0519004 0.25294 0.00489095 0.757036 0.126421 -0.641026 1 
0.0524302 0.253662 0.00392698 -0.0544608 -0.95623 -0.287502 1 
0.0522358 0.253393 0.00378522 0.0985031 -0.929708 -0.354881 1 
0.0522783 0.253403 0.00391978 0.872345 -0.168604 -0.458897 1 
0.0520649 0.253322 0.00436468 0.853887 -0.11703 -0.507131 1 
0.0511243 0.252649 0.00255576 0.877504 0.15862 -0.452577 1 
0.0514161 0.253061 0.00243314 0.726913 -0.244407 -0.641765 1 
0.0512583 0.253127 0.00203212 -0.449352 -0.885946 -0.114819 1 
0.0517079 0.253473 0.0023105 0.779487 -0.245249 -0.576414 1 
0.0515494 0.25352 0.00258005 0.793375 -0.207168 -0.572396 1 
0.0514213 0.253472 0.00284697 0.747122 -0.292769 -0.596737 1 
0.0514099 0.253379 0.00226289 0.68824 -0.33029 -0.645937 1 
0.0511538 0.253283 0.0027968 0.688937 -0.358378 -0.630025 1 
0.0521451 0.252944 0.00377285 0.906746 0.163698 -0.388606 1 
0.0521208 0.252721 0.00394568 0.858899 0.205356 -0.469172 1 
0.0516344 0.252787 0.00349957 0.893947 0.138298 -0.4263 1 
0.0517319 0.252931 0.00323516 0.884236 0.0476861 -0.464599 1 
0.0518953 0.25253 0.00447701 0.698537 0.223469 -0.679785 1 
0.051889 0.252847 0.00430679 0.800299 0.11307 -0.588844 1 
0.0516947 0.252579 0.00416502 0.849574 0.148199 -0.506223 1 
0.0517367 0.252577 0.00474662 0.604292 0.211734 -0.768115 1 
0.0516329 0.252751 0.00484072 0.702227 0.117285 -0.702227 1 
0.0517369 0.252583 0.00452305 0.685725 0.172577 -0.707106 1 
0.0517369 0.252583 0.00452305 0.685725 0.172577 -0.707106 1 
0.0517974 0.253133 0.0043145 0.85279 -0.0485328 -0.519994 1 
0.0515242 0.25252 0.00429745 0.764611 0.136164 -0.629944 1 
0.0515249 0.252539 0.00362688 0.90398 0.119129 -0.410645 1 
0.0513547 0.252487 0.00353576 0.893366 0.0817188 -0.441835 1 
0.0514212 0.252713 0.00372101 0.895824 0.110751 -0.430388 1 
0.0513547 0.252487 0.00353576 0.893366 0.0817188 -0.441835 1 
0.0512633 0.252778 0.00331996 0.876634 0.0201989 -0.480734 1 
0.0512568 0.25309 0.00337321 -0.116513 -0.956974 -0.265753 1 
0.0513484 0.252804 0.0033655 0.876634 0.0201989 -0.480734 1 
0.0512568 0.25309 0.00337321 -0.116513 -0.956974 -0.265753 1 
0.05116 0.252965 0.00296706 0.792056 -0.197631 -0.577572 1 
0.0510015 0.253012 0.00323656 0.78049 -0.280217 -0.55885 1 
0.0512994 0.252347 0.00415823 0.818059 0.140535 -0.5577 1 
0.051044 0.252269 0.0040216 0.816506 0.12167 -0.564371 1 
0.051135 0.252724 0.00381047 0.900329 -0.0118291 -0.435049 1 
0.0507516 0.252597 0.00394082 0.899641 -0.08404 -0.428466 1 
0.0512998 0.253112 0.00306071 0.786895 -0.279119 -0.550353 1 
0.0512932 0.253424 0.00311397 0.840806 -0.136466 -0.523853 1 
0.0511652 0.253376 0.00338092 0.864278 -0.17581 -0.47129 1 
0.0510379 0.253346 0.00297733 0.7813 -0.24172 -0.575449 1 
0.0509161 0.25298 0.0034146 0.797703 -0.275341 -0.536522 1 
0.0509768 0.253536 0.0029825 0.78634 -0.22489 -0.575408 1 
0.0516196 0.255633 0.0029958 0.428335 0.1572 -0.889841 1 
0.051194 0.255502 0.00276804 0.428335 0.1572 -0.889841 1 
0.0519292 0.249973 -0.00158776 -0.967076 0.179951 -0.179951 1 
0.0517954 0.250254 -0.00193807 -0.941315 0.188814 -0.279776 1 
0.0514789 0.250367 -0.00206956 -0.942087 0.219959 -0.25316 1 
0.0518747 0.250611 -0.00250986 -0.947876 0.166318 -0.271788 1 
0.0517891 0.250572 -0.00210835 -0.931267 0.162382 -0.326151 1 
0.0516124 0.250832 -0.00214623 -0.932094 0.130028 -0.338072 1 
0.0513873 0.250652 -0.00206187 -0.92021 0.185743 -0.344547 1 
0.0515698 0.250063 -0.00140671 -0.97582 0.14945 -0.159497 1 
0.0515043 0.249861 -0.00248601 -0.919626 0.332206 -0.209589 1 
0.0516316 0.249891 -0.00208244 -0.930803 0.283902 -0.230229 1 
0.0515772 0.249776 -0.00235406 -0.914561 0.33086 -0.232614 1 
0.0517305 0.249312 -0.00281401 -0.948752 0.312846 0.0446922 1 
0.0514564 0.249434 -0.00281094 -0.956769 0.272061 0.102836 1 
0.0514324 0.249217 -0.0028616 -0.953153 0.28003 0.114378 1 
0.051347 0.249185 -0.00268362 -0.911682 0.403531 -0.0774454 1 
0.0512978 0.249481 -0.00254136 -0.908513 0.376282 -0.181703 1 
0.0515108 0.249549 -0.00253931 -0.926009 0.351911 -0.136624 1 
0.0515036 0.249842 -0.0018155 -0.947901 0.264436 -0.177647 1 
0.0516134 0.250103 -0.00238977 -0.899739 0.321653 -0.294972 1 
0.0517961 0.250273 -0.00260866 -0.905004 0.281066 -0.319327 1 
0.0516072 0.250421 -0.00256009 -0.906159 0.274638 -0.321635 1 
0.0516259 0.250221 -0.00269976 -0.920033 0.314333 -0.233955 1 
0.0508761 0.250483 -0.00188811 -0.945619 0.167354 -0.278923 1 
0.0518255 0.250906 -0.00236762 -0.932619 0.13284 -0.335524 1 
0.0517766 0.251208 -0.00244889 -0.930473 0.141983 -0.337727 1 
0.051685 0.251493 -0.00244117 -0.896129 0.20254 -0.39488 1 
0.0516729 0.251382 -0.00235482 -0.912283 0.168836 -0.373142 1 
0.0512652 0.251033 -0.00205161 -0.932146 0.0925439 -0.350058 1 
0.0505444 0.251917 -0.000551835 -0.88121 0.121006 -0.456976 1 
0.0506412 0.252042 -0.000145674 -0.957026 0.0466534 -0.286225 1 
0.0502883 0.25182 -1.79112e-005 -0.833601 0.5117 -0.208021 1 
0.0515957 0.250604 0.00218716 -0.866564 0.490534 -0.0918869 1 
0.0514798 0.250667 0.00236769 -0.697648 0.635851 -0.330122 1 
0.0511449 0.249474 0.00367685 -0.799605 0.567215 -0.197226 1 
0.0506036 0.249413 0.00340618 -0.629146 0.384753 -0.675382 1 
0.0505855 0.249625 0.00309882 -0.855307 0.500986 -0.132144 1 
0.0515651 0.250699 0.00218973 -0.742667 0.619677 -0.253863 1 
0.051376 0.250842 0.00246185 -0.569787 0.696037 -0.436892 1 
0.0511392 0.250563 0.00218552 -0.0266322 0.755513 -0.654592 1 
0.0510476 0.250849 0.00219324 -0.433513 0.7434 -0.509336 1 
0.051448 0.252244 0.00196339 0.9276 0.145154 -0.344221 1 
0.0512666 0.250593 0.00258915 -0.415006 0.719234 -0.5572 1 
0.0507915 0.250752 0.0027272 -0.275493 0.721379 -0.635387 1 
0.0507799 0.250653 0.00236656 -0.254217 0.731071 -0.633174 1 
0.0505667 0.250579 0.00258799 -0.956363 0.276398 0.094728 1 
0.050494 0.25067 0.00223252 -0.178052 0.783734 -0.595029 1 
0.0492179 0.250297 0.000878781 -0.22645 -0.846529 -0.481777 1 
0.0490412 0.250556 0.000840962 -0.250964 -0.802774 -0.540898 1 
0.0491133 0.251206 0.000992984 -0.142513 -0.640559 -0.754569 1 
0.0520273 0.253435 -0.000240281 -0.725203 0.608912 -0.321415 1 
0.0517174 0.253235 -0.000425041 -0.768432 0.429082 -0.474764 1 
0.0522223 0.253722 -0.000769064 -0.696392 0.647919 -0.30861 1 
0.0516991 0.252689 0.000141576 -0.892953 0.38984 -0.225077 1 
0.0514191 0.253135 -0.000249162 -0.704281 0.0893163 -0.704281 1 
0.0514375 0.252928 -0.000165313 -0.705088 0.041142 -0.707925 1 
0.0509689 0.252776 -8.04961e-005 -0.885638 0.0533847 -0.461298 1 
0.0508714 0.252632 0.000183895 -0.910805 -0.361156 -0.200003 1 
0.050958 0.252695 -0.0011117 -0.712559 0.34405 -0.611464 1 
0.0508299 0.252647 -0.000844732 -0.704526 0.268769 -0.656815 1 
0.0506776 0.252376 -0.000404924 -0.612853 0.236677 -0.753919 1 
0.0507078 0.253027 -0.00083445 -0.611668 0.198754 -0.765741 1 
0.0504093 0.252921 -0.000435024 -0.213137 0.485227 -0.848014 1 
0.0505746 0.252568 -0.000981376 -0.172051 0.208826 -0.962699 1 
0.0504465 0.25252 -0.000714406 0.0850719 0.117702 -0.989398 1 
0.0501242 0.252203 -0.000589222 0.117754 0.172293 -0.977982 1 
0.0502879 0.252567 -0.000444844 -0.206991 0.445255 -0.87115 1 
0.0504644 0.252301 -0.000183508 -0.70429 -0.00972392 -0.709846 1 
0.0497445 0.253963 -0.000228316 -0.734209 -0.651091 -0.192403 1 
0.0496399 0.254872 -0.000114083 -0.0889587 -0.865582 -0.492803 1 
0.0494151 0.254698 -0.00025332 0.643614 -0.243912 -0.725443 1 
0.0485761 0.253796 -0.000144675 0.854616 0.182813 -0.486016 1 
0.0489888 0.254549 0.000189543 0.121486 -0.821128 -0.557665 1 
0.0488972 0.254835 0.000197276 0.151398 -0.795964 -0.586105 1 
0.0486245 0.254235 -0.00026685 0.752148 0.621339 -0.219571 1 
0.050997 0.252619 0.00215214 0.869569 0.150026 -0.47047 1 
0.051046 0.252318 0.00223343 0.893738 0.144428 -0.424704 1 
0.0511367 0.252767 0.00224577 0.870767 0.158984 -0.465284 1 
0.0509665 0.252715 0.00215466 0.879525 0.180003 -0.440494 1 
0.0509171 0.253004 0.00252049 0.683095 -0.311672 -0.660486 1 
0.0506747 0.252302 0.00227736 0.903693 0.164178 -0.395455 1 
0.0505285 0.252467 0.00223692 0.899951 0.161676 -0.404906 1 
0.0509667 0.252721 0.00193118 0.909737 0.148097 -0.387873 1 
0.0511732 0.253101 0.00198653 0.262647 -0.822132 -0.50509 1 
0.0510815 0.253386 0.00199428 -0.565656 -0.824631 -0.00408908 1 
0.0510029 0.253048 0.00189546 0.410071 -0.72627 -0.551701 1 
0.0509113 0.253334 0.00190315 0.394937 -0.665939 -0.63289 1 
0.0507222 0.253476 0.00217527 0.488995 -0.51236 -0.705955 1 
0.0505587 0.253118 0.00180744 -0.359552 -0.917915 -0.167791 1 
0.0504917 0.25288 0.00206923 0.707106 -0.172577 -0.685725 1 
0.0505949 0.253446 0.00177166 -0.522781 -0.848633 0.0807548 1 
0.0504671 0.253404 0.00181513 -0.0335555 -0.895262 -0.444275 1 
0.0503512 0.253467 0.00199568 0.481659 -0.48497 -0.729937 1 
0.0500477 0.252956 0.00175768 0.039924 -0.860432 -0.507999 1 
0.0501874 0.253103 0.00185138 -0.458089 -0.887632 -0.047576 1 
0.050181 0.253415 0.00190458 0.543165 -0.380052 -0.748687 1 
0.0497794 0.253501 0.00172761 0.120676 -0.719589 -0.683833 1 
0.0498288 0.253211 0.00136174 0.697648 0.330122 -0.635851 1 
0.0498283 0.253199 0.00180882 -0.40855 -0.90712 -0.101099 1 
0.0496275 0.253242 0.00172028 -0.0878497 -0.81369 -0.574623 1 
0.0501304 0.252921 0.00403847 0.140215 -0.937941 -0.317185 1 
0.0501852 0.253048 0.00386305 -0.32597 -0.937333 -0.123084 1 
0.0496572 0.253882 0.00173782 0.313718 -0.48713 -0.815037 1 
0.0497061 0.25358 0.00181912 -0.306921 -0.912036 -0.272011 1 
0.0490619 0.252958 0.0016225 0.364732 -0.328106 -0.871388 1 
0.0495793 0.253562 0.000968471 -0.629866 -0.776604 0.0124589 1 
0.0493596 0.2538 0.00124316 0.691356 0.0210352 -0.722208 1 
0.049512 0.25407 0.000803351 -0.603974 -0.796465 -0.0292921 1 
0.0494269 0.254044 0.000757784 -0.676116 -0.735648 0.0411056 1 
0.0495542 0.254074 0.00116137 0.657709 -0.104468 -0.745992 1 
0.0494266 0.254038 0.000981346 -0.536327 -0.837017 -0.108422 1 
0.0493415 0.254012 0.000935778 -0.580303 -0.80895 -0.094064 1 
0.0493415 0.254012 0.000935778 -0.580303 -0.80895 -0.094064 1 
0.0493604 0.253818 0.000572562 -0.671443 -0.740951 0.0125114 1 
0.0493847 0.25404 0.000399739 -0.647074 -0.757585 -0.0857918 1 
0.0491713 0.25396 0.000844717 0.605955 -0.369485 -0.704485 1 
0.0490861 0.253934 0.000799134 -0.836099 -0.277666 0.473117 1 
0.0496215 0.253566 0.00132652 -0.564915 -0.820779 -0.0848091 1 
0.0495299 0.253852 0.00133422 0.688881 0.0768646 -0.720787 1 
0.0491708 0.253948 0.00129175 0.716571 -0.101526 -0.690086 1 
0.0489574 0.253867 0.00173664 -0.663215 -0.732709 0.152585 1 
0.0494633 0.254378 0.000498533 -0.638298 -0.763912 -0.0949413 1 
0.0492499 0.254298 0.000943452 0.744283 -0.133282 -0.65443 1 
0.0491345 0.254373 0.000677004 0.79954 0.0821149 -0.594973 1 
0.0489096 0.254199 0.000537783 0.459179 -0.576061 -0.676246 1 
0.049092 0.254363 0.000542462 0.819387 -0.00957548 -0.573161 1 
0.048988 0.254531 0.00086011 0.730422 -0.240332 -0.639315 1 
0.0489029 0.254505 0.000814572 -0.0257839 -0.869869 -0.492609 1 
0.0489512 0.254944 0.000692412 -0.0561788 -0.883788 -0.464503 1 
0.0488607 0.254501 0.000456497 0.84943 0.350682 -0.394323 1 
0.04886 0.254483 0.00112709 0.759362 -0.152476 -0.63255 1 
0.0487379 0.254864 0.00113736 -0.234551 -0.907609 -0.348184 1 
0.0488005 0.253957 0.000441566 0.459179 -0.576061 -0.676246 1 
0.0488918 0.253665 0.00065738 0.572031 -0.338682 -0.747044 1 
0.0486591 0.253767 0.00191259 0.34649 -0.447747 -0.824298 1 
0.0483537 0.254719 0.00193824 -0.756712 -0.609443 -0.23657 1 
0.0518948 0.252517 0.00492409 0.562128 0.309091 -0.767121 1 
0.0519426 0.252944 0.00524899 0.889557 -0.30452 -0.340522 1 
0.0516086 0.252528 0.00501357 0.580329 0.218204 -0.784605 1 
0.0513532 0.25245 0.00487691 0.61095 0.119823 -0.782549 1 
0.0504958 0.252507 0.00425124 0.870364 -0.0770853 -0.486338 1 
0.0504454 0.248713 0.00410271 -0.719167 0.453424 -0.526503 1 
0.051656 0.255967 0.00273652 0.428335 0.1572 -0.889841 1 
0.0516495 0.256278 0.0027898 0.428335 0.1572 -0.889841 1 
0.0498292 0.255488 -0.00126025 0.428335 0.1572 -0.889841 1 
0.0485247 0.254789 0.00135878 -0.0834905 -0.858961 -0.505188 1 
0.0515442 0.248015 -0.00369969 -0.660491 0.747207 0.073709 1 
0.0517015 0.248691 -0.00350206 -0.634535 -0.405903 0.657729 1 
0.0515855 0.248754 -0.00332153 -0.900611 0.418791 0.116253 1 
0.0508139 0.248855 -0.00457221 -0.612658 0.777431 0.142304 1 
0.0509419 0.248144 -0.00396521 -0.660491 0.747207 0.073709 1 
0.0508013 0.248732 -0.00403875 -0.718218 0.692206 0.0708102 1 
0.0508195 0.248519 -0.00373138 -0.719159 0.693627 0.0411353 1 
0.0507157 0.248693 -0.00363728 -0.532481 -0.586575 0.610241 1 
0.0505527 0.248348 -0.00445217 -0.457 0.874577 0.162067 1 
0.0506311 0.24868 -0.00412986 -0.660491 0.747207 0.073709 1 
0.0511406 0.248805 -0.00273898 -0.858188 0.510462 -0.0542453 1 
0.0510195 0.248458 -0.0029723 -0.862308 0.501732 0.0684815 1 
0.0508493 0.248406 -0.00306343 -0.831916 0.553217 0.0431983 1 
0.050861 0.248505 -0.00270277 -0.837737 0.54515 -0.0317429 1 
0.0507577 0.248691 -0.00305568 -0.82622 0.563145 -0.015072 1 
0.0508423 0.248705 -0.00256307 -0.853363 0.518163 -0.0572633 1 
0.0506837 0.248752 -0.00229353 -0.833469 0.515813 -0.198157 1 
0.0507572 0.248679 -0.00260863 -0.858113 0.512122 -0.0370705 1 
0.0508617 0.248523 -0.00337332 -0.565251 -0.545003 0.619245 1 
0.0505877 0.248645 -0.0033703 -0.754247 0.655928 -0.0294957 1 
0.0506726 0.248665 -0.00310127 -0.809589 0.586918 -0.00962161 1 
0.0504361 0.248393 -0.00360104 -0.660491 0.747207 0.073709 1 
0.05018 0.248296 -0.00306711 -0.685786 0.725873 0.052973 1 
0.0503253 0.247354 -0.00148214 -0.82612 0.378969 -0.417024 1 
0.0502207 0.248263 -0.0013679 -0.797867 0.515521 -0.312485 1 
0.0499714 0.247861 -0.00111078 -0.653987 0.752592 -0.0768543 1 
0.0500927 0.248215 -0.00110094 -0.797363 0.507702 -0.326266 1 
0.0497517 0.248098 -0.000836089 -0.752965 0.650221 -0.101276 1 
0.0499783 0.247562 -0.00161107 -0.836442 0.382779 -0.39223 1 
0.049625 0.247328 -0.00103626 -0.711606 0.376346 -0.593279 1 
0.0495879 0.247735 -0.000980437 -0.771894 0.328978 -0.544017 1 
0.0496474 0.24826 -0.000294909 0.311191 0.491271 -0.813519 1 
0.0492413 0.247195 -0.000682414 -0.711606 0.376346 -0.593279 1 
0.0492895 0.247628 -0.000580996 -0.500606 0.826077 -0.258827 1 
0.0491856 0.247802 -0.00048691 -0.500606 0.826077 -0.258827 1 
0.0491854 0.247796 -0.000263348 -0.20605 0.977845 -0.0369223 1 
0.0490576 0.247754 -0.000219911 -0.500606 0.826077 -0.258827 1 
0.0493494 0.248166 -0.000342563 -0.808056 0.583356 -0.082102 1 
0.0493189 0.248261 -0.00033997 -0.784508 0.606548 -0.129021 1 
0.0492351 0.247513 -0.000852644 -0.711606 0.376346 -0.593279 1 
0.0489293 0.2477 0.000270545 -0.691265 0.574666 -0.438078 1 
0.048246 0.24743 0.00214148 -0.40213 0.908619 0.112708 1 
0.0489684 0.246589 -0.000922948 -0.695289 0.39141 -0.602804 1 
0.0484157 0.24747 0.00267959 -0.27033 0.77305 0.573859 1 
0.0484514 0.247785 0.00309092 0.0840787 0.140921 0.986444 1 
0.048196 0.247707 0.00295429 0.132032 0.101105 0.986076 1 
0.0481231 0.247792 0.00282234 0.00611606 0.287455 0.957775 1 
0.0482928 0.247832 0.00336048 0.162004 0.146934 0.97579 1 
0.0473206 0.246471 0.00332217 -0.735147 0.63125 0.247148 1 
0.0470653 0.246393 0.00318556 -0.76714 0.595275 0.239048 1 
0.0476057 0.247188 0.00347631 -0.664865 0.638469 -0.387701 1 
0.0476421 0.247522 0.00321706 -0.175838 0.339015 0.924202 1 
0.0473563 0.247539 0.00308299 -0.785278 0.585501 -0.201314 1 
0.0473438 0.247422 0.0033929 -0.636945 0.650249 -0.414097 1 
0.047733 0.247218 0.00387992 -0.138365 0.218539 0.965969 1 
0.0468578 0.246741 0.00337382 -0.77884 0.58684 0.22142 1 
0.0464889 0.245275 0.00270694 -0.855576 0.479302 0.195603 1 
0.0466533 0.245657 0.00218074 -0.294199 0.813373 -0.501868 1 
0.0465675 0.245613 0.00280577 -0.332504 -0.595263 0.731508 1 
0.0464399 0.245577 0.00262567 -0.854198 0.447728 0.264358 1 
0.0463551 0.245557 0.00235662 -0.77519 0.495666 0.391658 1 
0.0463126 0.245547 0.00222206 -0.77519 0.495666 0.391658 1 
0.0461911 0.245187 0.00243576 -0.76024 0.361479 0.539786 1 
0.0461608 0.245288 0.00221486 -0.76024 0.361479 0.539786 1 
0.0466946 0.245637 0.00343288 -0.765536 0.643272 0.0125042 1 
0.0466097 0.245617 0.00316383 -0.75923 0.65057 0.0181101 1 
0.0464395 0.245564 0.00307274 -0.754247 0.655928 -0.0294957 1 
0.0459709 0.245412 0.00315753 -0.669876 0.740988 -0.046934 1 
0.0459532 0.244878 0.00327711 -0.840251 0.52128 0.149148 1 
0.0462444 0.245278 0.00360152 -0.679996 0.733055 -0.0153592 1 
0.0464518 0.245682 0.00276278 -0.820759 0.564001 0.0908749 1 
0.0462392 0.24562 0.00253713 -0.732294 0.673357 0.101667 1 
0.0460081 0.245764 0.00222766 -0.74853 0.29207 0.595313 1 
0.0460626 0.245885 0.00227581 -0.744111 0.278842 0.60708 1 
0.0461718 0.246128 0.00237204 -0.791453 0.214448 0.572376 1 
0.0468345 0.24579 0.00330302 -0.766839 0.641584 0.0180924 1 
0.0468707 0.246118 0.0032673 -0.769914 0.636632 0.0439546 1 
0.0466884 0.245954 0.00326258 -0.769207 0.638927 0.0097017 1 
0.0467661 0.247027 0.00338154 -0.760584 0.626989 0.168513 1 
0.0460918 0.245753 0.00361437 -0.707073 0.707073 0.00972399 1 
0.0461976 0.245157 0.0074904 -0.146206 0.712942 0.685811 1 
0.0461001 0.245014 0.00775482 -0.0353994 0.717901 0.695245 1 
0.0460946 0.24535 0.00691397 -0.875923 0.469904 0.109313 1 
0.0457105 0.245205 0.00771488 -0.0353994 0.717901 0.695245 1 
0.0454551 0.245127 0.00757828 -0.0353994 0.717901 0.695245 1 
0.046617 0.247118 0.00602338 -0.980251 0.196983 -0.0174837 1 
0.0460272 0.246611 0.00609836 -0.959985 0.276606 -0.0438063 1 
0.045936 0.246909 0.00565901 -0.968952 0.246752 -0.0156477 1 
0.0465623 0.246237 0.00684927 -0.733644 0.625895 0.264619 1 
0.0467202 0.246172 0.00725032 -0.332784 0.725631 0.602258 1 
0.0466286 0.246458 0.007258 -0.318941 0.713975 0.623311 1 
0.0464281 0.246507 0.006946 -0.282898 0.704848 0.650506 1 
0.0465734 0.247077 0.00700648 -0.34929 0.735945 0.579984 1 
0.045802 0.245673 0.00705667 -0.18599 0.73935 0.647124 1 
0.0459478 0.246255 0.00667013 -0.89139 0.453001 -0.014613 1 
0.0459541 0.245937 0.00684042 -0.875923 0.469904 0.109313 1 
0.0455883 0.245586 0.00772516 -0.146206 0.712942 0.685811 1 
0.045698 0.245841 0.00737432 -0.18599 0.73935 0.647124 1 
0.0456493 0.246149 0.00706956 -0.18599 0.73935 0.647124 1 
0.0456674 0.245936 0.00737691 -0.18599 0.73935 0.647124 1 
0.0454848 0.245766 0.00759578 -0.146206 0.712942 0.685811 1 
0.0452973 0.245192 0.00717722 -0.0499909 0.73558 0.675591 1 
0.0454426 0.245763 0.0072377 -0.189385 0.737525 0.648221 1 
0.0453148 0.24572 0.00728115 -0.146206 0.712942 0.685811 1 
0.0456071 0.246145 0.00671145 -0.87685 0.470195 0.100252 1 
0.0454058 0.246175 0.00707 -0.18599 0.73935 0.647124 1 
0.0456709 0.245269 0.00489807 -0.900864 0.384427 -0.201643 1 
0.0463035 0.245791 0.00473405 -0.814477 0.515472 -0.266301 1 
0.046133 0.245733 0.00486653 -0.856608 0.481191 -0.186219 1 
0.0458536 0.245438 0.00467922 -0.778927 0.54221 -0.315089 1 
0.0460481 0.245713 0.00459744 -0.800658 0.534294 -0.271064 1 
0.046 0.242733 0.00156318 0.819063 0.143669 0.555423 1 
0.0457253 0.242837 0.00223678 0.70026 0.312125 0.642039 1 
0.0456042 0.242489 0.00200348 0.794195 0.004115 0.607649 1 
0.0453913 0.242421 0.00200135 0.625657 0.329892 0.706912 1 
0.0452143 0.242674 0.00218709 0.504281 0.399834 0.765397 1 
0.0450436 0.24261 0.002543 0.551701 0.410071 0.72627 1 
0.0455179 0.242432 0.00307555 0.658087 0.341291 0.67115 1 
0.0452807 0.242141 0.00324625 0.658087 0.341291 0.67115 1 
0.0449402 0.242037 0.00306411 0.463741 0.674684 0.574235 1 
0.0456094 0.2429 0.00241733 0.617373 0.328941 0.714597 1 
0.0453354 0.243022 0.0024204 0.464696 0.365688 0.80643 1 
0.0456272 0.243434 0.00229777 0.00858243 0.288125 0.957554 1 
0.0449641 0.243007 0.00246434 0.503339 0.424641 0.752549 1 
0.0449279 0.242679 0.00250007 0.504909 0.455246 0.73336 1 
0.0452495 0.242977 0.00304542 0.566314 0.272904 0.777696 1 
0.0449877 0.243211 0.00296202 0.47363 0.349242 0.80852 1 
0.0444273 0.243338 0.00327805 0.454392 0.470796 0.756227 1 
0.044849 0.242335 0.00262478 0.491188 0.541481 0.682299 1 
0.0447511 0.242179 0.00333621 0.441822 0.665234 0.601878 1 
0.0445925 0.242226 0.00360575 0.441822 0.665234 0.601878 1 
0.0442875 0.242431 0.00405841 0.366664 0.672491 0.642895 1 
0.0444038 0.24238 0.00343083 0.441822 0.665234 0.601878 1 
0.0458339 0.24382 0.00212958 -0.403911 0.183859 0.896132 1 
0.0461983 0.244894 0.00171198 -0.772296 0.435947 0.462071 1 
0.0462464 0.245326 0.00181332 -0.768629 0.435719 0.468358 1 
0.0459054 0.24521 0.00207822 -0.768629 0.435719 0.468358 1 
0.0457774 0.245162 0.00234514 -0.768629 0.435719 0.468358 1 
0.0456923 0.245136 0.00229962 -0.768629 0.435719 0.468358 1 
0.0458697 0.244894 0.0016669 -0.717546 0.272063 0.641178 1 
0.0456806 0.245036 0.001939 -0.729362 0.51105 0.454818 1 
0.0458086 0.245085 0.00167206 -0.76746 0.446731 0.459822 1 
0.04565 0.245132 0.00194159 -0.729362 0.51105 0.454818 1 
0.0455955 0.24501 0.00189349 -0.707848 0.325577 0.626858 1 
0.0454253 0.244958 0.00180238 -0.639877 0.261984 0.722442 1 
0.0452121 0.244884 0.00202379 -0.635996 0.264866 0.724814 1 
0.0450483 0.24452 0.00187944 -0.188947 0.118874 0.974766 1 
0.04475 0.24442 0.00205535 -0.20223 0.189013 0.960925 1 
0.0446649 0.244394 0.00200981 -0.145556 0.207386 0.96737 1 
0.0445733 0.244679 0.00201753 -0.284558 0.27878 0.917229 1 
0.0445914 0.244467 0.00232491 -0.123674 0.181139 0.97565 1 
0.0456247 0.245638 0.00235803 -0.734494 0.222999 0.640928 1 
0.0459594 0.246072 0.00192288 -0.746462 0.230042 0.624399 1 
0.0458008 0.246119 0.00219244 -0.719846 0.276127 0.636848 1 
0.0452777 0.245845 0.00222911 -0.690882 0.312272 0.65205 1 
0.0456117 0.246261 0.00246453 -0.728382 0.261836 0.633168 1 
0.0452413 0.245511 0.00248839 -0.663938 0.716804 0.21302 1 
0.0437401 0.243447 0.00274347 0.441098 0.483732 0.755934 1 
0.0438253 0.244232 0.00191502 0.0639408 0.332753 0.940844 1 
0.0433632 0.243009 0.00282055 0.468477 0.545167 0.695213 1 
0.0460143 0.24497 0.00837983 0.00138031 0.730182 0.683251 1 
0.0459721 0.244966 0.00802177 -0.0353994 0.717901 0.695245 1 
0.0457708 0.244997 0.00838029 0.00138031 0.730182 0.683251 1 
0.0456855 0.244964 0.00855827 0.149301 0.734438 0.66205 1 
0.0455646 0.244623 0.00810143 0.303802 0.737806 0.602782 1 
0.0458138 0.245019 0.00806779 -0.0353994 0.717901 0.695245 1 
0.0454974 0.245131 0.00793633 -0.0353994 0.717901 0.695245 1 
0.0451196 0.245427 0.00803345 -0.0353994 0.717901 0.695245 1 
0.0444684 0.245105 0.00833715 0.192403 0.734209 0.651091 1 
0.0509586 0.249407 -0.00384118 -0.904703 0.399092 0.149127 1 
0.0507529 0.249046 -0.00456707 -0.612658 0.777431 0.142304 1 
0.0507104 0.249036 -0.00470161 -0.605729 0.766843 0.212237 1 
0.0507097 0.249017 -0.00403103 -0.767263 0.639622 0.0468016 1 
0.0504543 0.248939 -0.00416771 -0.660491 0.747207 0.073709 1 
0.0485427 0.249758 0.00113174 -0.397034 -0.710047 -0.581547 1 
0.0481047 0.249511 0.00121398 -0.673674 -0.532555 -0.512395 1 
0.048044 0.248954 0.00164609 -0.724708 -0.411053 -0.553023 1 
0.0473924 0.249379 0.00152276 -0.790494 -0.396055 -0.467183 1 
0.0488345 0.25017 0.00100912 -0.285917 -0.726771 -0.624544 1 
0.0487493 0.250144 0.000963598 -0.301605 -0.67579 -0.672564 1 
0.0488282 0.250488 0.000838846 -0.275987 -0.687573 -0.67162 1 
0.0485183 0.250289 0.000654086 -0.451981 -0.578736 -0.678806 1 
0.0489073 0.250838 0.000490591 -0.358762 -0.614319 -0.702781 1 
0.0483836 0.251305 0.000323832 -0.714242 -0.407432 -0.569085 1 
0.0487182 0.25098 0.000762701 -0.376868 -0.607267 -0.699427 1 
0.048652 0.25076 0.000353977 -0.458673 -0.565419 -0.685508 1 
0.0485239 0.250712 0.000620916 -0.558114 -0.521019 -0.645793 1 
0.0485668 0.250734 0.000308439 -0.615174 -0.457609 -0.641993 1 
0.0484631 0.250908 0.000402555 -0.68734 -0.412404 -0.597903 1 
0.0482075 0.250824 0.000489429 -0.762206 -0.393344 -0.514122 1 
0.0484638 0.250927 -0.000267997 -0.681906 -0.451825 -0.575202 1 
0.0483358 0.250878 -1.02818e-006 -0.760614 -0.426925 -0.489083 1 
0.0480069 0.250873 0.000177428 -0.758252 -0.411061 -0.506047 1 
0.0479881 0.251067 0.000540614 -0.765892 -0.388637 -0.512221 1 
0.0483652 0.25 0.00176448 -0.428192 -0.719164 -0.547226 1 
0.0484868 0.250359 0.00155078 -0.408393 -0.712621 -0.570427 1 
0.0484575 0.249732 0.00108618 -0.439889 -0.715443 -0.542807 1 
0.0481098 0.249921 0.00162788 -0.635315 -0.554426 -0.537574 1 
0.048189 0.250271 0.00127959 -0.719167 -0.453424 -0.526503 1 
0.047915 0.250393 0.00128268 -0.758252 -0.411061 -0.506047 1 
0.0480183 0.250207 0.00163558 -0.762776 -0.400171 -0.507973 1 
0.0482369 0.249945 0.00225498 -0.44308 -0.650408 -0.616968 1 
0.0479816 0.249867 0.00211835 -0.647665 -0.560188 -0.51645 1 
0.0481089 0.249897 0.00252195 -0.651856 -0.560899 -0.510368 1 
0.048018 0.250201 0.00185907 -0.761898 -0.389922 -0.517177 1 
0.0477684 0.249793 0.00233975 -0.785072 -0.348386 -0.512143 1 
0.0479207 0.250063 0.00189996 -0.755252 -0.38986 -0.526882 1 
0.0478049 0.250126 0.00208047 -0.748016 -0.387921 -0.538506 1 
0.0478902 0.250159 0.00190254 -0.761898 -0.389922 -0.517177 1 
0.0477438 0.250317 0.00208566 -0.748016 -0.387921 -0.538506 1 
0.0479017 0.251011 0.00161268 -0.763861 -0.395774 -0.509784 1 
0.0481827 0.250589 0.00110933 -0.715214 -0.456343 -0.529358 1 
0.0479266 0.250492 0.00164324 -0.762776 -0.400171 -0.507973 1 
0.047738 0.250647 0.00146833 -0.762776 -0.400171 -0.507973 1 
0.0477439 0.251076 0.00121166 -0.758252 -0.411061 -0.506047 1 
0.0478166 0.250985 0.00156716 -0.760134 -0.400501 -0.51166 1 
0.0477861 0.25108 0.00156969 -0.753384 -0.418547 -0.50718 1 
0.0475241 0.250554 0.00236033 -0.773679 -0.374675 -0.51092 1 
0.0476886 0.250936 0.00183409 -0.753506 -0.400454 -0.521407 1 
0.047658 0.251031 0.00183666 -0.747495 -0.412355 -0.520782 1 
0.0475495 0.250048 0.00194387 -0.758252 -0.411061 -0.506047 1 
0.0489993 0.25283 -0.00213911 0.428335 0.1572 -0.889841 1 
0.048865 0.253099 -0.00204243 0.428335 0.1572 -0.889841 1 
0.0491821 0.252246 -0.00170751 0.231267 -0.793139 -0.563424 1 
0.049054 0.252198 -0.00144055 0.26003 -0.761179 -0.59413 1 
0.0485423 0.252017 -0.000819698 -0.212132 -0.617814 -0.75717 1 
0.0488286 0.252765 -0.00178315 0.322089 0.910886 -0.257963 1 
0.048187 0.253999 -0.00063169 0.804909 0.302039 -0.510777 1 
0.0482436 0.251904 -0.00019677 -0.739905 -0.286054 -0.608863 1 
0.0482421 0.251868 0.00114441 -0.774804 -0.0323421 -0.631374 1 
0.0477126 0.252665 0.000360325 -0.531832 -0.0841235 -0.842661 1 
0.0474381 0.252775 0.0008104 0.429749 -0.44921 -0.783279 1 
0.0474271 0.251935 0.000653207 -0.789644 -0.402089 -0.463452 1 
0.0481632 0.251524 0.00126912 -0.764253 -0.361844 -0.533841 1 
0.0479741 0.251666 0.00154121 -0.759195 -0.375533 -0.531599 1 
0.0477799 0.251397 0.00139941 -0.769112 -0.346665 -0.536927 1 
0.0476096 0.251345 0.00130835 -0.762206 -0.393344 -0.514122 1 
0.0476828 0.251266 0.00121678 -0.762206 -0.393344 -0.514122 1 
0.0475485 0.251536 0.00131349 -0.755828 -0.414804 -0.506618 1 
0.0476334 0.251556 0.00158259 -0.75797 -0.365189 -0.54048 1 
0.0475601 0.251635 0.00167415 -0.747248 -0.380982 -0.544494 1 
0.0474326 0.251599 0.00149405 -0.73748 -0.42731 -0.523 1 
0.0474264 0.251916 0.00132377 -0.778927 -0.315089 -0.54221 1 
0.0471644 0.251391 0.00211439 -0.747181 -0.425318 -0.51071 1 
0.0474934 0.252155 0.00106195 -0.796307 -0.244658 -0.553207 1 
0.0472247 0.252694 0.00125535 -0.873164 0.330675 -0.358104 1 
0.0472689 0.251235 0.00134969 -0.765128 -0.396431 -0.507367 1 
0.0473906 0.251601 0.000912473 -0.744242 -0.42223 -0.517519 1 
0.0473839 0.251906 0.00118922 -0.78096 -0.311426 -0.541402 1 
0.0470123 0.251126 0.00233069 -0.755593 -0.411396 -0.509738 1 
0.0455515 0.247229 0.000925139 -0.593383 0.313577 0.741327 1 
0.0455198 0.248805 0.00052081 0.0545714 0.209797 0.976221 1 
0.0450883 0.248246 0.000549793 0.0545714 0.209797 0.976221 1 
0.0451915 0.248059 0.000902727 0.0545714 0.209797 0.976221 1 
0.0452947 0.248626 0.000605121 0.0545714 0.209797 0.976221 1 
0.0450942 0.248675 0.000293106 0.0545714 0.209797 0.976221 1 
0.0452961 0.24715 0.00078848 -0.620875 0.308018 0.72086 1 
0.0451799 0.24796 0.000542089 0.0545714 0.209797 0.976221 1 
0.0449242 0.247876 0.000628963 0.0545714 0.209797 0.976221 1 
0.0451006 0.248363 0.000239849 0.0545714 0.209797 0.976221 1 
0.0449304 0.248311 0.000148773 0.0545714 0.209797 0.976221 1 
0.0452884 0.248943 0.000434831 0.0296993 0.207895 0.9777 1 
0.0453006 0.249055 0.000348419 0.0151736 0.201926 0.979283 1 
0.0451726 0.249006 0.000615403 0.0296993 0.207895 0.9777 1 
0.0449172 0.248928 0.000478789 0.0545714 0.209797 0.976221 1 
0.0450263 0.249171 0.000574991 0.0151736 0.201926 0.979283 1 
0.0450688 0.249181 0.000709519 0.0151736 0.201926 0.979283 1 
0.0449102 0.249228 0.000979066 0.0767707 0.191317 0.978521 1 
0.0449109 0.249246 0.000308514 0.358957 0.209031 0.909646 1 
0.0446978 0.249171 0.00052993 0.0767707 0.191317 0.978521 1 
0.0466844 0.248121 0.004664 -0.781653 -0.377071 -0.496827 1 
0.0480114 0.249753 0.00278635 -0.721216 -0.462573 -0.515628 1 
0.0479446 0.249521 0.00282468 -0.646641 -0.492119 -0.582816 1 
0.0478957 0.249822 0.00274339 -0.735238 -0.467578 -0.490709 1 
0.0475002 0.249585 0.00296013 -0.759415 -0.3195 -0.566752 1 
0.0475731 0.250252 0.00244159 -0.771093 -0.387981 -0.504863 1 
0.0474512 0.249886 0.00287886 -0.769965 -0.36472 -0.523576 1 
0.0470797 0.249865 0.00314631 -0.743567 -0.353072 -0.567845 1 
0.0475425 0.250348 0.00244418 -0.772634 -0.39201 -0.499365 1 
0.0474144 0.250299 0.00271116 -0.787863 -0.362513 -0.497852 1 
0.0472864 0.250251 0.00297812 -0.768247 -0.360672 -0.528878 1 
0.047061 0.250818 0.00263549 -0.751122 -0.42569 -0.504583 1 
0.0471032 0.250822 0.00299352 -0.748223 -0.422623 -0.511423 1 
0.0471583 0.250203 0.00324509 -0.721039 -0.389262 -0.573217 1 
0.0468965 0.250436 0.0031617 -0.72188 -0.396294 -0.567309 1 
0.046921 0.250665 0.00276534 -0.752549 -0.424641 -0.503339 1 
0.0460509 0.249086 0.00419761 -0.428335 -0.1572 0.889841 1 
0.0458559 0.248799 0.0047264 -0.428335 -0.1572 0.889841 1 
0.04585 0.24837 0.00498313 -0.428335 -0.1572 0.889841 1 
0.0467802 0.251246 0.00291529 -0.71824 -0.459475 -0.522507 1 
0.0467133 0.251007 0.00317711 -0.714259 -0.474508 -0.514467 1 
0.0467926 0.251363 0.00260535 -0.728486 -0.437752 -0.526955 1 
0.0465373 0.251285 0.00246875 -0.753506 -0.400454 -0.521407 1 
0.0463663 0.251215 0.00304821 -0.725658 -0.438039 -0.530606 1 
0.0456607 0.247471 0.00102136 -0.709541 0.189313 0.678758 1 
0.045381 0.24717 0.00105758 -0.594998 0.32088 0.736895 1 
0.0450765 0.247388 0.00106315 -0.787338 0.14847 0.598377 1 
0.0453745 0.247482 0.00111078 -0.709541 0.189313 0.678758 1 
0.0451129 0.247721 0.000803888 0.0545714 0.209797 0.976221 1 
0.045083 0.247076 0.00100993 -0.515261 0.385226 0.765576 1 
0.0451194 0.24741 0.000750631 -0.56132 0.200362 0.802979 1 
0.0445657 0.247231 0.000789911 0.0645741 0.208343 0.975922 1 
0.0447423 0.246966 0.00105128 -0.472751 0.433491 0.767198 1 
0.0444741 0.247517 0.0007976 0.0545714 0.209797 0.976221 1 
0.0445695 0.249117 0.00102042 0.0767707 0.191317 0.978521 1 
0.0475287 0.254729 -0.000478163 0.66826 -0.206215 -0.714775 1 
0.0477902 0.255243 -0.000821769 0.417024 -0.378969 -0.82612 1 
0.04762 0.255191 -0.000912875 0.334608 -0.380867 -0.861962 1 
0.0481126 0.25556 -0.000946984 -0.0826088 -0.78116 -0.618841 1 
0.0476075 0.255826 -0.00125337 -0.534661 -0.507844 -0.675449 1 
0.0475589 0.255381 -0.000907704 0.334608 -0.380867 -0.861962 1 
0.0474494 0.255132 -0.000780404 0.334608 -0.380867 -0.861962 1 
0.047133 0.255244 -0.000911877 0.484719 -0.202592 -0.850884 1 
0.0476018 0.255403 -0.00122024 -0.816732 -0.558817 0.14378 1 
0.0475529 0.255705 -0.00130154 0.484719 -0.202592 -0.850884 1 
0.0474802 0.255796 -0.00165702 -0.386553 -0.593812 -0.705666 1 
0.0472662 0.255703 -0.000764981 -0.816732 -0.558817 0.14378 1 
0.0470044 0.255937 -0.000848368 -0.386553 -0.593812 -0.705666 1 
0.047486 0.254713 -0.000389203 0.660343 -0.233708 -0.713672 1 
0.0889499 0.238743 0.052681 -0.714077 -0.693549 0.095308 0 
0.0883619 0.239038 0.0503173 -0.586836 -0.79003 -0.177416 0 
0.0885125 0.239266 0.0514421 -0.659666 -0.748771 -0.0646731 0 
0.0886888 0.238995 0.051927 -0.688476 -0.720498 -0.0829664 0 
0.0888653 0.238729 0.0521883 -0.733025 -0.67956 -0.0295461 0 
0.0884094 0.2387 0.0517397 -0.713228 -0.698934 -0.0528846 0 
0.0886099 0.238651 0.0520517 -0.73202 -0.676937 -0.0768259 0 
0.0885381 0.238766 0.0508022 -0.646427 -0.753421 -0.120369 0 
0.0884463 0.239046 0.0510334 -0.666629 -0.743713 -0.0499615 0 
0.0879181 0.23912 0.0497822 -0.647263 -0.761897 -0.0237656 0 
0.0886945 0.238665 0.0525444 -0.690289 -0.716782 0.0986127 0 
0.0880922 0.238794 0.0522788 -0.707925 -0.705088 -0.041142 0 
0.0878914 0.238837 0.0521903 -0.665734 -0.743379 -0.0647041 0 
0.0877114 0.240999 0.0477754 -0.259828 -0.965594 -0.0108765 0 
0.0866697 0.241603 0.0480592 -0.0127464 -0.981469 -0.191195 0 
0.0883768 0.239499 0.05288 -0.795673 -0.591198 0.131871 0 
0.0879245 0.240597 0.0535358 -0.969472 0.00836783 0.245058 0 
0.0881983 0.239716 0.0544068 -0.428335 -0.1572 0.889841 0 
0.0883561 0.239368 0.0497 -0.559842 -0.813637 -0.156756 0 
0.0883554 0.23935 0.0503706 -0.572347 -0.807233 -0.144202 0 
0.0884218 0.239576 0.0505558 -0.572347 -0.807233 -0.144202 0 
0.0881295 0.239905 0.050475 -0.602005 -0.790408 -0.113336 0 
0.0883372 0.239562 0.0500632 -0.758817 -0.63159 0.159033 0 
0.0881786 0.239609 0.0503327 -0.569131 -0.806394 -0.160678 0 
0.0880449 0.239891 0.0499824 -0.618115 -0.78237 -0.0763639 0 
0.0879047 0.239731 0.0503358 -0.556347 -0.812659 -0.173387 0 
0.0879576 0.23981 0.0519485 -0.671016 -0.74106 -0.0238148 0 
0.08844 0.239364 0.0508631 -0.636967 -0.768654 -0.0586868 0 
0.0876913 0.239651 0.0507807 -0.597819 -0.792664 -0.119564 0 
0.0878116 0.23998 0.0516846 -0.645926 -0.763113 -0.0209263 0 
0.0877022 0.239732 0.0518119 -0.652985 -0.756901 -0.0266811 0 
0.0877154 0.239115 0.0514819 -0.631173 -0.77365 -0.055566 0 
0.0874711 0.239876 0.0515024 -0.591658 -0.799104 -0.106645 0 
0.087343 0.239828 0.0517695 -0.631374 -0.774804 -0.0323421 0 
0.0881652 0.24022 0.0508863 -0.630753 -0.772204 -0.0764987 0 
0.0880371 0.240172 0.0511532 -0.618115 -0.78237 -0.0763639 0 
0.0878247 0.240116 0.0507042 -0.602868 -0.790623 -0.107079 0 
0.0876545 0.240064 0.0506131 -0.571384 -0.810568 -0.128451 0 
0.0875686 0.24002 0.0512381 -0.618115 -0.78237 -0.0763639 0 
0.0875264 0.240016 0.05088 -0.591488 -0.800761 -0.0944637 0 
0.0874289 0.239872 0.0511444 -0.618115 -0.78237 -0.0763639 0 
0.0873009 0.239824 0.0514114 -0.618115 -0.78237 -0.0763639 0 
0.0881008 0.23929 0.0495633 -0.658391 -0.752644 0.00693043 0 
0.0881183 0.239818 0.0496673 -0.649763 -0.760126 0.00413862 0 
0.0879176 0.239861 0.0495788 -0.632167 -0.773591 -0.0438415 0 
0.0877538 0.239497 0.0494345 -0.616476 -0.780479 -0.103966 0 
0.0878317 0.239817 0.0502038 -0.524511 -0.825534 -0.208284 0 
0.0874355 0.24032 0.0502171 -0.866639 -0.469368 0.169208 0 
0.0873866 0.240621 0.0501359 -0.835977 -0.538548 0.105399 0 
0.0871312 0.240543 0.0499992 -0.778326 -0.627411 0.023755 0 
0.0868759 0.240465 0.0498626 -0.785832 -0.61774 0.0294162 0 
0.0871735 0.239794 0.0510077 -0.600663 -0.794612 -0.0882903 0 
0.087338 0.240176 0.0504815 -0.540637 -0.826593 -0.156383 0 
0.087271 0.239937 0.0507434 -0.584586 -0.802517 -0.119273 0 
0.0869668 0.240161 0.0505255 -0.511258 -0.84216 -0.171413 0 
0.0870157 0.239859 0.0506067 -0.545992 -0.81974 -0.172973 0 
0.0870949 0.240209 0.0502584 -0.496581 -0.843734 -0.203764 0 
0.0867783 0.240321 0.050127 -0.497 -0.828333 -0.258564 0 
0.0867114 0.240083 0.0503888 -0.514029 -0.837733 -0.184331 0 
0.0866081 0.240269 0.0500359 -0.812445 -0.573233 0.106478 0 
0.0870639 0.241051 0.0498341 -0.748785 -0.659335 -0.0678091 0 
0.0866936 0.24106 0.048984 -0.267763 -0.908638 -0.320438 0 
0.0863772 0.241172 0.0488524 0.215636 -0.921095 -0.324168 0 
0.0869123 0.240799 0.0496033 -0.44405 -0.82647 -0.346074 0 
0.0865532 0.240895 0.0495608 -0.160125 -0.862323 -0.480374 0 
0.0865167 0.240561 0.04982 -0.747364 -0.660629 -0.0708333 0 
0.0865961 0.240917 0.0492483 -0.264443 -0.88596 -0.380978 0 
0.0862978 0.240816 0.0494242 -0.207914 -0.883267 -0.420252 0 
0.0864987 0.241532 0.0486387 0.166133 -0.949526 -0.266083 0 
0.0865416 0.241555 0.0483262 0.0399708 -0.972623 -0.228924 0 
0.0881695 0.239854 0.0528447 -0.771052 -0.626572 0.11352 0 
0.0877504 0.239412 0.0525637 -0.77472 -0.626462 0.085757 0 
0.0878719 0.239772 0.05235 -0.709612 -0.703969 0.029626 0 
0.0879141 0.239775 0.0527081 -0.76895 -0.631271 0.101062 0 
0.0879746 0.240326 0.0524995 -0.763421 -0.642653 0.0646967 0 
0.0876166 0.239693 0.0522134 -0.658391 -0.752644 0.00693043 0 
0.0874339 0.239524 0.0524323 -0.752965 -0.650221 0.101276 0 
0.0871364 0.239442 0.0519376 -0.565188 -0.819594 -0.093957 0 
0.0819492 0.243274 0.0390179 0.212963 -0.871212 -0.442308 0 
0.0818033 0.243445 0.0387541 0.209021 -0.879072 -0.428418 0 
0.0817608 0.243435 0.0386195 0.236385 -0.865741 -0.441152 0 
0.0817727 0.24354 0.0387566 0.209021 -0.879072 -0.428418 0 
0.0816263 0.243698 0.0389397 0.219495 -0.870515 -0.440483 0 
0.0815902 0.24337 0.0389755 0.261153 -0.853712 -0.450528 0 
0.0816322 0.244127 0.038683 0.0803446 -0.911026 -0.404446 0 
0.0816623 0.24402 0.0391275 0.261153 -0.853712 -0.450528 0 
0.0813963 0.243114 0.0383867 0.0963221 -0.923878 -0.370365 0 
0.08167 0.243739 0.0379567 -0.537144 -0.843303 0.0177681 0 
0.0814998 0.243686 0.0378655 -0.2715 -0.95092 -0.148456 0 
0.0814146 0.24366 0.03782 -0.586414 -0.807917 0.0582154 0 
0.0815843 0.2437 0.0383582 0.26083 -0.855705 -0.446919 0 
0.0815419 0.24369 0.0382237 0.172289 -0.890401 -0.421311 0 
0.0814323 0.243436 0.0385744 0.241673 -0.855735 -0.457507 0 
0.0814684 0.243763 0.0385387 0.133515 -0.906497 -0.400545 0 
0.080854 0.243781 0.0383596 -0.854001 -0.293899 0.429309 0 
0.0808304 0.243577 0.0378619 -0.847682 -0.0897546 0.522856 0 
0.0810371 0.243963 0.0376936 -0.811086 0.1063 0.575187 0 
0.0808307 0.243583 0.0376383 -0.811086 0.1063 0.575187 0 
0.0807817 0.243885 0.0375571 -0.794597 0.0976844 0.599228 0 
0.0807336 0.243452 0.0374556 -0.748815 0.222621 0.624272 0 
0.0807703 0.243792 0.0369729 -0.810175 0.0207737 0.585819 0 
0.0805569 0.243711 0.0374179 -0.812439 0.00136544 0.583045 0 
0.0808793 0.243275 0.0379431 -0.875887 -0.0768322 0.47636 0 
0.0807563 0.24439 0.0379735 -0.626691 0.472118 0.61997 0 
0.0813159 0.244245 0.0383281 -0.157201 -0.949923 -0.270063 0 
0.0812852 0.244334 0.0385542 -0.085262 -0.945752 -0.313502 0 
0.0811885 0.244209 0.038148 -0.84948 -0.12968 0.511436 0 
0.0810299 0.244256 0.0384175 -0.847089 -0.258875 0.464137 0 
0.0808407 0.244398 0.0386896 -0.771788 0.178105 0.610428 0 
0.0809447 0.24423 0.038372 -0.854296 -0.173228 0.490073 0 
0.080848 0.244105 0.0379658 -0.821872 0.0319849 0.568774 0 
0.0806777 0.244053 0.0378747 -0.814097 0.0377026 0.579503 0 
0.0805085 0.244025 0.0368895 -0.802379 -0.144398 0.579083 0 
0.0804779 0.24412 0.0368921 -0.816001 -0.0877885 0.571345 0 
0.080459 0.244314 0.0372553 -0.793375 -0.207168 0.572396 0 
0.0804653 0.243997 0.0374255 -0.807848 -0.17365 0.563229 0 
0.0805199 0.244118 0.0374737 -0.807848 -0.17365 0.563229 0 
0.0803674 0.2446 0.037263 -0.777286 0.0857193 0.623281 0 
0.0799281 0.245075 0.0378124 -0.564031 -0.768552 0.301988 0 
0.079525 0.245877 0.038326 -0.567418 -0.651605 0.503436 0 
0.0803081 0.24408 0.0363539 -0.825423 -0.0432963 0.562852 0 
0.080466 0.244015 0.036755 -0.823027 -0.0908069 0.560696 0 
0.0803744 0.244301 0.0367627 -0.823947 -0.0785391 0.561198 0 
0.0802044 0.244255 0.0364482 -0.832817 -0.0903054 0.546133 0 
0.0801125 0.244534 0.0366794 -0.81964 -0.130966 0.557708 0 
0.0801621 0.244251 0.03609 -0.84045 -0.0402861 0.540389 0 
0.0801197 0.244241 0.0359555 -0.838693 0.0546061 0.54186 0 
0.0799854 0.24451 0.0360522 -0.0519229 -0.988844 -0.139615 0 
0.0799852 0.244504 0.0362757 -0.0575656 -0.985664 -0.158599 0 
0.0800342 0.244202 0.036357 -0.0224896 -0.976521 -0.214243 0 
0.0801128 0.24454 0.0364558 -0.0655459 -0.983189 -0.170419 0 
0.0798887 0.244385 0.035646 -0.0172182 -0.999667 -0.0192438 0 
0.0798581 0.24448 0.0356486 -0.0172182 -0.999667 -0.0192438 0 
0.0796586 0.243801 0.035093 -0.405467 -0.680192 0.610684 0 
0.079804 0.244371 0.0351534 -0.067946 -0.983429 0.168077 0 
0.0795487 0.244293 0.0350168 -0.171681 -0.873081 0.45635 0 
0.0795605 0.244398 0.0351539 -0.0979821 -0.952386 0.288721 0 
0.0798159 0.244476 0.0352905 -0.0364883 -0.994029 0.102831 0 
0.0796268 0.244618 0.0355626 0.0191674 -0.99973 0.0131145 0 
0.0795111 0.244688 0.0355197 -0.00101049 -0.999374 0.0353671 0 
0.079469 0.244684 0.0351616 -0.137821 -0.981822 0.130503 0 
0.0792374 0.244816 0.0352992 -0.0214385 -0.999444 -0.0255221 0 
0.0791642 0.244895 0.0353907 -0.0214385 -0.999444 -0.0255221 0 
0.0797541 0.244648 0.0359662 -0.0638539 -0.99677 -0.0487021 0 
0.0796382 0.244711 0.0361468 -0.018733 -0.992848 -0.117908 0 
0.0795109 0.244681 0.0357432 0.0255731 -0.999396 -0.0235272 0 
0.0795774 0.244908 0.0359284 -0.00519307 -0.998107 -0.0612782 0 
0.0792002 0.244464 0.036229 0.0173899 -0.999409 -0.0296651 0 
0.0793342 0.244941 0.0357054 -0.0376128 -0.999279 0.00508281 0 
0.0803557 0.244501 0.0369023 -0.815415 -0.0377636 0.577644 0 
0.0798564 0.244437 0.0372132 -0.730964 0.155878 0.664375 0 
0.0794668 0.244629 0.0371733 -0.753476 0.185684 0.63071 0 
0.0794122 0.244507 0.0371252 -0.760707 0.0707299 0.64523 0 
0.079509 0.244633 0.0375314 -0.381758 -0.907926 0.173006 0 
0.0792841 0.244459 0.0373922 -0.345288 -0.928563 0.136189 0 
0.0792106 0.244532 0.0377073 -0.353485 -0.910403 0.214976 0 
0.0794738 0.244329 0.036673 -0.0150423 -0.982379 -0.186293 0 
0.0791146 0.244425 0.0366305 0.0254095 -0.99318 -0.11379 0 
0.0788288 0.244442 0.0364965 0.0473846 -0.995076 -0.0870554 0 
0.0793784 0.244241 0.0349257 -0.623768 -0.443159 0.643835 0 
0.0795182 0.244388 0.0350194 -0.398491 -0.769332 0.499334 0 
0.0793478 0.244336 0.0349283 -0.601625 -0.497141 0.625218 0 
0.0791231 0.244163 0.0347891 -0.538579 -0.552085 0.636502 0 
0.0790925 0.244258 0.0347916 -0.538579 -0.552085 0.636502 0 
0.0789953 0.24412 0.0348326 -0.556653 -0.516292 0.65083 0 
0.0794265 0.244674 0.0350271 -0.203768 -0.957579 0.203768 0 
0.0792136 0.244605 0.035025 -0.549053 -0.630144 0.549053 0 
0.0790671 0.244764 0.0352081 -0.762334 0.129791 0.634035 0 
0.0790368 0.244865 0.0349872 -0.698486 0.351697 0.623239 0 
0.0789939 0.244843 0.0352997 0.0449652 -0.998646 -0.0261426 0 
0.0789023 0.245128 0.0353074 0.0637556 -0.980393 -0.186455 0 
0.0789758 0.245055 0.0349923 -0.748907 -0.06181 0.659786 0 
0.0790009 0.244543 0.0347994 -0.665607 -0.406668 0.62577 0 
0.0787455 0.244465 0.0346627 -0.704434 -0.357937 0.612906 0 
0.0787815 0.244787 0.0348505 -0.691833 -0.376318 0.616241 0 
0.0787204 0.244977 0.0348557 -0.742667 -0.253863 0.619677 0 
0.0785623 0.245036 0.0346782 -0.738383 -0.0441038 0.672938 0 
0.0789997 0.244513 0.035917 0.133389 -0.991048 -0.00551195 0 
0.0785979 0.244593 0.0359635 0.180189 -0.983578 -0.0103293 0 
0.0783425 0.244514 0.0358269 0.403911 -0.896132 -0.183859 0 
0.078825 0.244068 0.0347415 -0.646555 -0.388594 0.656476 0 
0.0780276 0.24391 0.0350047 -0.785764 -0.0322149 0.617686 0 
0.0786178 0.244423 0.0347061 -0.711058 -0.304739 0.633664 0 
0.0785755 0.244419 0.0343481 -0.720853 -0.2938 0.627736 0 
0.078654 0.244751 0.0346704 -0.734966 -0.209768 0.644843 0 
0.0783986 0.244672 0.0345338 -0.752329 -0.168704 0.63682 0 
0.0783988 0.244678 0.0343103 -0.745368 -0.182133 0.641292 0 
0.0782286 0.244626 0.0342192 -0.732785 -0.192838 0.652564 0 
0.0781482 0.244246 0.0356852 -0.652132 0.671745 0.3514 0 
0.0781847 0.24458 0.0354258 -0.717088 0.372492 0.589096 0 
0.0780145 0.244528 0.0353347 -0.77331 0.0265694 0.633471 0 
0.077936 0.244196 0.0350124 -0.810954 0.0463804 0.583269 0 
0.0779234 0.244072 0.0355459 -0.81242 0.368702 0.451699 0 
0.0788168 0.244337 0.0363593 0.124383 -0.991702 -0.0324965 0 
0.0785734 0.244364 0.0363598 0.177412 -0.981195 -0.0760336 0 
0.078616 0.24438 0.0362709 0.155606 -0.986287 -0.0549887 0 
0.0786461 0.244273 0.0367153 0.0970584 -0.994012 -0.0502026 0 
0.0783602 0.24429 0.0365812 0.179748 -0.980772 -0.0760008 0 
0.078318 0.244286 0.0362232 0.393684 -0.913071 -0.106364 0 
0.0782756 0.244276 0.0360887 0.385704 -0.918922 -0.0825541 0 
0.0782319 0.244235 0.0370718 0.209365 -0.970691 -0.118006 0 
0.0781053 0.244224 0.0359976 0.412519 -0.908087 -0.0721568 0 
0.0777222 0.244103 0.0359044 -0.710298 0.636208 0.301192 0 
0.0788599 0.245118 0.0351728 0.0331411 -0.988518 -0.147421 0 
0.0785626 0.245042 0.0344546 -0.728683 -0.0890775 0.679033 0 
0.0777528 0.244767 0.0350279 -0.717276 0.210048 0.664375 0 
0.0776428 0.245259 0.0349517 -0.442255 0.62917 0.639183 0 
0.0746416 0.24645 0.0291204 0.732125 -0.336031 -0.592518 0 
0.0745805 0.24664 0.0291255 0.732125 -0.336031 -0.592518 0 
0.0746057 0.246128 0.0289326 0.692998 -0.437071 -0.573344 0 
0.0745448 0.246325 0.0287142 0.620255 -0.572934 -0.535752 0 
0.0743745 0.246273 0.0286231 0.638417 -0.557562 -0.530611 0 
0.074514 0.246414 0.0289402 0.716497 -0.390367 -0.578139 0 
0.0745078 0.246731 0.02877 0.635315 -0.554426 -0.537574 0 
0.0743797 0.246683 0.0290369 0.716497 -0.390367 -0.578139 0 
0.0743681 0.246584 0.0286764 0.638417 -0.557562 -0.530611 0 
0.0743375 0.246679 0.0286789 0.576971 -0.640892 -0.506322 0 
0.074331 0.246991 0.0287322 0.638417 -0.557562 -0.530611 0 
0.0742405 0.246548 0.0284963 0.494836 -0.729841 -0.471666 0 
0.0741678 0.246639 0.0281407 0.472381 -0.724317 -0.502216 0 
0.0742343 0.246866 0.0283259 0.477148 -0.738011 -0.477148 0 
0.0742889 0.246987 0.0283741 0.480324 -0.74442 -0.463818 0 
0.074064 0.246814 0.0282348 0.476088 -0.721597 -0.50263 0 
0.0740335 0.246909 0.0282374 0.45066 -0.758748 -0.470326 0 
0.0739913 0.246905 0.0278794 0.459357 -0.745838 -0.482407 0 
0.0737786 0.246843 0.0276538 0.534077 -0.655381 -0.534077 0 
0.0737788 0.246849 0.0274302 0.533115 -0.654201 -0.536479 0 
0.0736513 0.246813 0.0272502 0.405858 -0.734487 -0.543882 0 
0.0736325 0.247007 0.0276133 0.409582 -0.731984 -0.544465 0 
0.0734622 0.246955 0.0275223 0.41074 -0.717557 -0.562499 0 
0.0734195 0.246939 0.0276113 0.382149 -0.733135 -0.562562 0 
0.0741742 0.246328 0.0280875 0.472381 -0.724317 -0.502216 0 
0.0739975 0.246587 0.0280497 0.476088 -0.721597 -0.50263 0 
0.074004 0.246276 0.0279964 0.471666 -0.729841 -0.494836 0 
0.0739484 0.246883 0.0281919 0.459357 -0.745838 -0.482407 0 
0.0736505 0.246795 0.0279208 0.53766 -0.652271 -0.534289 0 
0.07365 0.246782 0.0283678 0.468315 -0.729777 -0.498102 0 
0.0734374 0.24672 0.0281422 0.49725 -0.720097 -0.483945 0 
0.0730964 0.246604 0.0284071 0.701913 0.49184 -0.515181 0 
0.0780096 0.244882 0.0338233 -0.712521 -0.0708185 0.698068 0 
0.0779245 0.244856 0.0337778 -0.712914 -0.0619299 0.698512 0 
0.0776692 0.244778 0.0336412 -0.74723 -0.129758 0.651775 0 
0.0776332 0.244456 0.0334534 -0.781106 -0.214998 0.586216 0 
0.0774138 0.244699 0.0335045 -0.802265 -0.207086 0.559898 0 
0.0779486 0.245072 0.0338284 -0.698068 -0.0708185 0.712521 0 
0.0778634 0.245046 0.0337829 -0.70919 -0.0800934 0.700453 0 
0.0777475 0.245109 0.0339634 -0.683325 0.0440396 0.728785 0 
0.0776932 0.244994 0.0336918 -0.72478 -0.0831237 0.683948 0 
0.07745 0.245027 0.0334688 -0.776244 -0.116806 0.619517 0 
0.0774437 0.245345 0.0332985 -0.801454 -0.527479 0.281847 0 
0.0776015 0.24528 0.0336995 -0.644552 0.182189 0.742536 0 
0.0774675 0.245555 0.0335727 -0.790143 -0.547265 0.275998 0 
0.0773096 0.245621 0.0331717 -0.840607 -0.240392 0.485378 0 
0.077224 0.245582 0.0335732 -0.809907 -0.311017 0.497311 0 
0.0769148 0.245401 0.0327179 -0.705781 0.30064 0.641473 0 
0.0767873 0.245365 0.0325378 0.055639 0.899724 0.432899 0 
0.07728 0.244981 0.0331542 -0.69022 0.226943 0.68709 0 
0.0774866 0.245367 0.0329861 -0.829333 -0.498835 0.251734 0 
0.0771764 0.245162 0.0330247 -0.837365 -0.162119 0.522052 0 
0.0772313 0.245289 0.0328494 -0.807122 -0.0292738 0.589659 0 
0.0767509 0.245031 0.032797 -0.84057 -0.0962704 0.53308 0 
0.0770786 0.245765 0.0328622 -0.674033 0.329708 0.661039 0 
0.0769207 0.24583 0.0324612 0.0978363 0.910843 0.400991 0 
0.0767011 0.246067 0.0327359 0.0813031 0.899846 0.428564 0 
0.0767505 0.245778 0.0323701 0.181927 0.923739 0.337059 0 
