0.0832371 0.254886 0.0294261 -0.392043 0.766192 -0.509168 0 
0.0832492 0.254848 0.0293346 -0.388442 0.73263 -0.558897 0 
0.0834873 0.255047 0.0290633 -0.411984 0.79004 -0.45399 0 
0.0834611 0.255347 0.029261 -0.416372 0.769063 -0.48495 0 
0.0835724 0.255309 0.0291828 -0.416372 0.769063 -0.48495 0 
0.0835238 0.254931 0.028789 -0.265379 0.675367 -0.68808 0 
0.0836278 0.255252 0.0280107 -0.574064 0.79638 0.190339 0 
0.0838622 0.255366 0.0270096 -0.432405 0.900955 0.0361453 0 
0.0828321 0.254479 0.0294349 -0.382998 0.705177 -0.596689 0 
0.0831327 0.254794 0.0294511 -0.399371 0.728072 -0.557148 0 
0.0831693 0.254678 0.0291769 -0.393517 0.722819 -0.568047 0 
0.0828616 0.254494 0.0292138 -0.411502 0.718888 -0.560237 0 
0.0830075 0.254562 0.0288762 -0.411649 0.746216 -0.523171 0 
0.0826478 0.254217 0.0293022 -0.405148 0.689578 -0.600281 0 
0.0825435 0.254125 0.0293273 -0.366664 0.642895 -0.672491 0 
0.0825852 0.254101 0.0290148 -0.472033 0.410393 0.780233 0 
0.0826947 0.254286 0.0289514 -0.484541 0.397032 0.779478 0 
0.0826633 0.254494 0.0291874 -0.481341 0.338369 0.80859 0 
0.0828981 0.254378 0.0289395 -0.497489 0.387296 0.776213 0 
0.0822602 0.253863 0.0291814 -0.388954 0.506129 0.769771 0 
0.0822724 0.253825 0.02909 -0.388954 0.506129 0.769771 0 
0.0815891 0.25378 0.0296741 -0.262658 0.957854 0.116302 0 
0.0819422 0.253495 0.029295 -0.33043 0.662488 0.672254 0 
0.0816448 0.253495 0.0292553 -0.226342 0.867892 0.44219 0 
0.0817612 0.253549 0.0291388 -0.277787 0.753992 0.595257 0 
0.0820586 0.253548 0.0291784 -0.340258 0.607254 0.71796 0 
0.0820985 0.253748 0.0288807 -0.342738 0.522958 0.780414 0 
0.0820115 0.253709 0.0287761 -0.348028 0.545514 0.762424 0 
0.0817978 0.253433 0.0288645 -0.402316 0.65066 0.644037 0 
0.0817333 0.25354 0.0285918 -0.395104 0.502416 0.769071 0 
0.0817506 0.253593 0.0284622 -0.395104 0.502416 0.769071 0 
0.0824113 0.254024 0.0288054 -0.439219 0.491859 0.751772 0 
0.0824338 0.25417 0.0286375 -0.438099 0.421933 0.793752 0 
0.082121 0.253894 0.0287127 -0.358107 0.489787 0.794901 0 
0.0823487 0.253908 0.028518 -0.399794 0.467775 0.788258 0 
0.0820406 0.254486 0.0285611 -0.36797 0.486877 0.79218 0 
0.0820583 0.253778 0.0284252 -0.394557 0.528804 0.751459 0 
0.0832979 0.254693 0.0289689 -0.365535 0.713039 -0.598297 0 
0.0830385 0.255116 0.0286463 -0.186173 0.66007 -0.727769 0 
0.0827828 0.255092 0.0282941 -0.208856 0.623475 -0.75343 0 
0.0826715 0.255131 0.0283723 -0.247787 0.696014 -0.673918 0 
0.0829965 0.255369 0.0282057 -0.545142 0.714153 0.439096 0 
0.082687 0.255408 0.0282574 -0.541128 0.685206 0.487518 0 
0.0828138 0.255646 0.0280643 -0.503471 0.741175 0.444045 0 
0.0824283 0.254839 0.0286819 -0.464038 0.361982 0.808479 0 
0.0821604 0.254854 0.0284211 -0.400257 0.413014 0.818055 0 
0.0818752 0.254816 0.02829 -0.372487 0.429549 0.822642 0 
0.0814465 0.253495 0.0292289 -0.330182 0.922527 -0.19981 0 
0.081657 0.253456 0.0291639 -0.345438 0.912014 0.221138 0 
0.0814587 0.253456 0.0291374 -0.340298 0.929965 -0.13915 0 
0.0811492 0.253495 0.0291893 -0.308613 0.949081 -0.0632721 0 
0.0811614 0.253457 0.0290978 -0.308613 0.949081 -0.0632721 0 
0.0810552 0.253588 0.0291377 -0.297687 0.948629 -0.107167 0 
0.0816934 0.25334 0.0288896 -0.407232 0.71719 0.565509 0 
0.0815004 0.253433 0.0288249 -0.386672 0.922064 0.0168118 0 
0.0815351 0.25354 0.0285654 -0.233667 0.657089 -0.716682 0 
0.0814378 0.253317 0.0285374 -0.108093 0.517403 -0.848887 0 
0.0815524 0.253593 0.0284357 -0.342054 0.482057 0.80661 0 
0.0815889 0.253478 0.0281614 -0.402833 0.337509 0.850772 0 
0.0814621 0.25324 0.0283545 -0.280096 0.773824 -0.568104 0 
0.0811979 0.253341 0.0288235 -0.35629 0.901722 -0.244858 0 
0.0809005 0.253341 0.0287839 -0.375131 0.876318 -0.302231 0 
0.0811404 0.253317 0.0284978 -0.371146 0.88504 -0.280989 0 
0.0811647 0.25324 0.0283149 -0.36542 0.839054 -0.40306 0 
0.0809735 0.253109 0.0282353 -0.256507 0.772667 -0.580681 0 
0.0817451 0.254263 0.0285066 -0.259475 0.471354 0.84291 0 
0.0814824 0.25437 0.0282075 -0.22406 0.449623 0.86466 0 
0.081185 0.25437 0.0281678 -0.103979 0.204199 0.973392 0 
0.080857 0.253588 0.0291113 -0.321236 0.911381 -0.25728 0 
0.0803054 0.254103 0.0287107 -0.318125 0.734756 -0.599108 0 
0.0808065 0.253433 0.0287324 -0.35164 0.867582 -0.35164 0 
0.0805928 0.253157 0.0288208 -0.359628 0.859712 -0.362715 0 
0.080937 0.253225 0.0285096 -0.331373 0.83393 -0.441308 0 
0.0806397 0.253225 0.0284699 -0.334688 0.810549 -0.480619 0 
0.0805302 0.253041 0.0285333 -0.329942 0.819331 -0.468866 0 
0.080332 0.253041 0.0285069 -0.318696 0.830494 -0.45685 0 
0.0808633 0.254448 0.028311 -0.090087 0.120506 -0.988617 0 
0.0808844 0.254055 0.0281517 -0.131626 0.481663 -0.866415 0 
0.0806861 0.254055 0.0281253 -0.279208 0.713178 -0.642977 0 
0.0803419 0.253987 0.0284364 -0.326105 0.673301 -0.663567 0 
0.0805538 0.254486 0.0283628 -0.277277 0.398491 -0.874255 0 
0.0817587 0.254762 0.0284066 -0.282127 0.451712 0.846381 0 
0.0815779 0.254816 0.0282504 -0.259042 0.393803 0.881939 0 
0.0815727 0.254724 0.0282886 -0.265825 0.420763 0.86735 0 
0.0817794 0.255131 0.0282534 -0.313911 0.445098 0.838658 0 
0.0814942 0.255093 0.0281223 -0.256245 0.394107 0.88262 0 
0.0812805 0.254816 0.0282107 -0.0780419 0.275066 0.958253 0 
0.0811762 0.254724 0.0282358 -0.0766731 0.302794 0.949967 0 
0.0816191 0.255554 0.027944 -0.251135 0.348065 0.903206 0 
0.080978 0.254724 0.0282093 -0.0442197 0.296904 0.953883 0 
0.0805867 0.254817 0.0281182 -0.173953 0.112268 -0.978333 0 
0.0814846 0.253385 0.0281865 -0.409113 0.38068 0.829283 0 
0.0808641 0.252925 0.0282987 -0.265013 0.798175 -0.541003 0 
0.0804149 0.253755 0.0278879 -0.152067 0.627839 -0.763344 0 
0.0804706 0.253469 0.0274691 0.20457 0.314615 -0.926914 0 
0.0756331 0.248957 0.0266546 0.155088 -0.509573 0.846335 0 
0.0756575 0.248879 0.0264717 0.155088 -0.509573 0.846335 0 
0.0753933 0.24898 0.0269407 0.0960311 -0.430052 0.897682 0 
0.0753081 0.248719 0.0268212 0.00865974 -0.308039 0.951334 0 
0.0751099 0.248719 0.0267948 0.0291039 -0.317612 0.947774 0 
0.0754298 0.248865 0.0266664 0.130543 -0.463356 0.876504 0 
0.0754559 0.248564 0.0264688 0.0266375 -0.325992 0.944997 0 
0.0754714 0.248841 0.0263539 0.130543 -0.463356 0.876504 0 
0.0752455 0.248603 0.0265338 0.0291039 -0.317612 0.947774 0 
0.0752577 0.248564 0.0264423 -0.0352182 -0.239241 0.970321 0 
0.0753933 0.248448 0.0261813 0.0291039 -0.317612 0.947774 0 
0.0750421 0.248511 0.0265456 -0.115168 -0.141838 0.983168 0 
0.0748405 0.248196 0.0265426 -0.144062 -0.164106 0.975866 0 
0.0750683 0.24821 0.026348 -0.135944 -0.138394 0.981003 0 
0.0751796 0.248172 0.0262698 -0.127049 -0.127049 0.983726 0 
0.07487 0.24821 0.0263215 -0.141608 -0.164165 0.976216 0 
0.0748822 0.248172 0.0262301 -0.160352 -0.113838 0.980473 0 
0.0746685 0.247895 0.0263186 -0.154665 -0.134868 0.978718 0 
0.0743659 0.247803 0.0263172 -0.0899029 -0.241851 0.966139 0 
0.0742565 0.247619 0.0263806 -0.0900677 -0.244832 0.965373 0 
0.0740531 0.247527 0.0263925 -0.221066 -0.173411 0.959718 0 
0.0742912 0.247726 0.0261211 -0.218445 -0.17608 0.959832 0 
0.0740929 0.247726 0.0260947 -0.221492 -0.200014 0.95443 0 
0.0740981 0.247818 0.0260564 -0.250735 -0.185679 0.950082 0 
0.0747049 0.248312 0.0268037 -0.144062 -0.164106 0.975866 0 
0.0746423 0.248196 0.0265162 -0.141608 -0.164165 0.976216 0 
0.0745066 0.248312 0.0267773 -0.143238 -0.153203 0.977758 0 
0.0747831 0.248172 0.0262169 -0.154342 -0.132117 0.979144 0 
0.0743814 0.24808 0.0262023 -0.0848232 -0.244342 0.965972 0 
0.0746003 0.248449 0.0260755 -0.148779 -0.156281 0.976443 0 
0.0742978 0.248357 0.0260741 -0.116578 -0.158301 0.980485 0 
0.0741202 0.248726 0.0258945 0.47189 -0.865867 0.166117 0 
0.0800556 0.252648 0.0283079 -0.237193 0.798394 -0.55345 0 
0.0799565 0.252648 0.0282947 -0.231101 0.795668 -0.559915 0 
0.0796591 0.252649 0.028255 -0.308552 0.802236 -0.511089 0 
0.0794192 0.252672 0.0285411 -0.399884 0.801374 -0.444851 0 
0.0793617 0.252649 0.0282153 -0.424268 0.781889 -0.456779 0 
0.0800799 0.252571 0.028125 -0.216806 0.807258 -0.548935 0 
0.0799808 0.252571 0.0281118 -0.237225 0.804703 -0.544221 0 
0.0800033 0.252717 0.0279438 -0.155481 0.756274 -0.635512 0 
0.0797826 0.252571 0.0280854 -0.257641 0.797905 -0.544949 0 
0.0794922 0.252441 0.0279925 -0.342437 0.776512 -0.528929 0 
0.0795183 0.25214 0.0277949 -0.680775 0.722486 -0.120663 0 
0.0798191 0.252455 0.027811 -0.0679211 0.686437 -0.72401 0 
0.0797513 0.252247 0.0275619 -0.681246 0.725387 -0.098582 0 
0.0794506 0.251932 0.0275457 -0.503875 0.750069 -0.428376 0 
0.0795704 0.252301 0.0274057 -0.500851 0.787511 -0.359131 0 
0.0788334 0.251787 0.0276344 -0.121779 0.559007 -0.820171 0 
0.07863 0.251694 0.0276463 0.589265 -0.132102 -0.797067 0 
0.0791845 0.252256 0.0280295 -0.11696 0.629214 -0.768381 0 
0.0794038 0.251864 0.0278966 -0.706653 0.691521 -0.149804 0 
0.0791045 0.252087 0.0278717 -0.453791 0.737617 -0.499995 0 
0.0791064 0.251864 0.0278569 -0.350353 0.715372 -0.604563 0 
0.078609 0.252087 0.0278057 -0.42866 0.713331 -0.554445 0 
0.0791673 0.25167 0.0273997 -0.078543 0.552657 -0.829699 0 
0.0788665 0.251355 0.0273836 0.609643 -0.171795 -0.773836 0 
0.0789186 0.251516 0.0269944 0.606772 -0.138648 -0.782691 0 
0.0786683 0.251355 0.0273572 0.649807 -0.254547 -0.71621 0 
0.0789012 0.251462 0.0271242 0.609643 -0.171795 -0.773836 0 
0.079242 0.251748 0.0275959 -0.421999 0.71988 -0.551081 0 
0.0794923 0.251908 0.0272331 -0.346928 0.72806 -0.591244 0 
0.0792731 0.252301 0.027366 -0.511966 0.745725 -0.426364 0 
0.0789812 0.251632 0.0272819 0.588556 -0.103691 -0.801779 0 
0.0787359 0.251793 0.0268531 0.658825 -0.172731 -0.732198 0 
0.0790122 0.252185 0.0270521 -0.0945204 0.594751 -0.798334 0 
0.0789374 0.252108 0.026856 0.804468 -0.475004 -0.356653 0 
0.0780426 0.250802 0.0275076 0.675381 -0.504441 -0.537959 0 
0.0779383 0.25071 0.0275327 0.670488 -0.505807 -0.542776 0 
0.0780791 0.250686 0.0272334 0.739451 -0.559893 -0.373806 0 
0.0777508 0.250133 0.0274235 0.669876 -0.740988 0.046934 0 
0.0775525 0.250133 0.0273971 0.628994 -0.768112 0.119879 0 
0.0773698 0.25041 0.0272558 0.0900664 -0.19864 0.975925 0 
0.0771664 0.250318 0.0272676 0.643266 -0.7618 -0.0766137 0 
0.0785275 0.251379 0.0276565 0.592739 -0.141839 -0.792807 0 
0.0783503 0.250987 0.0274707 0.69664 -0.47278 -0.539604 0 
0.078578 0.251001 0.0272759 0.728263 -0.434316 -0.530096 0 
0.0787048 0.25124 0.0270829 0.717181 -0.382387 -0.582607 0 
0.0782877 0.250871 0.0271832 0.725139 -0.512741 -0.459642 0 
0.0799089 0.254103 0.0286578 -0.403175 0.652048 -0.642093 0 
0.0799908 0.253517 0.0280413 -0.254725 0.732534 -0.631276 0 
0.07933 0.253618 0.0284575 -0.444914 0.678202 -0.584887 0 
0.0793927 0.253202 0.0279855 -0.391652 0.745614 -0.539136 0 
0.0797682 0.253595 0.0281978 -0.349164 0.748674 -0.563535 0 
0.0800811 0.253871 0.0281225 -0.268726 0.707592 -0.653529 0 
0.0797837 0.253871 0.0280829 -0.333884 0.688941 -0.643337 0 
0.0801076 0.252809 0.0279187 -0.126376 0.759741 -0.637826 0 
0.0800118 0.253125 0.027882 -0.208587 0.761729 -0.613401 0 
0.0800431 0.252916 0.027646 -0.0558044 0.676807 -0.734042 0 
0.0798468 0.252693 0.0276047 0.192728 0.47958 -0.856072 0 
0.0797892 0.253202 0.0280384 -0.276122 0.78103 -0.560133 0 
0.0795892 0.252893 0.0272674 -0.654696 0.746739 -0.117281 0 
0.0794867 0.252578 0.0272776 -0.526607 0.777832 -0.343019 0 
0.0792624 0.252878 0.0274488 -0.514908 0.787601 -0.33846 0 
0.0792885 0.252578 0.0272511 -0.251788 0.701523 -0.666684 0 
0.0788921 0.252578 0.0271983 -0.0887218 0.618143 -0.781042 0 
0.0787546 0.252385 0.0267147 0.80125 -0.447994 -0.396611 0 
0.0784329 0.252462 0.0268579 0.806308 -0.491419 -0.329203 0 
0.0793881 0.251284 0.0264987 0.818642 -0.467117 -0.334107 0 
0.0787362 0.251031 0.0268469 0.813893 -0.533877 -0.229244 0 
0.0789706 0.251677 0.0266052 0.799397 -0.485406 -0.354042 0 
0.0781156 0.25057 0.0269591 0.769852 -0.627998 -0.113779 0 
0.0780409 0.250493 0.026763 0.760295 -0.649505 0.00969411 0 
0.0776915 0.250333 0.0271125 0.710294 -0.698626 -0.086052 0 
0.0778009 0.250517 0.0270491 0.745926 -0.661919 -0.0738684 0 
0.0778131 0.250478 0.0269577 0.751502 -0.659482 -0.0181253 0 
0.0778426 0.250493 0.0267366 0.756569 -0.653842 0.0097174 0 
0.077728 0.250217 0.0268383 0.700649 -0.709352 0.0768828 0 
0.077641 0.250178 0.0267337 0.689607 -0.72128 0.0647856 0 
0.0775054 0.250294 0.0269947 0.691912 -0.720445 0.0470786 0 
0.0775298 0.250217 0.0268119 0.69184 -0.717947 0.0768711 0 
0.0771926 0.250018 0.0270699 0.580444 -0.797545 0.164334 0 
0.0774516 0.249824 0.0266392 0.596324 -0.795587 0.106957 0 
0.0772501 0.249509 0.0266363 0.574738 -0.808179 0.12854 0 
0.0786267 0.250847 0.0269103 0.804946 -0.570233 -0.163998 0 
0.0784163 0.250886 0.0269753 0.793643 -0.58582 -0.16415 0 
0.0784285 0.250847 0.0268839 0.796051 -0.577706 -0.180438 0 
0.0783242 0.250755 0.0269089 0.802957 -0.574827 -0.15759 0 
0.0781311 0.250847 0.0268442 0.792056 -0.591421 -0.151224 0 
0.0783607 0.250639 0.0266347 0.78126 -0.590934 0.201071 0 
0.0787723 0.251677 0.0265788 0.803782 -0.520649 -0.287852 0 
0.0785096 0.251784 0.0262797 0.793912 -0.591338 -0.141504 0 
0.0785115 0.251561 0.0262649 0.749992 -0.648602 0.12972 0 
0.0783862 0.251862 0.0264494 0.80917 -0.510641 -0.290673 0 
0.0784016 0.252138 0.0263344 0.816304 -0.478414 -0.323679 0 
0.0782277 0.252061 0.0261252 0.835889 -0.535378 -0.12108 0 
0.0781253 0.251746 0.0261354 0.808912 -0.587928 0.0013641 0 
0.0778703 0.250731 0.0265303 0.77683 -0.629524 -0.0152865 0 
0.077766 0.250639 0.0265554 0.770335 -0.637566 -0.00968105 0 
0.0779012 0.251285 0.0263005 0.817662 -0.57446 0.0377383 0 
0.0777947 0.252177 0.0263466 0.760379 -0.638837 -0.117095 0 
0.0778696 0.251722 0.0257832 0.898266 -0.426083 -0.107568 0 
0.0777498 0.251353 0.0259232 0.856681 -0.515632 -0.014887 0 
0.0779842 0.251999 0.0256815 0.931428 -0.264305 -0.250171 0 
0.0768675 0.24978 0.0272366 0.555188 -0.815573 0.163115 0 
0.0771023 0.249664 0.0269887 0.547936 -0.808858 0.213342 0 
0.0767754 0.249649 0.0271703 0.530574 -0.812103 0.242857 0 
0.0769372 0.249233 0.0267115 0.529743 -0.818414 0.222645 0 
0.0771388 0.249548 0.0267144 0.573723 -0.806193 0.144548 0 
0.0769162 0.249625 0.0268709 0.546578 -0.809915 0.212813 0 
0.0764678 0.249465 0.0272072 0.315892 -0.652843 0.688482 0 
0.0765042 0.249349 0.0269329 0.546578 -0.809915 0.212813 0 
0.0766137 0.249533 0.0268696 0.530574 -0.812103 0.242857 0 
0.0765511 0.249417 0.0265821 0.536817 -0.813685 0.223033 0 
0.076358 0.24951 0.0265173 0.541324 -0.809673 0.226709 0 
0.0769527 0.249509 0.0265966 0.562304 -0.811217 0.160444 0 
0.0768536 0.249509 0.0265834 0.562304 -0.811217 0.160444 0 
0.0769892 0.249393 0.0263223 0.544255 -0.832985 0.0996117 0 
0.0767022 0.249578 0.0262061 0.580433 -0.718553 0.383119 0 
0.0765562 0.24951 0.0265438 0.541071 -0.815417 0.205759 0 
0.0766031 0.249578 0.0261929 0.539479 -0.840584 0.0487901 0 
0.0762695 0.249465 0.0271807 0.387157 -0.710063 0.58815 0 
0.0759965 0.249388 0.0269582 0.312377 -0.678165 0.665217 0 
0.076306 0.249349 0.0269065 0.541071 -0.815417 0.205759 0 
0.0760086 0.249349 0.0268669 0.289962 -0.645605 0.706481 0 
0.0762537 0.249417 0.0265424 0.531946 -0.817082 0.222283 0 
0.0758819 0.249111 0.0270599 0.279902 -0.647773 0.708552 0 
0.0757304 0.24918 0.0266826 0.261384 -0.638411 0.723954 0 
0.0760451 0.249233 0.0265926 0.51651 -0.826109 0.225303 0 
0.076358 0.24951 0.0265173 0.541324 -0.809673 0.226709 0 
0.0760798 0.24934 0.0263331 0.52203 -0.831938 0.188051 0 
0.0757426 0.249141 0.0265912 0.229003 -0.606002 0.761787 0 
0.0759825 0.249117 0.026305 0.521291 -0.841408 0.142437 0 
0.0757791 0.249025 0.0263169 0.193669 -0.562707 0.80365 0 
0.0757165 0.248909 0.0260294 0.515119 -0.841707 0.16181 0 
0.0737609 0.247619 0.0263145 0.492803 -0.865582 0.0889587 0 
0.0737852 0.247542 0.0261317 0.473559 -0.875025 0.100366 0 
0.0736618 0.247619 0.0263013 0.486117 -0.869374 0.0887691 0 
0.0734878 0.247542 0.026092 0.558762 -0.531753 -0.636415 0 
0.0733991 0.247727 0.0260022 0.558762 -0.531753 -0.636415 0 
0.0724671 0.247528 0.0261809 0.422152 -0.0526005 -0.904998 0 
0.0731194 0.247019 0.0258266 0.359301 -0.877786 0.316852 0 
0.0729352 0.246757 0.0256939 0.496702 -0.125986 -0.858729 0 
0.0729473 0.246718 0.0256025 0.496702 -0.125986 -0.858729 0 
0.0724885 0.246374 0.0260154 0.523805 -0.129857 -0.841882 0 
0.0725232 0.246481 0.0257559 0.49066 -0.0890824 -0.866786 0 
0.0726031 0.24665 0.0259137 0.499933 -0.128968 -0.856408 0 
0.0728379 0.246534 0.0256658 0.356656 -0.87874 0.317196 0 
0.07265 0.246719 0.0255629 0.483837 -0.0916892 -0.870342 0 
0.0725405 0.246534 0.0256262 0.49066 -0.0890824 -0.866786 0 
0.0725508 0.246719 0.0255496 0.479581 -0.0796971 -0.873871 0 
0.0737137 0.24778 0.0259121 0.47005 -0.882186 0.0282838 0 
0.0734252 0.247426 0.0258045 0.572176 -0.521541 -0.632938 0 
0.0735 0.247503 0.0260006 0.572176 -0.521541 -0.632938 0 
0.0732392 0.247388 0.0256866 0.585999 -0.548846 -0.596132 0 
0.0728898 0.247227 0.0260362 0.351383 -0.889672 0.291573 0 
0.0726028 0.246879 0.0251604 0.485154 -0.0768977 -0.871041 0 
0.0727329 0.247433 0.0249439 0.530974 -0.218816 -0.818649 0 
0.0726183 0.247156 0.0250455 0.505392 -0.142096 -0.85111 0 
0.0726371 0.247748 0.0249072 0.52426 -0.215512 -0.823837 0 
0.0722692 0.246766 0.0261483 0.517835 -0.149007 -0.842404 0 
0.0722015 0.246558 0.0258991 -0.36542 0.839054 -0.40306 0 
0.0723301 0.246573 0.0256912 -0.372922 0.858805 -0.351259 0 
0.0723526 0.246719 0.0255232 0.473325 -0.0507624 -0.879424 0 
0.072043 0.246758 0.0255749 0.467431 -0.079533 -0.880445 0 
0.0720552 0.246719 0.0254835 0.472522 -0.0973254 -0.875929 0 
0.0719406 0.246442 0.0255852 0.444985 -0.111599 -0.888557 0 
0.0717147 0.246204 0.0257651 0.463734 -0.165306 -0.870416 0 
0.0719093 0.246651 0.0258211 0.498528 -0.167162 -0.850604 0 
0.0717512 0.246088 0.0254909 0.445142 -0.148381 -0.883081 0 
0.0719649 0.246365 0.0254023 0.448369 -0.111739 -0.886837 0 
0.0717634 0.24605 0.0253994 0.445142 -0.148381 -0.883081 0 
0.0720029 0.246788 0.0251194 0.481083 -0.143889 -0.864786 0 
0.0717944 0.246603 0.0251696 0.454518 -0.145734 -0.878735 0 
0.0720291 0.246487 0.0249217 0.455987 -0.117903 -0.882142 0 
0.0716174 0.245981 0.025737 0.438689 -0.102314 -0.892795 0 
0.0716488 0.245773 0.0255011 0.479199 -0.828843 0.288768 0 
0.0715165 0.245672 0.0249792 0.413312 -0.0578906 -0.908747 0 
0.0709012 0.245304 0.0250531 0.37785 0.123182 -0.917636 0 
0.071214 0.24558 0.0249778 0.390221 0.0630254 -0.918562 0 
0.0711149 0.24558 0.0249646 0.374476 0.0994064 -0.921893 0 
0.0717163 0.246211 0.024997 -0.469239 0.812818 -0.345169 0 
0.0717251 0.245857 0.024929 0.43751 -0.142011 -0.887929 0 
0.0712343 0.246711 0.0248308 0.363728 0.00380203 -0.931498 0 
0.0712361 0.246488 0.024816 0.398197 -0.0916812 -0.912707 0 
0.0720181 0.247826 0.0250107 0.496273 -0.206655 -0.843212 0 
0.0723924 0.246918 0.0252254 0.487435 -0.065269 -0.870717 0 
0.0724046 0.24688 0.025134 0.500748 -0.0804018 -0.861851 0 
0.0722933 0.246918 0.0252122 0.490735 -0.0453621 -0.870127 0 
0.0723158 0.247064 0.0250442 0.490735 -0.0453621 -0.870127 0 
0.0724355 0.247433 0.0249042 0.518225 -0.171746 -0.837822 0 
0.0723556 0.247264 0.0247464 0.534394 -0.202491 -0.820622 0 
0.0721382 0.247433 0.0248646 0.539547 -0.250337 -0.803878 0 
0.072154 0.246948 0.0247435 0.498612 -0.135192 -0.856218 0 
0.0720236 0.247157 0.0249662 0.488023 -0.110199 -0.865847 0 
0.0718253 0.247157 0.0249398 0.476187 -0.149992 -0.866457 0 
0.0718408 0.247433 0.0248249 0.511987 -0.151973 -0.845443 0 
0.0718567 0.246948 0.0247038 0.467504 -0.140396 -0.872771 0 
0.072451 0.24771 0.0247893 0.564435 -0.510519 -0.648679 0 
0.071528 0.247157 0.0249002 0.320569 0.137776 -0.937152 0 
0.0715593 0.246949 0.0246642 0.417512 -0.0608026 -0.906635 0 
0.071549 0.246764 0.0247407 0.412365 -0.0550716 -0.909353 0 
0.0712151 0.24688 0.0249753 0.26902 0.148563 -0.951608 0 
0.0707866 0.245027 0.0251548 0.391067 0.17333 -0.903894 0 
0.0705481 0.245589 0.0254323 0.374334 0.156797 -0.913941 0 
0.0705934 0.24512 0.02509 0.392239 0.082791 -0.91613 0 
0.0701881 0.245474 0.0251051 0.402617 0.0745587 -0.912327 0 
0.0708378 0.246711 0.0247779 0.316419 0.0607009 -0.946675 0 
0.0708382 0.245949 0.0247717 0.366002 0.0568162 -0.928878 0 
0.0708396 0.246488 0.0247631 0.320946 0.102543 -0.94153 0 
0.0706657 0.246411 0.0245539 0.330983 0.0804381 -0.940202 0 
0.0703529 0.246134 0.0246291 0.362171 0.12256 -0.924019 0 
0.0702449 0.246488 0.0246838 0.293777 0.23417 -0.926747 0 
0.0700091 0.245304 0.0249341 0.387154 0.0273745 -0.921609 0 
0.0700555 0.246134 0.0245894 0.345078 0.19171 -0.918787 0 
0.071539 0.245818 0.0248112 0.416277 -0.0838049 -0.905368 0 
0.0712416 0.245818 0.0247715 0.398259 0.0142699 -0.917162 0 
0.0711514 0.245464 0.0246904 0.360444 0.128434 -0.923897 0 
0.0709808 0.245703 0.0244576 0.361347 0.110449 -0.925867 0 
0.0705379 0.244873 0.0247494 0.40227 0.0605424 -0.913517 0 
0.0694375 0.243927 0.0246744 0.22791 0.0325585 -0.973138 0 
0.069931 0.244912 0.0247615 0.361536 -0.0349874 -0.931701 0 
0.0699674 0.244796 0.0244873 0.343255 0.00377203 -0.939235 0 
0.070004 0.24468 0.024213 0.283784 0.117473 -0.951665 0 
0.0696457 0.244873 0.0246305 0.325969 -0.0291723 -0.94493 0 
0.0694563 0.244519 0.0245361 0.244165 0.0582525 -0.967983 0 
0.069693 0.24418 0.0242734 0.247681 0.0584974 -0.967074 0 
0.0697173 0.244103 0.0240906 0.243778 0.0404255 -0.968988 0 
0.069526 0.243972 0.024011 0.22278 0.0106086 -0.974811 0 
0.0698272 0.242994 0.0232615 -0.400956 0.569258 -0.71776 0 
0.0696201 0.243348 0.023303 -0.308834 0.514723 -0.799801 0 
0.0696341 0.243086 0.0231968 -0.419825 0.491702 -0.762873 0 
0.069041 0.243928 0.0246216 0.166227 0.0577668 -0.984394 0 
0.0691818 0.243904 0.0243222 0.180062 0.0435444 -0.982691 0 
0.0690827 0.243904 0.024309 0.166227 0.0577668 -0.984394 0 
0.0691192 0.243788 0.0240347 0.0966402 0.0477647 -0.994173 0 
0.0687853 0.243904 0.0242693 0.0861156 0.0637479 -0.994244 0 
0.0689453 0.243711 0.0238254 0.0535736 0.071067 -0.996032 0 
0.0692475 0.244564 0.023833 0.209754 0.0419508 -0.976854 0 
0.0689191 0.244011 0.0240231 0.0984434 0.0387137 -0.994389 0 
0.06882 0.244011 0.0240099 0.0914539 0.0407686 -0.994974 0 
0.0685455 0.243928 0.0245554 0.0474794 0.089438 -0.99486 0 
0.0683716 0.243851 0.0243461 0.00329999 0.1331 -0.991097 0 
0.068163 0.243666 0.0243963 -0.0838262 0.28243 -0.955618 0 
0.0685871 0.243904 0.0242429 0.0422026 0.0703376 -0.99663 0 
0.0686114 0.243827 0.02406 0.0491043 0.0709285 -0.996272 0 
0.0683837 0.243812 0.0242547 -0.0243811 0.179956 -0.983372 0 
0.068408 0.243735 0.0240719 0.0169779 0.152801 -0.988111 0 
0.0679718 0.243536 0.0243168 -0.0331764 0.261725 -0.964572 0 
0.0681752 0.243628 0.0243049 -0.149127 0.399092 -0.904703 0 
0.0682098 0.243735 0.0240455 -0.0980558 0.286323 -0.953102 0 
0.0679872 0.243812 0.0242019 -0.0198956 0.200127 -0.979568 0 
0.0682463 0.243619 0.0237712 -0.0976611 0.333118 -0.937814 0 
0.0680134 0.243512 0.0240042 -0.0940516 0.380296 -0.92007 0 
0.0686269 0.244104 0.0239451 0.0647852 0.062589 -0.995934 0 
0.068439 0.244288 0.0238421 0.0551988 0.0573635 -0.996826 0 
0.0680271 0.244012 0.0239041 0.0229711 0.103917 -0.994321 0 
0.0708385 0.245188 0.0247656 0.383584 0.0941896 -0.91869 0 
0.0708282 0.245003 0.0248422 0.39613 0.103518 -0.912341 0 
0.0706577 0.245242 0.0246094 0.391203 0.0490661 -0.918995 0 
0.070854 0.245465 0.0246507 0.377639 0.0879804 -0.921764 0 
0.0705585 0.245242 0.0245962 0.396699 0.0632029 -0.91577 0 
0.0702335 0.245004 0.0247629 0.380895 0.0246997 -0.924288 0 
0.070256 0.24515 0.0245949 0.382555 0.0489777 -0.922634 0 
0.0703496 0.245819 0.0246526 0.375276 0.138113 -0.916566 0 
0.0705983 0.245441 0.0242985 0.394361 0.0659511 -0.916586 0 
0.0703112 0.245626 0.0241822 0.405423 0.041207 -0.9132 0 
0.0703323 0.245233 0.0240228 0.377341 0.0141664 -0.925966 0 
0.0706624 0.246095 0.0245773 0.362128 0.0649973 -0.92986 0 
0.0706989 0.245979 0.024303 0.3861 0.0601195 -0.920496 0 
0.0703739 0.245742 0.0244697 0.398112 0.0576391 -0.915524 0 
0.0702748 0.245742 0.0244565 0.406376 0.0661542 -0.911308 0 
0.0700353 0.245004 0.0247364 0.35902 -0.027023 -0.932938 0 
0.0700475 0.244965 0.024645 0.363818 -0.0323681 -0.930908 0 
0.0700036 0.245441 0.0242192 0.359599 0.0191957 -0.932909 0 
0.0697184 0.245403 0.0240881 0.360117 -0.0377018 -0.932145 0 
0.0695393 0.245234 0.023917 0.334188 -0.0062582 -0.942486 0 
0.0699686 0.246096 0.0244848 0.38286 0.129476 -0.914688 0 
0.0699896 0.245703 0.0243254 0.389796 -0.016835 -0.920747 0 
0.0695094 0.24598 0.0241444 0.363465 0.143436 -0.920499 0 
0.0697217 0.245718 0.0240646 0.387973 -0.0116005 -0.921598 0 
0.0697586 0.244841 0.0237842 0.268439 0.0860547 -0.959445 0 
0.069536 0.244918 0.0239406 0.266581 0.0803569 -0.960457 0 
0.0697498 0.245195 0.0238521 0.339429 0.0012525 -0.940631 0 
0.069797 0.244502 0.023495 0.264782 0.05898 -0.962503 0 
0.0695622 0.244618 0.0237429 0.239653 0.0479307 -0.969675 0 
0.0694191 0.245626 0.0240633 0.37761 -0.0434185 -0.924946 0 
0.0691218 0.245626 0.0240236 0.365159 -0.0540488 -0.929375 0 
0.0689081 0.24535 0.0241121 0.323816 -0.114209 -0.939201 0 
0.0689235 0.245627 0.0239972 0.331052 -0.077817 -0.940398 0 
0.0694103 0.24598 0.0241313 0.40227 0.0605424 -0.913517 0 
0.0694243 0.245718 0.0240249 0.3867 -0.0353929 -0.921526 0 
0.0692261 0.245719 0.0239986 0.383086 -0.0739288 -0.92075 0 
0.0692386 0.244918 0.0239009 0.278082 -0.00607167 -0.960538 0 
0.0689413 0.244919 0.0238613 0.223795 -0.0153933 -0.974515 0 
0.0686473 0.245234 0.0237981 0.303065 -0.160446 -0.939366 0 
0.0686682 0.244841 0.0236388 0.156731 -0.0263125 -0.987291 0 
0.0680632 0.244657 0.023636 0.157966 -0.113882 -0.980856 0 
0.0699422 0.241976 0.0223942 0.0516918 0.921175 -0.385701 0 
0.0698288 0.242468 0.021734 0.0516918 0.921175 -0.385701 0 
0.0907731 0.260608 0.0319483 -0.528346 0.243256 0.813436 0 
0.0896047 0.260216 0.0316303 -0.356514 0.0191674 0.934093 0 
0.0895211 0.260493 0.0315022 -0.366846 0.0595959 0.928371 0 
0.0911276 0.261393 0.0323199 -0.633039 0.30766 0.710357 0 
0.0909759 0.262223 0.0319488 -0.612613 0.388043 0.68857 0 
0.0914615 0.261277 0.0320853 -0.685469 0.293773 0.666205 0 
0.0911641 0.261277 0.0320457 -0.62033 0.29654 0.726123 0 
0.0909832 0.26133 0.0318895 -0.582723 0.29216 0.758338 0 
0.0912787 0.261553 0.0319439 -0.631026 0.329301 0.702401 0 
0.0910178 0.261438 0.03163 -0.591825 0.291925 0.751347 0 
0.0918624 0.262892 0.0321123 -0.58053 0.556835 0.59407 0 
0.0919144 0.263052 0.0317231 -0.576689 0.542866 0.610513 0 
0.0921038 0.263406 0.0318174 -0.543224 0.473023 0.693655 0 
0.0921646 0.263213 0.0313604 -0.537513 0.464292 0.703926 0 
0.091942 0.263291 0.0315168 -0.532542 0.452909 0.715033 0 
0.0916292 0.263014 0.031592 -0.572176 0.521541 0.632938 0 
0.091624 0.262922 0.0316303 -0.57172 0.514379 0.639179 0 
0.0913631 0.262806 0.0313163 -0.570359 0.49633 0.654483 0 
0.091372 0.262452 0.0312484 -0.58226 0.452127 0.675688 0 
0.091669 0.263213 0.0312942 -0.462354 0.565841 -0.682681 0 
0.0913665 0.263121 0.0312929 -0.547201 0.516894 0.658325 0 
0.0913473 0.263291 0.0314374 -0.468827 0.535563 -0.702406 0 
0.0910813 0.263083 0.0311618 -0.544515 0.497603 0.675199 0 
0.0908929 0.261509 0.0325678 -0.607254 0.340258 0.71796 0 
0.0908302 0.261393 0.0322802 -0.583586 0.29579 0.756264 0 
0.0909869 0.260884 0.0318598 -0.561516 0.276803 0.779795 0 
0.0908929 0.260977 0.0318083 -0.564506 0.294179 0.771227 0 
0.0906913 0.260661 0.0318054 -0.537833 0.257224 0.802852 0 
0.0909397 0.261045 0.0314575 -0.561474 0.291076 0.774611 0 
0.0910123 0.262107 0.0316745 -0.612194 0.347726 0.710145 0 
0.0907515 0.261991 0.0313606 -0.600067 0.328338 0.729461 0 
0.0908609 0.262176 0.0312972 -0.612613 0.388043 0.68857 0 
0.0906125 0.261792 0.0316451 -0.585262 0.324071 0.743267 0 
0.0905009 0.26206 0.0309701 -0.605084 0.335797 0.721882 0 
0.0904906 0.261875 0.0310467 -0.584701 0.332032 0.740189 0 
0.0901932 0.261876 0.031007 -0.580384 0.328184 0.745285 0 
0.0903027 0.26206 0.0309436 -0.607254 0.340258 0.71796 0 
0.0909129 0.262336 0.0309081 -0.612613 0.388043 0.68857 0 
0.0905164 0.262337 0.0308552 -0.613215 0.39173 0.685941 0 
0.0904154 0.259507 0.0316001 -0.578289 0.274093 0.768411 0 
0.0908723 0.260075 0.0312021 -0.488822 0.122566 0.86373 0 
0.0906479 0.260376 0.0313733 -0.512531 0.190884 0.837183 0 
0.0904552 0.259707 0.0313024 -0.487022 0.100812 0.867552 0 
0.0902205 0.259823 0.0315502 -0.530338 0.188867 0.826481 0 
0.090003 0.259992 0.0316684 -0.480374 0.160125 0.862323 0 
0.0902378 0.259876 0.0314205 -0.432801 0.10785 0.895015 0 
0.0900395 0.259876 0.0313941 -0.380188 0.0543125 0.923313 0 
0.0901785 0.260076 0.0311096 -0.395601 0.0802078 0.914913 0 
0.0898914 0.26026 0.0309933 -0.353197 0.113187 0.928677 0 
0.0898081 0.260308 0.0316184 -0.364905 0.0457766 0.929919 0 
0.0895472 0.260192 0.0313045 -0.340595 0.0696971 0.937623 0 
0.0896932 0.260261 0.0309669 -0.350935 0.0927759 0.931793 0 
0.0911163 0.262429 0.0308962 -0.588324 0.434993 0.681656 0 
0.0897348 0.260769 0.0314138 -0.395134 0.103258 0.912802 0 
0.0900908 0.26156 0.0310173 -0.551383 0.308455 0.775133 0 
0.0900996 0.261206 0.0309493 -0.492997 0.26118 0.829903 0 
0.0898177 0.261483 0.0307947 -0.527479 0.281847 0.801454 0 
0.0898959 0.261876 0.0309674 -0.559768 0.330699 0.759801 0 
0.0911439 0.262667 0.0306899 -0.549725 0.446756 0.705841 0 
0.0892134 0.260308 0.0315392 -0.325964 0.0370704 0.944655 0 
0.0892499 0.260192 0.0312649 -0.319886 0.11109 0.940921 0 
0.0892812 0.259984 0.0310289 -0.34202 0.0952291 0.934855 0 
0.0894794 0.259984 0.0310553 -0.329081 0.0972588 0.93928 0 
0.0889474 0.2601 0.0312635 -0.337614 0.11525 0.934202 0 
0.0889857 0.259761 0.0309744 -0.330276 0.141155 0.93327 0 
0.0888449 0.259785 0.0312738 -0.316269 0.12247 0.940731 0 
0.0886883 0.259761 0.0309347 -0.323767 0.0858975 0.942229 0 
0.0893233 0.259199 0.0307101 -0.32613 0.0858238 0.941421 0 
0.0892032 0.259592 0.0308563 -0.327768 0.117349 0.937442 0 
0.0890204 0.259868 0.0307149 -0.334719 0.156943 0.929157 0 
0.0882347 0.259509 0.0313093 -0.245378 -0.140404 0.959206 0 
0.0879668 0.259524 0.0310486 -0.129259 -0.283837 0.95012 0 
0.088671 0.259708 0.0310645 -0.313696 0.0393707 0.948707 0 
0.0885892 0.259761 0.0309215 -0.299872 0.0111064 0.953915 0 
0.0883736 0.259708 0.0310248 -0.23811 -0.168939 0.956433 0 
0.0883858 0.259669 0.0309334 -0.245378 -0.140404 0.959206 0 
0.0880763 0.259708 0.0309852 -0.245378 -0.140404 0.959206 0 
0.0880155 0.259369 0.0306829 -0.264782 -0.05898 0.962503 0 
0.088723 0.259869 0.0306753 -0.326414 0.108805 0.938944 0 
0.0887595 0.259753 0.0304011 -0.322963 0.0856841 0.942525 0 
0.0885144 0.259684 0.0307255 -0.289185 -0.0260639 0.956918 0 
0.0885369 0.25983 0.0305575 -0.271469 -0.0726467 0.959701 0 
0.088311 0.259592 0.0307374 -0.241282 -0.151625 0.958537 0 
0.0881128 0.259592 0.0307109 -0.254034 -0.0745671 0.964317 0 
0.0872229 0.258608 0.0305709 0.538649 -0.791388 0.28907 0 
0.0870873 0.258724 0.030832 0.536976 -0.785547 0.307526 0 
0.0868979 0.25837 0.0307376 0.556351 -0.773153 0.304479 0 
0.0868249 0.25807 0.0305267 0.579766 -0.744491 0.331064 0 
0.0869344 0.258254 0.0304633 0.575668 -0.763837 0.291821 0 
0.0869395 0.258347 0.030425 0.574267 -0.770436 0.276851 0 
0.0866963 0.258055 0.0307346 0.579766 -0.744491 0.331064 0 
0.0874506 0.259155 0.0311356 -0.288538 0.0466196 0.956333 0 
0.0877756 0.259393 0.030969 0.156252 -0.669003 0.72665 0 
0.0873359 0.258878 0.0312373 -0.298635 0.062803 0.952299 0 
0.0874627 0.259116 0.0310442 -0.286889 0.0285647 0.957538 0 
0.0876975 0.259 0.0307964 -0.28068 0.0134825 0.959707 0 
0.087899 0.259316 0.0307994 0.34347 -0.83907 0.421888 0 
0.0878364 0.2592 0.0305119 -0.285867 -0.0110421 0.958206 0 
0.0875236 0.258923 0.0305871 -0.288787 0.0135177 0.957298 0 
0.0875564 0.259254 0.0303425 -0.286889 0.0285647 0.957538 0 
0.0872785 0.258855 0.0309116 -0.285899 0.0362056 0.957575 0 
0.0875132 0.258739 0.0306637 -0.286227 0.0260207 0.957808 0 
0.0874366 0.258885 0.0304825 -0.286117 -0.00365256 0.958188 0 
0.0874521 0.259161 0.0303676 -0.27132 -0.0133835 0.962396 0 
0.0873408 0.2592 0.0304458 -0.272816 -0.0283927 0.961647 0 
0.0878519 0.259476 0.030397 0.34347 -0.83907 0.421888 0 
0.0878641 0.259438 0.0303055 -0.296252 0.0390801 0.95431 0 
0.0875911 0.259361 0.030083 -0.289572 0.0363532 0.956466 0 
0.0872693 0.259438 0.0302262 -0.290371 -0.00857635 0.956876 0 
0.0873718 0.259753 0.030216 -0.302391 0.0656252 0.950922 0 
0.0869041 0.259762 0.0306968 0.452893 -0.845503 0.282865 0 
0.0871392 0.258885 0.0304428 0.533986 -0.790679 0.299476 0 
0.0871533 0.258623 0.0303365 0.548577 -0.790643 0.271931 0 
0.0869654 0.258808 0.0302335 0.550353 -0.786895 0.279119 0 
0.0871599 0.259254 0.0302896 -0.294457 -0.0211214 0.955431 0 
0.0869565 0.259162 0.0303015 -0.280631 -0.0361702 0.959134 0 
0.0863496 0.259201 0.0303135 0.557844 -0.755111 0.344408 0 
0.0864454 0.258885 0.0303503 0.554033 -0.766011 0.325996 0 
0.0867461 0.2592 0.0303665 0.511971 -0.776839 0.366616 0 
0.086972 0.259438 0.0301866 -0.297615 -0.0135841 0.954589 0 
0.0866425 0.257585 0.0303792 -0.310805 -0.0289414 0.950033 0 
0.0864598 0.257862 0.0302378 -0.317612 -0.0291039 0.947774 0 
0.0867483 0.258216 0.0303454 0.567548 -0.757267 0.323165 0 
0.0867726 0.258138 0.0301626 0.579321 -0.752636 0.31293 0 
0.0864753 0.258139 0.0301229 0.56693 -0.754291 0.331113 0 
0.0876239 0.259691 0.0298384 0.414309 -0.869593 0.268618 0 
0.0895204 0.261483 0.0307551 -0.450827 0.247424 0.857634 0 
0.0863551 0.258531 0.0302691 0.554033 -0.766011 0.325996 0 
0.0863706 0.258808 0.0301542 0.567548 -0.757267 0.323165 0 
0.0857656 0.258624 0.0301515 -0.338631 0.00124956 0.940919 0 
0.0861071 0.257386 0.0306108 -0.340664 -0.0453355 0.939092 0 
0.0863452 0.257585 0.0303395 -0.329014 -0.0163877 0.944183 0 
0.0861469 0.257585 0.0303131 -0.329044 -0.0266793 0.943938 0 
0.0857106 0.257386 0.0305579 -0.352823 0.0269429 0.935302 0 
0.0858495 0.257586 0.0302734 -0.325964 -0.0370704 0.944655 0 
0.0857401 0.257401 0.0303368 -0.348123 -0.0191276 0.937254 0 
0.0855887 0.25747 0.0299595 -0.345411 -0.0617275 0.936419 0 
0.0863625 0.257639 0.0302098 -0.323552 -0.050273 0.944874 0 
0.0860633 0.257862 0.030185 -0.322117 -0.0369225 0.94598 0 
0.0860998 0.257746 0.0299107 -0.32741 0.0012449 0.944882 0 
0.0861171 0.2578 0.029781 -0.333408 -0.00124872 0.942782 0 
0.0862196 0.258115 0.0297707 -0.312124 -0.0420411 0.949111 0 
0.085865 0.257862 0.0301585 -0.329044 -0.0266793 0.943938 0 
0.0857677 0.257639 0.0301304 -0.339052 -0.0425426 0.939805 0 
0.0858857 0.258231 0.0300053 -0.318104 -0.0528027 0.946584 0 
0.0857936 0.2581 0.029939 -0.333408 -0.00124872 0.942782 0 
0.0858024 0.257746 0.029871 -0.335857 -0.0215455 0.941667 0 
0.0855938 0.257562 0.0299212 -0.358605 -0.0456406 0.932373 0 
0.0856164 0.257708 0.0297532 -0.345332 -0.0534288 0.936958 0 
0.08583 0.257984 0.0296647 -0.342878 -0.034673 0.93874 0 
0.0855124 0.257386 0.0305315 -0.368984 -0.00126799 0.929435 0 
0.0855522 0.257586 0.0302338 -0.348123 -0.0191276 0.937254 0 
0.0854497 0.257271 0.030244 -0.398272 0.0116757 0.917193 0 
0.0854759 0.25697 0.0300463 -0.355111 -0.0217938 0.93457 0 
0.0851977 0.256801 0.0298621 -0.365926 0.00126618 0.930643 0 
0.0855106 0.257077 0.0297869 -0.368883 -0.0192796 0.929276 0 
0.085291 0.258232 0.029926 -0.37761 0.0434185 0.924946 0 
0.0853068 0.257747 0.029805 -0.36951 -0.0404764 0.928345 0 
0.0855205 0.258023 0.0297164 -0.361305 -0.0218583 0.932192 0 
0.0850459 0.257631 0.029491 -0.359638 -0.0566463 0.931371 0 
0.0852099 0.256762 0.0297707 -0.361006 0.0114808 0.932493 0 
0.0853278 0.257354 0.0296456 -0.368355 -0.027142 0.929289 0 
0.085015 0.257078 0.0297208 -0.386688 0.014226 0.922101 0 
0.0850304 0.257354 0.0296059 -0.386672 0.0168118 0.922064 0 
0.0856303 0.257446 0.0296469 -0.324635 -0.114498 0.938883 0 
0.0861742 0.258585 0.0301129 0.549859 -0.757475 0.351975 0 
0.0861742 0.258585 0.0301129 0.549859 -0.757475 0.351975 0 
0.0847486 0.257631 0.0294513 -0.397567 -0.0275541 0.917159 0 
0.0847331 0.257354 0.0295663 -0.397912 0.0221787 0.917155 0 
0.0847906 0.256846 0.0291326 -0.388901 0.051765 0.919824 0 
0.0847906 0.256846 0.0291326 -0.388901 0.051765 0.919824 0 
0.0847125 0.256453 0.02896 -0.561934 0.180243 0.807306 0 
0.0847246 0.256415 0.0288686 -0.61239 0.24716 0.750926 0 
0.0845508 0.256337 0.0286593 -0.72188 0.396294 0.567309 0 
0.0835056 0.255565 0.026659 0.0516918 0.921175 -0.385701 0 
0.0652083 0.241511 0.0261175 0.0516918 0.921175 -0.385701 0 
0.0653369 0.241525 0.0259095 0.0516918 0.921175 -0.385701 0 
0.065118 0.241157 0.0260363 0.0516918 0.921175 -0.385701 0 
0.0649197 0.241157 0.0260099 0.0516918 0.921175 -0.385701 0 
0.0647182 0.240842 0.0260069 0.0516918 0.921175 -0.385701 0 
0.0642044 0.240944 0.0230513 0.524878 -0.221887 -0.821748 0 
0.0633488 0.240829 0.0226581 0.545817 -0.315325 -0.776308 0 
0.0616594 0.238682 0.0216999 0.394864 -0.0409391 -0.917827 0 
0.0632287 0.240689 0.0220448 0.34202 0.0952291 -0.934855 0 
0.0630253 0.240597 0.0220566 0.330552 0.0344591 -0.943158 0 
0.0630375 0.240558 0.0219652 0.321039 0.063688 -0.944922 0 
0.062641 0.240559 0.0219124 0.303886 0.0365671 -0.952007 0 
0.0625714 0.240574 0.021678 0.257116 0.0356763 -0.965722 0 
0.0620396 0.239928 0.02188 0.270638 0.0461456 -0.961575 0 
0.0622534 0.240205 0.0217915 0.241567 0.0303476 -0.969909 0 
0.0620762 0.239812 0.0216058 -0.598455 0.742855 -0.30003 0 
0.0616487 0.239259 0.0217827 0.361334 -0.0760001 -0.929334 0 
0.0619667 0.239628 0.0216691 -0.599655 0.743572 -0.29583 0 
0.0621127 0.239696 0.0213314 -0.218361 0.514599 -0.82916 0 
0.0616693 0.239628 0.0216295 0.373381 -0.0736056 -0.924753 0 
0.0617998 0.23942 0.0214067 0.370367 -0.0821542 -0.925245 0 
0.0620916 0.240089 0.0214909 0.284249 0.0184578 -0.958573 0 
0.0623176 0.240327 0.0213109 0.234266 0.0228259 -0.971904 0 
0.0611398 0.237998 0.0218104 0.297038 0.165629 -0.940391 0 
0.0614715 0.238867 0.0215968 0.394361 -0.0975596 -0.913762 0 
0.0611549 0.239036 0.0217017 0.390072 -0.0971758 -0.915642 0 
0.0608193 0.238843 0.0211917 0.405516 -0.0606254 -0.912075 0 
0.0605167 0.238751 0.0211904 0.387039 -0.144964 -0.910597 0 
0.0613686 0.239313 0.0216133 0.404078 -0.130938 -0.905304 0 
0.0614781 0.239497 0.0215499 0.384266 -0.0855433 -0.919251 0 
0.0617269 0.23912 0.0211958 0.39297 -0.115253 -0.9123 0 
0.0615286 0.23912 0.0211693 0.440342 -0.167127 -0.882138 0 
0.0617007 0.23942 0.0213934 0.370367 -0.0821542 -0.925245 0 
0.0615024 0.23942 0.021367 0.396678 -0.0974537 -0.91277 0 
0.0610661 0.239221 0.0216119 0.419461 -0.153182 -0.894756 0 
0.0608923 0.239144 0.0214026 0.40681 -0.165311 -0.898431 0 
0.061127 0.239028 0.0211547 0.428151 -0.211853 -0.878524 0 
0.0612312 0.23912 0.0211297 0.423279 -0.176002 -0.88874 0 
0.061127 0.239028 0.0211547 0.428151 -0.211853 -0.878524 0 
0.0612051 0.23942 0.0213273 0.413538 -0.140688 -0.899552 0 
0.0607828 0.238959 0.021466 0.405218 -0.100959 -0.908629 0 
0.0609287 0.239028 0.0211283 0.405218 -0.100959 -0.908629 0 
0.0605267 0.239697 0.02112 0.390585 -0.142415 -0.909484 0 
0.0603203 0.238528 0.0211491 0.395357 -0.186817 -0.899329 0 
0.0605584 0.238728 0.0208778 0.393361 -0.225409 -0.891324 0 
0.0602212 0.238528 0.0211359 0.39653 -0.152074 -0.905338 0 
0.060355 0.238636 0.0208896 0.395357 -0.186817 -0.899329 0 
0.06156 0.238912 0.0209334 0.4575 -0.188034 -0.869101 0 
0.0612644 0.238689 0.0208789 0.429571 -0.0582699 -0.901151 0 
0.0609409 0.238989 0.0210369 0.405218 -0.100959 -0.908629 0 
0.0606575 0.238728 0.020891 0.387039 -0.144964 -0.910597 0 
0.0606697 0.238689 0.0207996 0.393361 -0.225409 -0.891324 0 
0.0605706 0.238689 0.0207864 0.392945 -0.154625 -0.906469 0 
0.0602714 0.238912 0.0207616 0.396155 -0.180071 -0.900353 0 
0.0604169 0.239742 0.0204301 0.384864 -0.0115845 -0.922901 0 
0.0590107 0.238922 0.0211366 0.403686 -0.106817 -0.908641 0 
0.058748 0.239029 0.0208375 0.393065 0.0519646 -0.918041 0 
0.0591806 0.239675 0.0206223 0.40251 -0.161863 -0.900992 0 
0.0599637 0.238728 0.0207985 0.39801 -0.183808 -0.898778 0 
0.0597654 0.238728 0.020772 0.396168 -0.0716617 -0.915377 0 
0.0596785 0.23869 0.0206674 0.397912 -0.0221787 -0.917155 0 
0.0594629 0.238636 0.0207707 0.396282 0.0520371 -0.916653 0 
0.0593811 0.23869 0.0206277 0.346055 0.166723 -0.923282 0 
0.0595046 0.238612 0.0204581 0.340264 0.184957 -0.921961 0 
0.0594003 0.23852 0.0204831 0.332891 0.196901 -0.922179 0 
0.0590096 0.237622 0.0211391 0.200932 0.415064 -0.887327 0 
0.0593534 0.238452 0.0208341 0.367101 0.128832 -0.921216 0 
0.0590838 0.23869 0.0205881 0.346695 0.195462 -0.917386 0 
0.0591762 0.238059 0.0206483 0.50361 -0.0370504 -0.863136 0 
0.059202 0.23852 0.0204567 0.337648 0.219831 -0.915242 0 
0.059202 0.23852 0.0204567 0.337648 0.219831 -0.915242 0 
0.0587587 0.238452 0.0207548 0.343791 0.201139 -0.917252 0 
0.0587797 0.238059 0.0205953 0.40569 0.124936 -0.905432 0 
0.0587952 0.238336 0.0204805 0.549982 -0.0636226 -0.832749 0 
0.0589098 0.238613 0.0203788 0.569131 -0.160678 -0.806394 0 
0.0588074 0.238297 0.020389 0.495791 0.0285249 -0.867973 0 
0.0594387 0.238181 0.0201941 0.51603 -0.0601336 -0.854457 0 
0.0588528 0.237828 0.0200468 0.719328 -0.683585 -0.123611 0 
0.0588421 0.238405 0.0201296 0.550063 -0.0403844 -0.834146 0 
0.0600385 0.238805 0.0209945 0.39653 -0.152074 -0.905338 0 
0.059974 0.238913 0.0207219 0.39653 -0.152074 -0.905338 0 
0.0597777 0.23869 0.0206806 0.396168 -0.0716617 -0.915377 0 
0.0598189 0.239427 0.0203742 0.37404 -0.065224 -0.925116 0 
0.0593601 0.239082 0.0207871 0.399351 -0.0744553 -0.91377 0 
0.0594991 0.239282 0.0205026 0.403286 -0.177793 -0.897636 0 
0.0600205 0.239743 0.0203772 0.376091 -0.141209 -0.91576 0 
0.0594154 0.239559 0.0203745 0.402889 -0.118497 -0.907546 0 
0.0598396 0.239796 0.020221 0.343651 -0.250061 -0.905192 0 
0.0598588 0.239627 0.0200765 0.343987 -0.198399 -0.917775 0 
0.0595665 0.239719 0.0199985 0.364952 -0.233042 -0.901388 0 
0.0591862 0.239005 0.0205778 0.384036 0.0741122 -0.920339 0 
0.0591774 0.239359 0.0206458 0.394396 -0.226002 -0.890716 0 
0.0555201 0.235961 0.020064 0.524045 -0.829109 0.194818 0 
0.055812 0.23663 0.0201482 0.381857 -0.919991 -0.08833 0 
0.0556104 0.236315 0.0201452 0.108778 -0.540989 -0.833965 0 
0.0556366 0.236015 0.0199475 0.509168 -0.766192 0.392043 0 
0.0555529 0.236291 0.0198194 0.122738 -0.610731 -0.782268 0 
0.0558536 0.236607 0.0198356 0.369815 -0.927828 -0.0486945 0 
0.0556502 0.236515 0.0198474 0.290047 -0.842223 -0.454459 0 
0.0583538 0.237513 0.0200042 0.0209897 -0.656277 0.754228 0 
0.0583904 0.237397 0.0197299 0.046934 -0.669876 0.740988 0 
0.0582547 0.237513 0.019991 0.0558795 -0.666255 0.743627 0 
0.0582912 0.237397 0.0197167 0.0709288 -0.681785 0.728106 0 
0.0580564 0.237513 0.0199646 0.0862099 -0.688218 0.720364 0 
0.0580878 0.237305 0.0197286 0.123518 -0.733668 0.668188 0 
0.0586493 0.237735 0.0200587 -0.164112 -0.495292 0.853085 0 
0.0580911 0.23762 0.0197051 0.082958 -0.685495 0.723336 0 
0.0580978 0.238251 0.0196582 -0.063673 -0.553248 0.83058 0 
0.0576758 0.237028 0.0197906 0.254287 -0.797182 0.547575 0 
0.0574672 0.236844 0.0198408 0.390822 -0.848598 0.356567 0 
0.0577591 0.237513 0.0199249 0.111149 -0.721727 0.683195 0 
0.0577956 0.237397 0.0196506 0.142927 -0.747732 0.648436 0 
0.0570324 0.237183 0.020077 0.394106 -0.871902 0.290634 0 
0.0577378 0.238135 0.019331 0.114351 -0.696503 0.708384 0 
0.0574282 0.238174 0.0193828 0.182338 -0.733949 0.654272 0 
0.0564429 0.237276 0.0199594 0.420235 -0.857403 0.297089 0 
0.0562394 0.237183 0.0199713 0.42373 -0.870079 0.251825 0 
0.0561786 0.236845 0.0196689 0.432484 -0.815496 0.384608 0 
0.0657499 0.243102 0.0258451 0.0516918 0.921175 -0.385701 0 
0.0671147 0.242882 0.0239322 -0.00678915 0.541774 -0.840497 0 
0.067125 0.243066 0.0238556 -0.00406427 0.540548 -0.841304 0 
0.0663426 0.243022 0.0244264 -0.258296 0.83057 -0.493393 0 
0.0669894 0.243182 0.0241167 -0.00951977 0.548067 -0.83638 0 
0.0667911 0.243182 0.0240902 0.530096 -0.434316 -0.728263 0 
0.0670225 0.242751 0.0238658 0.585785 -0.541893 -0.602667 0 
0.0668173 0.242882 0.0238926 0.551052 -0.384265 -0.740731 0 
0.0664956 0.242959 0.0240357 0.435876 -0.0642199 -0.897713 0 
0.0665269 0.242751 0.0237998 0.590163 -0.449728 -0.670412 0 
0.0664278 0.242751 0.0237865 -0.0123992 0.599292 -0.800434 0 
0.0676744 0.243536 0.0242771 -0.466127 0.862261 -0.198067 0 
0.0675753 0.243536 0.0242639 -0.457321 0.858797 -0.230924 0 
0.0676898 0.243813 0.0241622 -0.467267 0.847208 -0.252784 0 
0.0670642 0.243259 0.0243127 -0.206673 0.713253 -0.669743 0 
0.0670885 0.243182 0.0241299 -0.0820659 0.591738 -0.801942 0 
0.0671423 0.24312 0.0237258 -0.00676247 0.534235 -0.845309 0 
0.0677297 0.244012 0.0238645 0.150583 -0.0192474 -0.98841 0 
0.0677817 0.244173 0.0234753 0.128261 -0.021191 -0.991514 0 
0.0663371 0.243691 0.024471 -0.313985 0.865373 -0.390567 0 
0.0671512 0.242766 0.0236579 -0.0350802 0.604782 -0.795618 0 
0.0668608 0.242635 0.0235651 -0.0323007 0.62214 -0.782239 0 
0.0668903 0.24265 0.023344 0.559932 -0.33725 -0.756795 0 
0.0668486 0.242674 0.0236566 0.480374 -0.160125 -0.862323 0 
0.0667617 0.242635 0.0235519 0.559932 -0.33725 -0.756795 0 
0.0668015 0.242835 0.0232542 0.559932 -0.33725 -0.756795 0 
0.0664573 0.242766 0.0235654 -0.0322707 0.615949 -0.787124 0 
0.0662661 0.242636 0.0234858 0.624376 -0.460331 -0.631071 0 
0.0665042 0.242835 0.0232145 0.62551 -0.531093 -0.571557 0 
0.0662904 0.242558 0.023303 0.624429 -0.421281 -0.657732 0 
0.0663181 0.242796 0.0230966 0.624375 -0.503202 -0.597448 0 
0.067177 0.243227 0.0234664 -0.00406427 0.540548 -0.841304 0 
0.0671737 0.242912 0.0234899 0.0094728 0.529123 -0.848492 0 
0.0669161 0.243111 0.0231525 -0.00406788 0.551876 -0.833916 0 
0.065948 0.242799 0.0243588 -0.289528 0.862456 -0.415143 0 
0.0662296 0.242751 0.0237601 0.625695 -0.461304 -0.62905 0 
0.0661913 0.242558 0.0232897 0.629146 -0.384753 -0.675382 0 
0.0659775 0.242282 0.0233782 0.605132 -0.406185 -0.684711 0 
0.0659897 0.242243 0.0232868 0.614738 -0.434815 -0.658053 0 
0.0661913 0.242558 0.0232897 0.629146 -0.384753 -0.675382 0 
0.0662278 0.242442 0.0230155 0.621814 -0.402935 -0.671559 0 
0.0660296 0.242442 0.022989 0.614669 -0.387258 -0.687177 0 
0.0661338 0.242535 0.022964 0.621814 -0.402935 -0.671559 0 
0.0656713 0.242636 0.0234065 0.605765 -0.43555 -0.665841 0 
0.0657167 0.242166 0.0230643 0.610552 -0.496178 -0.617279 0 
0.0657219 0.242258 0.023026 0.603769 -0.496133 -0.623951 0 
0.0656176 0.242166 0.023051 0.603935 -0.546417 -0.580251 0 
0.0656176 0.242166 0.023051 0.603935 -0.546417 -0.580251 0 
0.0659459 0.242719 0.0228609 0.614669 -0.387258 -0.687177 0 
0.0656508 0.241735 0.0228002 0.0209394 0.651912 -0.758005 0 
0.0657687 0.242327 0.0226751 0.610738 -0.48287 -0.627563 0 
0.0650073 0.24189 0.0230866 0.204122 0.451452 -0.868634 0 
0.0648091 0.24189 0.0230602 0.282872 0.363693 -0.887531 0 
0.065482 0.242282 0.0233121 -0.0181578 0.688599 -0.724915 0 
0.0652889 0.242374 0.0232474 0.018145 0.674158 -0.738364 0 
0.065409 0.241982 0.0231012 0.0209821 0.678421 -0.734374 0 
0.0654193 0.242166 0.0230246 0.0267203 0.670821 -0.741138 0 
0.0650873 0.242059 0.0232444 0.0557889 0.648009 -0.759587 0 
0.0651186 0.241851 0.0230084 0.180134 0.489786 -0.853031 0 
0.065143 0.241774 0.0228255 0.207511 0.452344 -0.867366 0 
0.0650335 0.241589 0.022889 0.315169 0.257073 -0.913554 0 
0.0648456 0.241774 0.0227859 0.383656 0.144749 -0.912061 0 
0.0649569 0.241735 0.0227077 0.38195 0.160447 -0.910149 0 
0.0653464 0.241866 0.0228137 0.0792482 0.606609 -0.791041 0 
0.0651603 0.241827 0.0226959 0.207252 0.448799 -0.869268 0 
0.0650958 0.241934 0.0224232 0.394665 0.14853 -0.90674 0 
0.0649028 0.242027 0.0223585 0.401115 0.112423 -0.909103 0 
0.0657164 0.242927 0.0230704 0.605912 -0.419988 -0.675633 0 
0.0655701 0.243088 0.0226549 0.603457 -0.427241 -0.673279 0 
0.0645117 0.24189 0.0230206 0.474335 -0.0622305 -0.878142 0 
0.0645483 0.241774 0.0227463 0.469904 -0.109313 -0.875923 0 
0.0647586 0.241735 0.0226813 0.474335 -0.0622305 -0.878142 0 
0.0644336 0.241497 0.022848 0.489786 -0.180134 -0.853031 0 
0.0644458 0.241459 0.0227565 0.489786 -0.180134 -0.853031 0 
0.0645848 0.241658 0.022472 0.478844 -0.14409 -0.865995 0 
0.0644978 0.24162 0.0223673 0.493562 -0.173414 -0.852247 0 
0.0642251 0.241313 0.0228981 0.498507 -0.141804 -0.855209 0 
0.0642406 0.24159 0.0227832 0.507482 -0.197271 -0.838776 0 
