0.0440917 0.23407 0.0102383 -0.984594 -0.174557 0.0102681 1 
0.0441067 0.233872 0.0102168 -0.98867 -0.149594 0.0123724 1 
0.0441165 0.234094 0.0100412 -0.984594 -0.174557 0.0102681 1 
0.0443349 0.233575 0.00939869 -0.990033 -0.139835 0.0167802 1 
0.0442113 0.233015 0.00982452 -0.980361 -0.176149 0.0886819 1 
0.0441664 0.23361 0.00988892 -0.989717 -0.141066 0.023699 1 
0.0440008 0.233522 0.00965474 -0.989717 -0.141066 0.023699 1 
0.044073 0.233271 0.0092284 -0.989514 -0.140058 0.0352991 1 
0.044236 0.233569 0.00938547 -0.989399 -0.143277 0.0236914 1 
0.0442484 0.23358 0.00928696 -0.988783 -0.143219 0.0423928 1 
0.0441313 0.234426 0.00977779 -0.99033 -0.138624 -0.00554496 1 
0.0442136 0.233866 0.00941772 -0.987462 -0.156035 0.0239178 1 
0.044226 0.233878 0.00931912 -0.987046 -0.155849 0.0380965 1 
0.0437949 0.234052 0.0101988 -0.989638 -0.139754 0.0329501 1 
0.0445065 0.229643 0.00763764 0.0743552 -0.991784 -0.104097 1 
0.0445363 0.229777 0.00735277 0.0743552 -0.991784 -0.104097 1 
0.0445999 0.229982 0.00829824 -0.331862 -0.581163 0.743046 1 
0.0445775 0.230279 0.00833046 -0.307402 -0.622851 0.719417 1 
0.0443197 0.23106 0.00839006 -0.709609 -0.58448 0.393495 1 
0.0444765 0.230039 0.0076806 0.522088 -0.397703 -0.754491 1 
0.044865 0.231311 0.0064587 0.592232 -0.804248 -0.0494704 1 
0.0442673 0.231754 0.00846525 -0.965762 -0.244288 -0.0873362 1 
0.0447711 0.23298 0.00867327 -0.90534 -0.259717 -0.336017 1 
0.0443342 0.232454 0.00764281 -0.804807 -0.548381 -0.227076 1 
0.0443216 0.232972 0.00749941 -0.118463 -0.874912 0.469569 1 
0.0439254 0.232861 0.00824822 -0.995979 -0.0872155 0.020458 1 
0.0446199 0.233137 0.00897714 -0.986095 -0.165299 -0.0170999 1 
0.0446223 0.233458 0.00881226 -0.986174 -0.165677 -0.00338117 1 
0.0443007 0.233417 0.00896984 -0.985683 -0.165244 -0.0335109 1 
0.0441028 0.233405 0.00894346 -0.988886 -0.147713 0.0169137 1 
0.0440978 0.233294 0.00903129 -0.988886 -0.147713 0.0169137 1 
0.0441276 0.233428 0.00874639 -0.989384 -0.140362 0.0376582 1 
0.0443105 0.233638 0.00879424 -0.985051 -0.171957 -0.0102491 1 
0.0443154 0.233749 0.0087064 -0.983836 -0.178983 0.00570009 1 
0.044125 0.233638 0.00866931 -0.985049 -0.163196 0.0551815 1 
0.0441773 0.233474 0.00835226 -0.983663 -0.16771 -0.065419 1 
0.0440602 0.23432 0.00884304 -0.98787 -0.14708 0.0497988 1 
0.0442246 0.2332 0.00812291 -0.975082 -0.172369 -0.139657 1 
0.0442842 0.233468 0.00755308 -0.741017 0.0181417 -0.671241 1 
0.043791 0.233585 0.00892539 -0.990257 -0.137941 0.019065 1 
0.0438656 0.233124 0.00857606 -0.986471 -0.156859 0.0476388 1 
0.0440858 0.233369 0.00832828 -0.983659 -0.165732 -0.0703465 1 
0.043914 0.234588 0.0090592 -0.988823 -0.144845 0.0353558 1 
0.0406348 0.23403 0.0119288 -0.0865134 0.907704 -0.410595 1 
0.0410639 0.233621 0.0104126 0.505833 0.861432 -0.0454836 1 
0.040497 0.233842 0.0107731 0.505833 0.861432 -0.0454836 1 
0.0406476 0.234128 0.0110287 0.505833 0.861432 -0.0454836 1 
0.0408386 0.233796 0.0105062 0.505833 0.861432 -0.0454836 1 
0.0405692 0.233591 0.0103467 0.505833 0.861432 -0.0454836 1 
0.0403379 0.234012 0.0118893 -0.119456 0.90084 -0.417394 1 
0.0404598 0.233807 0.0110687 0.505833 0.861432 -0.0454836 1 
0.0402469 0.233993 0.0110638 0.505833 0.861432 -0.0454836 1 
0.0404329 0.23355 0.0106291 0.505833 0.861432 -0.0454836 1 
0.0402351 0.233538 0.0106028 0.505833 0.861432 -0.0454836 1 
0.0408908 0.233632 0.0101891 0.484237 0.873281 -0.0538041 1 
0.0409107 0.233545 0.0100798 0.469987 0.881054 -0.0534387 1 
0.0408883 0.233842 0.010112 0.484237 0.873281 -0.0538041 1 
0.0405914 0.233824 0.0100725 0.505833 0.861432 -0.0454836 1 
0.0408142 0.233859 0.0099018 0.469987 0.881054 -0.0534387 1 
0.0409056 0.233965 0.00992569 0.469987 0.881054 -0.0534387 1 
0.0408956 0.234274 0.00985938 0.517983 0.855148 -0.020393 1 
0.0406437 0.233661 0.0097554 0.732598 0.678119 0.0587799 1 
0.0405223 0.233952 0.00977445 0.517983 0.855148 -0.020393 1 
0.0433764 0.236951 0.0120099 -0.992356 -0.123362 -0.0032751 1 
0.0443929 0.234643 0.0107496 -0.982599 -0.160745 0.0930629 1 
0.0442616 0.234713 0.0109443 -0.957305 -0.2522 0.141285 1 
0.0443064 0.234649 0.010638 -0.986226 -0.134431 0.0963623 1 
0.0439672 0.235015 0.0107399 -0.978212 -0.19902 -0.0591028 1 
0.0440866 0.23449 0.0100842 -0.990955 -0.133973 0.00775048 1 
0.0440119 0.234951 0.0104335 -0.988253 -0.152126 -0.0146491 1 
0.0437965 0.235347 0.0103516 -0.978863 -0.203293 -0.022327 1 
0.044099 0.234502 0.00998563 -0.991844 -0.126877 0.012136 1 
0.0440766 0.234799 0.0100178 -0.992445 -0.120868 -0.0210687 1 
0.0440541 0.235097 0.0100501 -0.987206 -0.158272 -0.019357 1 
0.0439532 0.234857 0.00940026 -0.98847 -0.142201 0.0520247 1 
0.0441286 0.235166 0.00945885 -0.987642 -0.149362 0.0474717 1 
0.0440316 0.235394 0.0100823 -0.976073 -0.216511 0.020113 1 
0.043871 0.235417 0.00976031 -0.977448 -0.209707 0.0248805 1 
0.0438269 0.235038 0.0095071 -0.98901 -0.139313 0.0495081 1 
0.0430408 0.236752 0.0108277 -0.0743552 0.991784 0.104097 1 
0.0429711 0.237323 0.0110893 -0.0743552 0.991784 0.104097 1 
0.0428989 0.237574 0.0115157 -0.0743552 0.991784 0.104097 1 
0.0439928 0.235212 0.00893972 -0.981251 -0.168596 0.0933947 1 
0.0439455 0.235487 0.00916905 -0.98062 -0.162825 0.108958 1 
0.0439287 0.234921 0.00879576 -0.983189 -0.170419 0.0655459 1 
0.043632 0.234902 0.00875623 -0.987462 -0.156035 0.0239178 1 
0.0436859 0.235503 0.00883386 -0.982549 -0.17311 0.0680502 1 
0.0408575 0.234065 0.0117581 -0.257571 0.902233 -0.34588 1 
0.0405208 0.234222 0.0119371 -0.0865323 0.905156 -0.416179 1 
0.0403527 0.234344 0.0116259 -0.368685 0.862323 -0.347089 1 
0.0406571 0.234263 0.0116547 -0.257571 0.902233 -0.34588 1 
0.0404124 0.234081 0.011298 0.505833 0.861432 -0.0454836 1 
0.0402165 0.234303 0.0119083 0.0145612 0.896178 -0.443456 1 
0.0402762 0.23404 0.0115805 -0.0812048 0.955123 -0.284861 1 
0.039759 0.234308 0.0115467 0.513276 0.857295 -0.0399062 1 
0.0399048 0.234483 0.0118902 0.0707535 0.878175 -0.473077 1 
0.0397963 0.234342 0.0112511 0.505833 0.861432 -0.0454836 1 
0.0405838 0.234454 0.00984133 0.517983 0.855148 -0.020393 1 
0.0446574 0.231694 0.00556456 0.201336 -0.918149 0.341272 1 
0.0449425 0.231257 0.00514298 -0.118291 -0.911536 0.393839 1 
0.0447446 0.231245 0.00511665 -0.203295 -0.909782 0.361894 1 
0.0452866 0.231001 0.00495322 -0.612279 -0.504329 0.608906 1 
0.044849 0.230918 0.00448241 -0.905523 -0.383161 0.182253 1 
0.0447694 0.231268 0.00491954 -0.203295 -0.909782 0.361894 1 
0.0446306 0.231437 0.0051249 -0.203295 -0.909782 0.361894 1 
0.0443586 0.231443 0.00488829 -0.00358605 -0.967037 0.254609 1 
0.0446929 0.230965 0.00487411 -0.844481 0.482343 0.232803 1 
0.0447377 0.230901 0.00456773 -0.00358605 -0.967037 0.254609 1 
0.0445747 0.230603 0.00441062 -0.82755 -0.46638 0.31249 1 
0.0447052 0.231507 0.00453366 -0.844481 0.482343 0.232803 1 
0.0445445 0.23153 0.00421165 -0.82755 -0.46638 0.31249 1 
0.04465 0.231794 0.00557524 0.187046 -0.912385 0.364097 1 
0.0936706 0.263881 0.0424278 -0.830452 0.400199 0.387544 0 
0.0923784 0.261953 0.0416318 -0.865883 0.104134 0.489288 0 
0.0930284 0.262911 0.0416236 -0.867636 0.236081 0.437577 0 
0.0932581 0.263291 0.0420018 -0.887834 0.22974 0.39871 0 
0.0934037 0.263467 0.0423452 -0.888263 0.295089 0.35201 0 
0.0928375 0.263244 0.0421461 -0.888599 0.26434 0.374855 0 
0.0931069 0.263448 0.0423057 -0.904662 0.250725 0.344563 0 
0.092608 0.262333 0.0420099 -0.879985 0.177168 0.440725 0 
0.0927292 0.262572 0.041749 -0.865876 0.249336 0.433694 0 
0.091832 0.261643 0.0413233 -0.846564 0.268872 0.459388 0 
0.0933737 0.263863 0.0423882 -0.817955 0.39383 0.419341 0 
0.0928174 0.263862 0.0420135 -0.881852 0.274921 0.383087 0 
0.0926319 0.263861 0.0418886 -0.870643 0.236081 0.431562 0 
0.0916117 0.259833 0.0392556 -0.596659 0.128807 0.79209 0 
0.0910849 0.260496 0.038354 -0.466512 -0.137209 0.873808 0 
0.093562 0.264271 0.0415468 -0.843603 0.464213 0.269891 0 
0.093864 0.265017 0.040455 -0.712239 0.618139 -0.332595 0 
0.0940881 0.26573 0.0414806 -0.0743552 0.991784 0.104097 0 
0.0922627 0.261381 0.0412453 -0.844442 0.111149 0.523987 0 
0.0925145 0.261994 0.0413493 -0.848213 0.129487 0.513583 0 
0.0927298 0.262129 0.0411893 -0.848213 0.129487 0.513583 0 
0.0925816 0.262163 0.0407688 -0.854712 0.166809 0.49157 0 
0.0924629 0.261714 0.0411068 -0.81858 0.474745 0.323331 0 
0.0924529 0.262023 0.0410405 -0.85194 0.110997 0.51174 0 
0.0923147 0.261748 0.0406863 -0.850238 0.209174 0.483055 0 
0.0922724 0.262133 0.0408278 -0.847694 0.0957766 0.521768 0 
0.0929715 0.263581 0.0409851 -0.857944 0.276805 0.432795 0 
0.0927815 0.262409 0.0414318 -0.853985 0.232078 0.465672 0 
0.0922349 0.262629 0.0408815 -0.854296 0.160826 0.494282 0 
0.0928135 0.263394 0.0407402 -0.843603 0.269891 0.464213 0 
0.0926747 0.263563 0.0409455 -0.850169 0.265008 0.454955 0 
0.0923183 0.263277 0.0414758 -0.849891 0.232618 0.472837 0 
0.0924177 0.26337 0.0406874 -0.845153 0.170813 0.506498 0 
0.0923952 0.263667 0.0407197 -0.841784 0.252995 0.476858 0 
0.0928932 0.262514 0.0405449 -0.857034 0.211632 0.469793 0 
0.0928708 0.262811 0.0405772 -0.850238 0.209174 0.483055 0 
0.0924975 0.262489 0.0404922 -0.853492 0.173667 0.491315 0 
0.0922996 0.262477 0.0404659 -0.842695 0.142655 0.519147 0 
0.0924525 0.263084 0.0405566 -0.850238 0.209174 0.483055 0 
0.0922771 0.262775 0.040498 -0.84339 0.18062 0.506034 0 
0.0922422 0.263061 0.0406288 -0.850238 0.209174 0.483055 0 
0.0922198 0.263358 0.0406611 -0.850238 0.209174 0.483055 0 
0.0919658 0.261363 0.0412057 -0.840189 0.299735 0.451931 0 
0.0922258 0.261433 0.0407394 -0.837244 0.293579 0.461339 0 
0.0920404 0.261433 0.0406145 -0.84634 0.242465 0.474256 0 
0.0917063 0.26138 0.0408706 -0.858651 0.182408 0.479006 0 
0.0921933 0.26204 0.0407053 -0.839645 0.051692 0.54067 0 
0.0920625 0.262197 0.0400984 -0.841663 0.522563 0.13613 0 
0.0921072 0.262132 0.039792 -0.867987 0.454093 0.200992 0 
0.0918104 0.262114 0.0397525 -0.884434 0.360102 0.29682 0 
0.0915136 0.262096 0.039713 -0.885272 0.368237 0.284069 0 
0.0919454 0.263042 0.0405893 -0.844935 0.190598 0.499757 0 
0.0920276 0.262482 0.0402292 -0.833798 0.105489 0.541897 0 
0.0919803 0.262757 0.0404585 -0.846335 0.155088 0.509573 0 
0.0917283 0.262674 0.0401125 -0.820769 0.0787824 0.565801 0 
0.0916835 0.262738 0.0404189 -0.841639 0.0931968 0.531939 0 
0.0917507 0.262377 0.0400803 -0.822323 0.0434276 0.567361 0 
0.0914787 0.262382 0.0398438 -0.837213 -0.00678455 0.546835 0 
0.0914314 0.262656 0.040073 -0.826289 0.069687 0.558918 0 
0.0912808 0.26237 0.0398173 -0.860242 0.447569 0.244266 0 
0.0918875 0.261974 0.0392383 -0.90849 0.264793 0.323311 0 
0.0912522 0.261348 0.038983 -0.701796 -0.153092 0.695733 0 
0.0909802 0.261354 0.0387464 -0.302146 -0.353255 0.885392 0 
0.0915733 0.261833 0.0393851 -0.825986 -0.108873 0.553077 0 
0.0912938 0.261938 0.0391592 -0.655492 -0.34491 0.671839 0 
0.0912341 0.2622 0.039487 -0.908837 0.261126 0.325314 0 
0.0912173 0.261634 0.0391138 -0.712792 -0.209645 0.66931 0 
0.090997 0.26192 0.0391196 -0.679465 -0.268922 0.682648 0 
0.0911389 0.261097 0.0384318 -0.332749 -0.279509 0.90064 0 
0.0910624 0.260794 0.0383863 -0.433548 -0.192525 0.880324 0 
0.0935128 0.264312 0.0411394 -0.844518 0.437034 0.309501 0 
0.0928818 0.26424 0.0413559 -0.858021 0.414377 0.303465 0 
0.0930405 0.263984 0.0410412 -0.85473 0.33972 0.392462 0 
0.0932159 0.264293 0.0410999 -0.849732 0.42564 0.311104 0 
0.0933994 0.26406 0.0405881 -0.862132 0.391878 0.321186 0 
0.0927437 0.263966 0.0410017 -0.840189 0.299735 0.451931 0 
0.0926098 0.264246 0.0411193 -0.843598 0.41946 0.335256 0 
0.0921376 0.263918 0.0410212 -0.827604 0.172106 0.534276 0 
0.0842857 0.25411 0.033903 -0.332868 -0.462229 0.821915 0 
0.0841277 0.253923 0.0336581 -0.331315 -0.44751 0.830642 0 
0.0840362 0.253818 0.0336342 -0.309197 -0.469289 0.827142 0 
0.0841401 0.253935 0.0335595 -0.331315 -0.44751 0.830642 0 
0.0841499 0.254156 0.0333839 -0.325541 -0.46079 0.825648 0 
0.0840063 0.254214 0.0336772 -0.288949 -0.48887 0.823113 0 
0.0842221 0.253905 0.0329575 -0.443753 -0.370589 0.815933 0 
0.0843776 0.254302 0.0331254 -0.288949 -0.48887 0.823113 0 
0.0835166 0.253764 0.0337653 -0.422541 -0.347143 0.837228 0 
0.0838216 0.25324 0.0332345 -0.77013 0.26301 0.581141 0 
0.0836237 0.253228 0.0332082 -0.652485 0.0069266 0.75777 0 
0.0835247 0.253222 0.033195 -0.782078 0.318269 0.535779 0 
0.0838905 0.253642 0.0332907 -0.28578 -0.48567 0.826108 0 
0.0837991 0.253537 0.0332668 -0.36463 -0.424612 0.828704 0 
0.0837443 0.25391 0.0335068 -0.307223 -0.48683 0.817686 0 
0.083888 0.253852 0.0332136 -0.396006 -0.389695 0.831455 0 
0.0833117 0.253938 0.0329482 -0.662672 0.748805 0.0125032 0 
0.08302 0.253501 0.0330627 -0.541714 0.825256 -0.159679 0 
0.0832776 0.25325 0.0327612 -0.414195 0.85166 -0.321118 0 
0.082936 0.253296 0.0330281 -0.414195 0.85166 -0.321118 0 
0.0829808 0.253232 0.0327217 -0.393232 0.867558 -0.304487 0 
0.0827332 0.253173 0.0330895 -0.298193 0.867055 -0.39912 0 
0.0827089 0.252706 0.032727 -0.441986 0.864362 -0.239849 0 
0.0826715 0.253202 0.0327807 -0.452018 0.863489 -0.223756 0 
0.0829752 0.253565 0.0333691 -0.577828 0.794323 -0.187527 0 
0.0833172 0.253606 0.0323007 -0.1005 0.805459 -0.584067 0 
0.0838661 0.253706 0.0326862 -0.604768 -0.151567 0.781846 0 
0.0839625 0.253922 0.0326223 -0.559071 -0.22024 0.799333 0 
0.0836757 0.253595 0.0326491 -0.562165 0.817561 -0.124762 0 
0.0836657 0.253904 0.0325828 -0.628191 0.777959 -0.0124806 0 
0.083668 0.254224 0.0324179 -0.339827 0.865712 -0.367505 0 
0.0835667 0.253898 0.0325696 -0.592158 0.800643 -0.0912125 0 
0.08328 0.253571 0.0325964 -0.453316 0.85321 -0.257947 0 
0.0830821 0.253559 0.03257 -0.443662 0.858356 -0.257659 0 
0.0825483 0.252729 0.032405 -0.501731 0.860717 -0.086213 0 
0.0825607 0.252741 0.0323065 -0.496096 0.856095 -0.144878 0 
0.082761 0.253073 0.0321679 -0.52155 0.852824 -0.0260091 0 
0.0827088 0.253237 0.032485 -0.525788 0.848272 -0.0630946 0 
0.0828201 0.253255 0.0323997 -0.525788 0.848272 -0.0630946 0 
0.0827983 0.253108 0.0318723 -0.374408 0.882641 -0.284189 0 
0.0828279 0.253773 0.0313455 -0.654186 0.52974 0.53983 0 
0.0830011 0.254379 0.0305255 -0.533 0.712327 0.45662 0 
0.0821949 0.25232 0.0322107 -0.489195 0.851229 -0.189993 0 
0.0824568 0.252624 0.0323811 -0.506441 0.84994 -0.145327 0 
0.0824941 0.252659 0.0320855 -0.502417 0.850131 -0.15765 0 
0.0822123 0.252442 0.0320244 -0.518893 0.841169 -0.152268 0 
0.0823335 0.252682 0.0317635 -0.519509 0.847621 -0.107931 0 
0.0820368 0.252133 0.0319658 -0.509748 0.836471 -0.201177 0 
0.0819454 0.252028 0.0319419 -0.470686 0.834186 -0.287382 0 
0.0819751 0.252162 0.031657 -0.481936 -0.0740366 0.873073 0 
0.0820592 0.252366 0.0316916 -0.492803 -0.0889587 0.865582 0 
0.0820144 0.25243 0.031998 -0.480639 -0.153396 0.863398 0 
0.0822495 0.252477 0.0317288 -0.502899 -0.095451 0.859059 0 
0.0816884 0.251835 0.0316838 -0.410535 0.0222974 0.911572 0 
0.0817008 0.251846 0.0315852 -0.410535 0.0222974 0.911572 0 
0.0810551 0.251443 0.0320651 -0.367054 0.745528 0.556291 0 
0.0814215 0.25142 0.0316012 -0.374547 0.214235 0.902119 0 
0.0811246 0.251402 0.0315617 -0.305964 0.515225 0.80058 0 
0.0812285 0.251519 0.0314871 -0.338575 0.335538 0.87908 0 
0.0815254 0.251537 0.0315266 -0.377056 0.141571 0.915307 0 
0.0815277 0.251857 0.0313617 -0.366399 0.0378134 0.929689 0 
0.0814412 0.251863 0.03125 -0.374963 0.065385 0.924731 0 
0.0812658 0.251553 0.0311914 -0.445255 0.206991 0.87115 0 
0.0811767 0.251769 0.0310026 -0.415896 0.0196796 0.909199 0 
0.0811816 0.25188 0.0309149 -0.415896 0.0196796 0.909199 0 
0.0818021 0.252173 0.0314335 -0.458289 0.0146121 0.888683 0 
0.0817995 0.252383 0.0313565 -0.446748 -0.0673558 0.892121 0 
0.0815252 0.252067 0.0312847 -0.376001 0.00127458 0.926619 0 
0.0817404 0.252202 0.0311247 -0.415896 -0.0196796 0.909199 0 
0.0813689 0.252644 0.0314345 -0.385251 -0.0012799 0.922811 0 
0.0814635 0.252096 0.0309759 -0.417886 0.0524037 0.906987 0 
0.0826104 0.252787 0.0319123 -0.473891 0.860135 -0.188665 0 
0.0822885 0.253276 0.0318279 -0.295476 0.898308 -0.325172 0 
0.0820215 0.253392 0.0315034 -0.314265 0.875995 -0.365883 0 
0.0819101 0.253375 0.0315888 -0.359693 0.895532 -0.261999 0 
0.082197 0.253702 0.031562 -0.604518 0.343809 0.718578 0 
0.0818877 0.253672 0.031621 -0.596176 0.295691 0.746419 0 
0.0819766 0.253987 0.0315679 -0.566393 0.370522 0.736147 0 
0.0817174 0.252943 0.0317165 -0.466775 -0.130697 0.874665 0 
0.0814379 0.253047 0.0314907 -0.408744 -0.0806551 0.909078 0 
0.0811535 0.25304 0.0313526 -0.381411 -0.0655759 0.922077 0 
0.0809268 0.25139 0.0315353 -0.444473 0.85687 0.261185 0 
0.0811371 0.251413 0.0314632 -0.439544 0.643439 0.626727 0 
0.0809392 0.251401 0.0314368 -0.453175 0.83265 0.31832 0 
0.08063 0.251372 0.0314958 -0.419341 0.817955 0.39383 0 
0.0806424 0.251383 0.0313972 -0.419341 0.817955 0.39383 0 
0.0805235 0.251465 0.0314934 -0.412287 0.838683 0.355852 0 
0.0811743 0.251448 0.0311675 -0.462887 0.300799 0.83382 0 
0.080969 0.251535 0.0311519 -0.492126 0.745595 0.449332 0 
0.0809788 0.251757 0.0309763 -0.341975 0.884314 -0.317871 0 
0.0809073 0.251564 0.0308431 -0.207182 0.842337 -0.497538 0 
0.0809838 0.251868 0.0308884 -0.359305 -0.00888741 0.933178 0 
0.081021 0.251902 0.0305928 -0.398886 -0.164415 0.90214 0 
0.0809321 0.251587 0.030646 -0.393938 0.909843 -0.130378 0 
0.0806796 0.251418 0.0311016 -0.471004 0.856234 0.212177 0 
0.0803828 0.2514 0.0310621 -0.490003 0.858603 0.150658 0 
0.0806104 0.251546 0.0308035 -0.486583 0.856326 0.17304 0 
0.0806352 0.251569 0.0306065 -0.479858 0.876322 0.0423806 0 
0.0804573 0.25147 0.0304708 -0.373537 0.916355 -0.144099 0 
0.0810995 0.25244 0.0312749 -0.274467 -0.0258466 0.961249 0 
0.0808125 0.252643 0.0310598 -0.234423 -0.0503212 0.970831 0 
0.0805157 0.252625 0.0310202 -0.0821046 -0.30105 0.950067 0 
0.0803256 0.251453 0.031467 -0.438172 0.874859 0.206461 0 
0.0796995 0.252023 0.0313538 -0.430026 0.884833 -0.179299 0 
0.0802764 0.251493 0.0310596 -0.467856 0.877761 0.103183 0 
0.0801009 0.251183 0.031001 -0.473912 0.876104 0.0885948 0 
0.0804201 0.251435 0.0307664 -0.446677 0.894671 0.00658815 0 
0.0801233 0.251417 0.0307268 -0.448488 0.892935 -0.0390575 0 
0.0800393 0.251212 0.0306922 -0.445503 0.894995 -0.0226076 0 
0.0798414 0.2512 0.0306658 -0.434043 0.900868 -0.00655654 0 
0.080194 0.252584 0.0311778 -0.147504 0.564687 -0.812017 0 
0.0802537 0.252321 0.0308499 -0.226128 0.816831 -0.53071 0 
0.0800559 0.252309 0.0308236 -0.390866 0.892355 -0.22567 0 
0.0797367 0.252058 0.0310581 -0.43443 0.861237 -0.263706 0 
0.0798848 0.252554 0.0312367 -0.361048 0.730264 -0.579964 0 
0.0810496 0.252924 0.0314272 -0.294563 -0.0467762 0.954486 0 
0.0808567 0.253022 0.031313 -0.261504 -0.110586 0.958847 0 
0.0808641 0.252923 0.0313022 -0.273314 -0.0808392 0.958522 0 
0.0810196 0.25332 0.0314702 -0.324298 -0.052973 0.94447 0 
0.0807353 0.253314 0.0313321 -0.260853 -0.110311 0.959055 0 
0.0805598 0.253004 0.0312734 -0.0655742 -0.228891 0.971241 0 
0.0804684 0.252899 0.0312495 -0.0669409 -0.200823 0.977338 0 
0.0807968 0.253815 0.0313989 -0.249068 -0.161162 0.954983 0 
0.0802705 0.252887 0.0312231 -0.0344796 -0.203311 0.978507 0 
0.0798673 0.252962 0.0311812 -0.230205 0.542295 -0.808035 0 
0.0809296 0.251797 0.0305689 -0.413107 -0.11623 0.903235 0 
0.0803733 0.251265 0.0304361 -0.381152 0.91941 -0.0969957 0 
0.0798113 0.252127 0.0304669 -0.260462 0.891524 -0.3706 0 
0.0798809 0.252086 0.0299634 0.123436 0.742104 -0.658821 0 
0.0755756 0.247946 0.0270047 0.251346 -0.828054 0.50115 0 
0.0756005 0.247969 0.0268076 0.251346 -0.828054 0.50115 0 
0.075348 0.2478 0.0272632 0.187317 -0.790385 0.58327 0 
0.0752888 0.247619 0.0270315 0.0892887 -0.721628 0.686498 0 
0.0750909 0.247607 0.0270051 0.110897 -0.726005 0.678689 0 
0.0753852 0.247835 0.0269676 0.223586 -0.806451 0.5474 0 
0.0754374 0.247671 0.0266505 0.107941 -0.731926 0.67278 0 
0.075415 0.247969 0.0266827 0.223586 -0.806451 0.5474 0 
0.0752272 0.247648 0.0267227 0.110897 -0.726005 0.678689 0 
0.0752396 0.247659 0.0266241 0.038275 -0.676192 0.735731 0 
0.0753757 0.2477 0.0263417 0.110897 -0.726005 0.678689 0 
0.0750367 0.247537 0.0266855 -0.0524366 -0.607981 0.792218 0 
0.0748737 0.247239 0.0265284 -0.0796567 -0.627116 0.774843 0 
0.075089 0.247373 0.0263684 -0.0733496 -0.605493 0.792463 0 
0.0752004 0.247391 0.0262831 -0.0670868 -0.595217 0.80076 0 
0.0748911 0.247361 0.0263421 -0.0764668 -0.627605 0.774768 0 
0.0749035 0.247373 0.0262435 -0.100564 -0.587354 0.803058 0 
0.0747281 0.247063 0.0261849 -0.0915819 -0.603277 0.792256 0 
0.0744387 0.246946 0.0261346 -0.0153614 -0.682884 0.730365 0 
0.0743547 0.246741 0.0261 -0.0153633 -0.685763 0.727663 0 
0.0741644 0.24663 0.0260629 -0.155837 -0.636965 0.754977 0 
0.0743647 0.246963 0.0259244 -0.152588 -0.639055 0.753874 0 
0.0741668 0.246951 0.025898 -0.152515 -0.656873 0.738415 0 
0.0741592 0.24705 0.0259087 -0.182604 -0.646019 0.741158 0 
0.0747375 0.247198 0.0268108 -0.0796567 -0.627116 0.774843 0 
0.0746758 0.247227 0.026502 -0.0764668 -0.627605 0.774768 0 
0.0745396 0.247186 0.0267845 -0.0794066 -0.619371 0.781072 0 
0.0748046 0.247367 0.0262304 -0.0915819 -0.603277 0.792256 0 
0.0744163 0.247243 0.0261669 -0.00973889 -0.685896 0.727634 0 
0.0745842 0.247652 0.0262362 -0.085526 -0.621876 0.778432 0 
0.0742949 0.247535 0.0261859 -0.0525397 -0.620536 0.782416 0 
0.0740671 0.247919 0.0262025 0.577642 -0.772813 -0.262851 0 
0.0796042 0.250919 0.0302984 -0.354002 0.929086 -0.10715 0 
0.0795053 0.250913 0.0302853 -0.349034 0.930306 -0.112723 0 
0.0792085 0.250895 0.0302457 -0.423653 0.903157 -0.0694736 0 
0.0789808 0.250749 0.0305042 -0.51128 0.859328 -0.0121412 0 
0.0789116 0.250877 0.0302062 -0.533569 0.845162 -0.0317108 0 
0.0796291 0.250943 0.0301013 -0.335493 0.936976 -0.0975738 0 
0.0795302 0.250937 0.0300882 -0.354085 0.930315 -0.0955895 0 
0.0795276 0.251146 0.0300111 -0.271693 0.94196 -0.197219 0 
0.0793323 0.250925 0.0300618 -0.374476 0.921893 -0.0994064 0 
0.0790554 0.250819 0.0299129 -0.455741 0.884838 -0.0967573 0 
0.0791076 0.250656 0.0295959 -0.765959 0.600599 0.22932 0 
0.0793695 0.250959 0.0297661 -0.181851 0.934244 -0.306787 0 
0.0793154 0.250889 0.0294466 -0.765645 0.592707 0.249974 0 
0.0790534 0.250585 0.0292763 -0.60759 0.793899 -0.0236362 0 
0.0791224 0.250988 0.0293324 -0.606097 0.793462 0.0553578 0 
0.0784623 0.250339 0.0292742 -0.224338 0.862722 -0.453193 0 
0.0782719 0.250228 0.0292372 0.564265 0.341146 -0.751814 0 
0.0787735 0.250602 0.0298519 -0.223971 0.900275 -0.373285 0 
0.0790311 0.250352 0.0295505 -0.789237 0.584677 0.187768 0 
0.0787069 0.250521 0.0296309 -0.560696 0.823027 -0.0908069 0 
0.0787343 0.250334 0.0295109 -0.458421 0.867885 -0.19138 0 
0.0782122 0.25049 0.029565 -0.535039 0.83146 -0.149692 0 
0.0787964 0.250392 0.0290181 -0.181566 0.866499 -0.464987 0 
0.0785344 0.250088 0.0288479 0.59061 0.296105 -0.750667 0 
0.0785493 0.25042 0.0285844 0.583923 0.328356 -0.74244 0 
0.0783366 0.250076 0.0288215 0.641255 0.20242 -0.740147 0 
0.0785443 0.25031 0.0286722 0.59061 0.296105 -0.750667 0 
0.0788705 0.250375 0.0292284 -0.529218 0.835841 -0.14594 0 
0.0790832 0.250719 0.0289914 -0.457288 0.871935 -0.174975 0 
0.0788256 0.25097 0.0292929 -0.615119 0.788078 -0.0237121 0 
0.0786109 0.250392 0.0288933 0.558538 0.366388 -0.744174 0 
0.078329 0.250706 0.0285903 0.640524 0.282725 -0.714 0 
0.078566 0.250986 0.0289577 -0.201456 0.8867 -0.416146 0 
0.0784919 0.251004 0.0287474 0.837081 -0.142701 -0.52814 0 
0.0777878 0.249445 0.0286779 0.703874 -0.0955152 -0.703874 0 
0.0776963 0.24934 0.028654 0.700929 -0.0955144 -0.706807 0 
0.0778251 0.24948 0.0283823 0.782308 -0.214479 -0.584802 0 
0.0775732 0.248867 0.0282783 0.754851 -0.581764 -0.302902 0 
0.0773753 0.248855 0.0282519 0.719214 -0.646502 -0.254491 0 
0.077155 0.24914 0.0282578 0.158605 -0.626866 0.762813 0 
0.0769646 0.249029 0.0282207 0.724352 -0.546152 -0.420751 0 
0.0782078 0.249936 0.0290932 0.569116 0.330506 -0.75291 0 
0.0780697 0.249661 0.028739 0.722713 -0.0649144 -0.688092 0 
0.0782849 0.249796 0.0285789 0.749114 -0.0324475 -0.661646 0 
0.0783738 0.250111 0.0285259 0.728948 0.0353858 -0.683654 0 
0.078008 0.24969 0.0284301 0.757765 -0.136009 -0.638196 0 
0.0793037 0.251999 0.031301 -0.506922 0.823167 -0.255786 0 
0.0794255 0.251794 0.0304805 -0.368598 0.906316 -0.206704 0 
0.0787772 0.251601 0.0308834 -0.548491 0.812861 -0.195998 0 
0.0788668 0.251472 0.0302706 -0.501226 0.856562 -0.122779 0 
0.0792028 0.251759 0.0306512 -0.46062 0.876477 -0.140063 0 
0.0794772 0.252074 0.0307229 -0.379754 0.893974 -0.237901 0 
0.0791803 0.252056 0.0306834 -0.441986 0.864362 -0.239849 0 
0.0796191 0.251252 0.030035 -0.243213 0.949754 -0.197016 0 
0.0794852 0.251532 0.0301526 -0.325423 0.928783 -0.177377 0 
0.07953 0.251467 0.0298462 -0.168081 0.932086 -0.320882 0 
0.0793595 0.251268 0.0296999 0.0956867 0.849755 -0.518422 0 
0.0792625 0.251496 0.0303233 -0.391353 0.912229 -0.121166 0 
0.0790651 0.251571 0.0294955 -0.742915 0.623546 0.24345 0 
0.079001 0.251279 0.0293515 -0.628796 0.774894 0.0644552 0 
0.0787509 0.25143 0.0296422 -0.620025 0.781145 0.0733672 0 
0.0788031 0.251267 0.0293251 -0.362133 0.897204 -0.252754 0 
0.0784074 0.251243 0.0292724 -0.196137 0.899327 -0.390822 0 
0.0782716 0.251289 0.0287533 0.829469 -0.0995362 -0.549613 0 
0.0779499 0.251247 0.0289108 0.843448 -0.168095 -0.510234 0 
0.0790195 0.250514 0.0280459 0.850752 -0.144965 -0.50518 0 
0.0784186 0.250046 0.0282195 0.858664 -0.2538 -0.445289 0 
0.0785641 0.250753 0.028321 0.833312 -0.152453 -0.531366 0 
0.0778624 0.249515 0.0280867 0.831455 -0.396006 -0.389695 0 
0.0777883 0.249532 0.0278764 0.8303 -0.475125 -0.291306 0 
0.0774766 0.249181 0.0281003 0.782169 -0.477722 -0.399991 0 
0.0775606 0.249386 0.0281349 0.813708 -0.44746 -0.371025 0 
0.077573 0.249397 0.0280364 0.82269 -0.470333 -0.319323 0 
0.0775903 0.24952 0.02785 0.828093 -0.478766 -0.291626 0 
0.0775139 0.249216 0.0278046 0.78214 -0.564966 -0.262812 0 
0.0774274 0.249222 0.0276929 0.771835 -0.572141 -0.277354 0 
0.0772911 0.249181 0.0279753 0.773891 -0.560952 -0.293983 0 
0.077316 0.249204 0.0277783 0.773572 -0.575059 -0.26626 0 
0.0770168 0.248865 0.0279035 0.675437 -0.700511 -0.230369 0 
0.0772768 0.248935 0.0274372 0.688436 -0.669268 -0.279527 0 
0.0771138 0.248638 0.0272801 0.670407 -0.692701 -0.265933 0 
0.0783346 0.249842 0.0281848 0.857997 -0.31578 -0.405122 0 
0.0781243 0.249818 0.028257 0.848441 -0.331593 -0.412545 0 
0.0781367 0.24983 0.0281584 0.849163 -0.315137 -0.423805 0 
0.0780453 0.249725 0.0281345 0.857623 -0.322961 -0.400224 0 
0.0778399 0.249812 0.0281189 0.848104 -0.34391 -0.403044 0 
0.0780825 0.24976 0.0278389 0.853825 -0.511725 -0.095503 0 
0.0783661 0.25074 0.0282946 0.845911 -0.213369 -0.488782 0 
0.0780792 0.250944 0.0280795 0.851217 -0.347023 -0.393707 0 
0.0781066 0.250757 0.0279595 0.826579 -0.53148 -0.18519 0 
0.0779554 0.250915 0.0282634 0.850053 -0.20311 -0.485959 0 
0.077933 0.251212 0.0282956 0.851389 -0.157883 -0.50021 0 
0.0777599 0.251223 0.0280722 0.88633 -0.302466 -0.350619 0 
0.0776959 0.250931 0.0279282 0.871417 -0.410703 -0.268245 0 
0.0775803 0.249829 0.0277837 0.843816 -0.442887 -0.303028 0 
0.0774889 0.249723 0.0277598 0.839272 -0.453113 -0.300518 0 
0.0775354 0.250423 0.0278482 0.880491 -0.415663 -0.227944 0 
0.0773269 0.251164 0.0283151 0.823305 -0.404514 -0.398168 0 
0.0774288 0.251047 0.0276038 0.936243 -0.207899 -0.283245 0 
0.0773598 0.250645 0.0275477 0.910082 -0.333454 -0.246086 0 
0.0775053 0.251351 0.0276492 0.943547 0.00624866 -0.331179 0 
0.07673 0.248538 0.0279303 0.652526 -0.718565 -0.24057 0 
0.0769651 0.248585 0.027661 0.64784 -0.737091 -0.192352 0 
0.076651 0.248445 0.0278079 0.633552 -0.755097 -0.168643 0 
0.0768394 0.248322 0.0272083 0.631806 -0.751711 -0.189081 0 
0.0770024 0.24862 0.0273654 0.671659 -0.696945 -0.25128 0 
0.0767797 0.248585 0.0275362 0.64784 -0.737091 -0.192352 0 
0.0763691 0.248228 0.0277468 0.422765 -0.856292 0.296704 0 
0.0764063 0.248263 0.0274512 0.64784 -0.737091 -0.192352 0 
0.0764903 0.248467 0.0274859 0.633552 -0.755097 -0.168643 0 
0.0764287 0.248496 0.027177 0.639123 -0.74641 -0.185453 0 
0.0762233 0.248583 0.0271615 0.641292 -0.745368 -0.182133 0 
0.0768169 0.248619 0.0272406 0.659063 -0.712543 -0.24066 0 
0.076718 0.248613 0.0272274 0.659063 -0.712543 -0.24066 0 
0.0768542 0.248654 0.0269449 0.642304 -0.703476 -0.304249 0 
0.0765424 0.248834 0.0269268 0.677534 -0.73549 0.00137991 0 
0.0764212 0.248595 0.0271878 0.641255 -0.740147 -0.20242 0 
0.0764435 0.248828 0.0269137 0.636844 -0.685958 -0.351983 0 
0.0761712 0.248216 0.0277204 0.493293 -0.850967 0.180327 0 
0.0758992 0.248221 0.0274838 0.419993 -0.868793 0.262306 0 
0.0762085 0.248251 0.0274248 0.641255 -0.740147 -0.20242 0 
0.0759116 0.248233 0.0273853 0.395247 -0.862776 0.315275 0 
0.0761318 0.248478 0.0271375 0.633648 -0.750252 -0.188714 0 
0.0758228 0.247918 0.0274384 0.387966 -0.866407 0.31436 0 
0.0756472 0.248139 0.0271379 0.366308 -0.869024 0.332589 0 
0.0759489 0.248268 0.0270897 0.618142 -0.762325 -0.191732 0 
0.0762233 0.248583 0.0271615 0.641292 -0.745368 -0.182133 0 
0.0759588 0.248489 0.0269141 0.625291 -0.746919 -0.226103 0 
0.0756595 0.24815 0.0270394 0.334608 -0.861962 0.380867 0 
0.0758872 0.248296 0.0267808 0.620955 -0.7353 -0.271569 0 
0.0756968 0.248185 0.0267437 0.295434 -0.849179 0.437737 0 
0.0756352 0.248214 0.0264349 0.617729 -0.744119 -0.254359 0 
0.07386 0.246711 0.0260341 0.594487 -0.733795 -0.328831 0 
0.0738849 0.246734 0.025837 0.5782 -0.748922 -0.323728 0 
0.0737611 0.246705 0.0260209 0.58823 -0.737313 -0.332196 0 
0.0735881 0.246716 0.0257974 0.587687 -0.0880809 -0.80428 0 
0.0734742 0.246909 0.0258057 0.587687 -0.0880809 -0.80428 0 
0.0725813 0.246534 0.0258519 0.384537 0.438787 -0.812156 0 
0.0732719 0.246342 0.0253075 0.473389 -0.870051 -0.137529 0 
0.0731139 0.246155 0.0250626 0.467737 0.362376 -0.806167 0 
0.0731263 0.246167 0.0249641 0.467737 0.362376 -0.806167 0 
0.0727307 0.245612 0.0251533 0.496472 0.355082 -0.792106 0 
0.0727405 0.245833 0.0249776 0.456602 0.398518 -0.795423 0 
0.0728071 0.245915 0.0251986 0.471979 0.359984 -0.804765 0 
0.0730423 0.245962 0.0249294 0.472199 -0.870752 -0.137183 0 
0.0728295 0.246148 0.0249245 0.451713 0.397057 -0.798937 0 
0.0727455 0.245944 0.0248898 0.456602 0.398518 -0.795423 0 
0.0727305 0.246142 0.0249113 0.445984 0.407343 -0.796975 0 
0.0737759 0.247037 0.0257575 0.571006 -0.722396 -0.389995 0 
0.0735264 0.246745 0.0254886 0.600188 -0.0791614 -0.795932 0 
0.0736005 0.246728 0.0256989 0.600188 -0.0791614 -0.795932 0 
0.0733409 0.246745 0.0253637 0.6193 -0.119722 -0.775973 0 
0.0730293 0.246394 0.0255876 0.467212 -0.868517 -0.165502 0 
0.0727453 0.246475 0.0246479 0.450862 0.408846 -0.793453 0 
0.0727993 0.247075 0.0247256 0.515472 0.266301 -0.814477 0 
0.0727228 0.246772 0.0246801 0.479084 0.345386 -0.806962 0 
0.0726655 0.247355 0.0248431 0.506408 0.272681 -0.818044 0 
0.072473 0.245862 0.0254547 0.492897 0.336574 -0.802353 0 
0.0724189 0.245792 0.0251352 -0.479858 0.876322 0.0423806 0 
0.0725352 0.24592 0.024962 -0.487159 0.867797 0.098 0 
0.0725326 0.24613 0.024885 0.435294 0.435294 -0.78806 0 
0.0722234 0.246101 0.0249439 0.432754 0.410231 -0.802767 0 
0.0722358 0.246112 0.0248454 0.441111 0.39299 -0.806833 0 
0.0721593 0.245809 0.0248 0.413898 0.382182 -0.826211 0 
0.0719715 0.245488 0.02484 0.440154 0.330507 -0.834883 0 
0.0721146 0.245873 0.0251063 0.474745 0.323331 -0.81858 0 
0.0720087 0.245522 0.0245444 0.418393 0.349444 -0.838353 0 
0.0721841 0.245832 0.0246029 0.417612 0.382679 -0.82411 0 
0.0720211 0.245534 0.0244458 0.418393 0.349444 -0.838353 0 
0.0721591 0.246339 0.0245581 0.455143 0.347305 -0.819893 0 
0.0719762 0.246129 0.0245102 0.426885 0.351274 -0.833292 0 
0.0722114 0.246176 0.0242409 0.426452 0.375722 -0.822783 0 
0.0718999 0.245295 0.0247068 0.407117 0.391276 -0.825323 0 
0.0719447 0.245231 0.0244004 0.587089 -0.798144 -0.135253 0 
0.0718014 0.245376 0.023892 0.373922 0.434386 -0.819446 0 
0.0712377 0.244943 0.02377 0.317833 0.592106 -0.740535 0 
0.0715121 0.245258 0.0238417 0.336931 0.543281 -0.768976 0 
0.0714131 0.245252 0.0238286 0.316993 0.574449 -0.754668 0 
0.071937 0.24586 0.0241692 -0.57753 0.812555 0.0788193 0 
0.0719843 0.245586 0.0239399 0.40968 0.356311 -0.839765 0 
0.0713925 0.246314 0.0242555 0.318011 0.495212 -0.808477 0 
0.0714198 0.246127 0.0241355 0.363192 0.407215 -0.838014 0 
0.072047 0.247296 0.0249611 0.478389 0.285163 -0.830558 0 
0.072535 0.246451 0.0247201 0.45251 0.420072 -0.786622 0 
0.0725475 0.246463 0.0246215 0.46836 0.403535 -0.786002 0 
0.0724361 0.246445 0.0247069 0.451366 0.43833 -0.777262 0 
0.0724335 0.246655 0.0246299 0.451366 0.43833 -0.777262 0 
0.0725025 0.247057 0.024686 0.495708 0.315163 -0.809287 0 
0.0724359 0.246975 0.024465 0.516192 0.283984 -0.808021 0 
0.0722057 0.247039 0.0246465 0.529077 0.232917 -0.815982 0 
0.0722729 0.246678 0.0243079 0.470092 0.355357 -0.80792 0 
0.0721292 0.246736 0.024601 0.45613 0.379308 -0.805029 0 
0.0719313 0.246724 0.0245747 0.450763 0.343212 -0.824026 0 
0.0719088 0.247021 0.0246069 0.487967 0.335378 -0.80586 0 
0.071976 0.246659 0.0242683 0.441684 0.353031 -0.824794 0 
0.07248 0.247355 0.0247182 0.590766 -0.064059 -0.804296 0 
0.0716345 0.246706 0.0245352 0.257591 0.60842 -0.750648 0 
0.0716792 0.246641 0.0242288 0.380889 0.431886 -0.817556 0 
0.0716942 0.246443 0.0242072 0.374377 0.438101 -0.817257 0 
0.0713601 0.24639 0.0244633 0.205721 0.617163 -0.759466 0 
0.0711612 0.244639 0.0237246 0.326404 0.631697 -0.703149 0 
0.0708713 0.244966 0.0242339 0.310933 0.620256 -0.720141 0 
0.0709558 0.244726 0.0237089 0.33725 0.559932 -0.756795 0 
0.0705127 0.244976 0.0238855 0.347649 0.551388 -0.758361 0 
0.0709967 0.24629 0.0242028 0.264563 0.543216 -0.796821 0 
0.0710864 0.245631 0.0238319 0.314848 0.538598 -0.781526 0 
0.0710241 0.246103 0.0240828 0.263491 0.579049 -0.77154 0 
0.070851 0.246114 0.0238593 0.276122 0.560133 -0.78103 0 
0.0705766 0.245799 0.0237875 0.302803 0.59439 -0.74499 0 
0.0704304 0.246067 0.0240037 0.220508 0.683418 -0.695929 0 
0.0703472 0.244888 0.0236513 0.337606 0.513609 -0.788814 0 
0.0702799 0.245781 0.023748 0.276375 0.6502 -0.707712 0 
0.0717989 0.245586 0.023815 0.381183 0.412816 -0.827214 0 
0.071502 0.245567 0.0237754 0.351705 0.499454 -0.791738 0 
0.0714504 0.245287 0.0235329 0.30003 0.598455 -0.742855 0 
0.0712425 0.245584 0.0234403 0.302337 0.583879 -0.753444 0 
0.0709141 0.244668 0.0232909 0.351232 0.538988 -0.76559 0 
0.0699303 0.243744 0.0227535 0.178146 0.522463 -0.833844 0 
0.070308 0.24462 0.0233103 0.319068 0.460526 -0.828318 0 
0.0703452 0.244655 0.0230147 0.297239 0.495399 -0.816228 0 
0.0703825 0.24469 0.022719 0.225033 0.591294 -0.774424 0 
0.0700236 0.244613 0.0231722 0.283467 0.466249 -0.838009 0 
0.069873 0.244327 0.0229165 0.189519 0.544297 -0.817204 0 
0.0701355 0.244187 0.0225272 0.195839 0.54501 -0.815237 0 
0.0701604 0.244211 0.0223301 0.192085 0.527856 -0.827328 0 
0.0699824 0.244111 0.0221945 0.174216 0.501802 -0.847256 0 
0.0703618 0.243656 0.0210724 -0.497852 0.787863 -0.362513 0 
0.0701167 0.243918 0.0212753 -0.40269 0.790824 -0.46091 0 
0.0701565 0.243743 0.0210568 -0.509115 0.739782 -0.439915 0 
0.0695345 0.24372 0.0227008 0.111914 0.542127 -0.832811 0 
0.0696633 0.24386 0.0224291 0.127219 0.530809 -0.837889 0 
0.0695643 0.243854 0.0224159 0.111914 0.542127 -0.832811 0 
0.0696016 0.243889 0.0221203 0.0457817 0.52857 -0.847654 0 
0.0692675 0.243836 0.0223764 0.0317171 0.541948 -0.839813 0 
0.0694285 0.2439 0.0218968 -0.0013508 0.54437 -0.838844 0 
0.0696282 0.244676 0.0223179 0.158869 0.530057 -0.832947 0 
0.0693763 0.244063 0.0222139 0.0485328 0.519994 -0.85279 0 
0.0692774 0.244057 0.0222008 0.0400173 0.522985 -0.851402 0 
0.0690399 0.243689 0.0226348 -0.00956324 0.558767 -0.82927 0 
0.0688668 0.243701 0.0224114 -0.0582516 0.58962 -0.805577 0 
0.0686839 0.24349 0.0223635 -0.159675 0.691925 -0.704091 0 
0.0690696 0.243823 0.02235 -0.0122478 0.542985 -0.839653 0 
0.0690944 0.243847 0.0221529 -0.00406755 0.543696 -0.839272 0 
0.0688792 0.243712 0.0223129 -0.0916904 0.624368 -0.77573 0 
0.068904 0.243735 0.0221157 -0.046676 0.606788 -0.793492 0 
0.0685059 0.243391 0.0222279 -0.108001 0.684993 -0.7205 0 
0.0686963 0.243502 0.022265 -0.235897 0.760808 -0.604585 0 
0.0687062 0.243723 0.0220894 -0.17593 0.693011 -0.699131 0 
0.0684835 0.243688 0.0222601 -0.0887826 0.638944 -0.764113 0 
0.0687434 0.243758 0.0217938 -0.179489 0.725628 -0.664264 0 
0.0685357 0.243525 0.021943 -0.178844 0.759705 -0.62519 0 
0.069072 0.244144 0.0221851 0.0122378 0.539823 -0.841689 0 
0.0688591 0.24433 0.0221802 0.00134944 0.533028 -0.846097 0 
0.0684859 0.244009 0.0220953 -0.0347629 0.568721 -0.821795 0 
0.071176 0.244972 0.0234611 0.326834 0.568336 -0.755098 0 
0.071191 0.244773 0.0234397 0.33887 0.575593 -0.744217 0 
0.0709831 0.24507 0.023347 0.339015 0.53182 -0.776039 0 
0.0711536 0.245269 0.0234934 0.322965 0.563983 -0.760011 0 
0.0708841 0.245064 0.0233338 0.344077 0.541155 -0.767309 0 
0.0705973 0.244737 0.0233606 0.333621 0.509211 -0.793348 0 
0.0705948 0.244947 0.0232835 0.331644 0.53031 -0.780245 0 
0.0706115 0.245513 0.0236568 0.314738 0.605265 -0.73116 0 
0.0708865 0.245385 0.0231689 0.340626 0.544033 -0.766813 0 
0.0705746 0.245565 0.0231509 0.357284 0.522184 -0.774385 0 
0.0706344 0.245303 0.022823 0.330166 0.502427 -0.799098 0 
0.0708859 0.245829 0.0237285 0.307467 0.546431 -0.779023 0 
0.0709232 0.245863 0.0234329 0.332413 0.541175 -0.772419 0 
0.0706364 0.245536 0.0234597 0.346665 0.536927 -0.769112 0 
0.0705374 0.24553 0.0234465 0.355196 0.543337 -0.760671 0 
0.0703995 0.244725 0.0233342 0.31614 0.467132 -0.825738 0 
0.0704119 0.244737 0.0232357 0.322725 0.461261 -0.826491 0 
0.0702928 0.245349 0.0230898 0.311914 0.508246 -0.802743 0 
0.0700084 0.245342 0.0229517 0.318696 0.45685 -0.830494 0 
0.0698428 0.245254 0.0227175 0.289389 0.486487 -0.824369 0 
0.0701933 0.245786 0.0236363 0.321643 0.596414 -0.735416 0 
0.070253 0.245524 0.0233084 0.345544 0.472933 -0.810515 0 
0.0697358 0.245791 0.0232747 0.30042 0.608872 -0.734181 0 
0.0699735 0.245628 0.0230825 0.342578 0.479609 -0.807846 0 
0.0701005 0.245004 0.0224161 0.210839 0.567881 -0.795649 0 
0.0698778 0.244968 0.0225868 0.210173 0.563019 -0.799272 0 
0.0700532 0.245278 0.0226454 0.292859 0.493319 -0.819066 0 
0.0701652 0.244852 0.0220004 0.21264 0.543073 -0.812315 0 
0.06993 0.244805 0.0222696 0.188729 0.53599 -0.822858 0 
0.0696842 0.245511 0.0230322 0.33625 0.45307 -0.825629 0 
0.0693874 0.245493 0.0229927 0.327259 0.44313 -0.834588 0 
0.0692119 0.245183 0.0229341 0.29021 0.390491 -0.873667 0 
0.0691895 0.24548 0.0229663 0.293897 0.42315 -0.85707 0 
0.0696369 0.245785 0.0232616 0.351232 0.538988 -0.76559 0 
0.0696767 0.24561 0.023043 0.346803 0.457653 -0.818708 0 
0.0694789 0.245598 0.0230166 0.347143 0.422541 -0.837228 0 
0.0695809 0.24495 0.0225472 0.233309 0.489491 -0.840217 0 
0.0692841 0.244932 0.0225077 0.179282 0.481544 -0.857889 0 
0.0689524 0.2452 0.0225989 0.277593 0.348846 -0.895125 0 
0.0690121 0.244937 0.022271 0.112547 0.468707 -0.876155 0 
0.0684334 0.244703 0.0221704 0.124044 0.388857 -0.912909 0 
0.0705558 0.243201 0.0198254 -0.0743552 0.991784 0.104097 0 
0.0703552 0.243929 0.01948 -0.0743552 0.991784 0.104097 0 
0.0894668 0.257442 0.0374857 -0.514058 -0.242364 0.822802 0 
0.0883392 0.257107 0.0369997 -0.313189 -0.473719 0.823106 0 
0.0882178 0.257398 0.0370187 -0.327304 -0.436927 0.837835 0 
0.0897432 0.257991 0.0381941 -0.631102 -0.152127 0.760636 0 
0.0894779 0.258871 0.0382644 -0.622042 -0.0675196 0.780067 0 
0.0900772 0.258044 0.0379381 -0.683904 -0.149462 0.714098 0 
0.0897804 0.258026 0.0378985 -0.617078 -0.168294 0.768695 0 
0.0895875 0.258125 0.0377844 -0.577706 -0.180438 0.796051 0 
0.0898569 0.25833 0.0379439 -0.632595 -0.129496 0.76358 0 
0.0895973 0.258346 0.0376087 -0.587924 -0.180783 0.788456 0 
0.0902862 0.259486 0.0387432 -0.613338 0.126232 0.779667 0 
0.090301 0.259818 0.0384798 -0.607982 0.106946 0.786715 0 
0.0904516 0.260104 0.0387355 -0.561893 0.0123042 0.827118 0 
0.0905137 0.260162 0.0382428 -0.556887 -0.00135496 0.830587 0 
0.0902909 0.260127 0.0384135 -0.548624 -0.0150495 0.835934 0 
0.0900166 0.259812 0.0383417 -0.600188 0.0791614 0.795932 0 
0.0900241 0.259712 0.0383309 -0.597829 0.0702485 0.798539 0 
0.0897645 0.259729 0.0379958 -0.594143 0.0465718 0.80301 0 
0.0898118 0.259455 0.0377665 -0.598464 -0.00136948 0.801148 0 
0.090019 0.260132 0.0381768 -0.556948 0.760355 -0.334169 0 
0.0897296 0.260015 0.0381266 -0.572659 0.0667865 0.817069 0 
0.0896973 0.260091 0.0383343 -0.559893 0.742716 -0.367277 0 
0.0894452 0.260008 0.0379885 -0.568018 0.040473 0.822021 0 
0.089508 0.257944 0.0384634 -0.608872 -0.122959 0.783681 0 
0.0894463 0.257973 0.0381545 -0.57802 -0.177502 0.796484 0 
0.0896422 0.257751 0.0375443 -0.554022 -0.202989 0.807376 0 
0.0895358 0.257845 0.0375418 -0.559546 -0.183483 0.808234 0 
0.0893728 0.257547 0.0373847 -0.526796 -0.228841 0.818607 0 
0.0895581 0.258078 0.0372678 -0.555778 -0.186269 0.810194 0 
0.0895151 0.258906 0.0379688 -0.615061 -0.113572 0.780257 0 
0.0892556 0.258923 0.0376336 -0.600158 -0.138498 0.7878 0 
0.0893395 0.259127 0.0376683 -0.622042 -0.0675196 0.780067 0 
0.0891543 0.258596 0.0377853 -0.583578 -0.14776 0.798501 0 
0.0889811 0.259138 0.0373199 -0.606548 -0.129021 0.784508 0 
0.088996 0.25894 0.0372985 -0.584897 -0.138411 0.799211 0 
0.0886992 0.258922 0.0372589 -0.579083 -0.144398 0.802379 0 
0.0887831 0.259126 0.0372936 -0.608872 -0.122959 0.783681 0 
0.0893544 0.25946 0.037405 -0.622042 -0.0675196 0.780067 0 
0.0889586 0.259435 0.0373522 -0.622525 -0.0643992 0.779945 0 
0.0892254 0.256607 0.0366465 -0.571718 -0.200791 0.795501 0 
0.0895936 0.257348 0.0365773 -0.457939 -0.368585 0.808973 0 
0.0893435 0.2575 0.0368681 -0.491753 -0.296937 0.81854 0 
0.0892278 0.256927 0.0364816 -0.454815 -0.387316 0.801953 0 
0.0889926 0.256881 0.0367509 -0.509962 -0.298399 0.806782 0 
0.0887624 0.256944 0.0369324 -0.456054 -0.332967 0.825316 0 
0.0889975 0.256991 0.0366631 -0.400199 -0.387544 0.830452 0 
0.0887997 0.256979 0.0366367 -0.341498 -0.442216 0.829352 0 
0.088901 0.257306 0.036485 -0.360005 -0.416599 0.834771 0 
0.0885892 0.257486 0.036467 -0.321572 -0.389272 0.863168 0 
0.0885296 0.257218 0.0370368 -0.324398 -0.449769 0.83215 0 
0.0882701 0.257235 0.0367016 -0.301875 -0.431914 0.849895 0 
0.0883913 0.257474 0.0364406 -0.316218 -0.40877 0.856103 0 
0.0895447 0.259571 0.0374421 -0.603193 -0.0207998 0.797324 0 
0.0883932 0.257708 0.0370773 -0.361693 -0.39614 0.84395 0 
0.0886352 0.25863 0.037115 -0.548098 -0.172688 0.818393 0 
0.0886824 0.258356 0.0368857 -0.482683 -0.229922 0.845076 0 
0.0883631 0.258635 0.0368783 -0.520006 -0.204667 0.82928 0 
0.0884023 0.258904 0.0372194 -0.55993 -0.147037 0.815389 0 
0.0895347 0.25988 0.0373757 -0.565679 -0.0178925 0.824432 0 
0.087936 0.257182 0.0369577 -0.283543 -0.460176 0.841333 0 
0.0879733 0.257217 0.0366621 -0.287081 -0.393407 0.873393 0 
0.088018 0.257152 0.0363557 -0.309009 -0.4074 0.859383 0 
0.0882159 0.257164 0.036382 -0.295459 -0.405681 0.864943 0 
0.0876839 0.257099 0.0366117 -0.306812 -0.389239 0.868538 0 
0.0877486 0.256948 0.0361961 -0.300835 -0.364328 0.881342 0 
0.0876198 0.256808 0.0364678 -0.285809 -0.382591 0.878599 0 
0.0874517 0.256929 0.0361565 -0.289159 -0.417674 0.861357 0 
0.0881375 0.256627 0.0356999 -0.289528 -0.415143 0.862456 0 
0.0879788 0.256884 0.0360146 -0.29611 -0.38722 0.873144 0 
0.0877584 0.257169 0.0360205 -0.308739 -0.350909 0.884049 0 
0.0870486 0.256474 0.0363564 -0.181476 -0.611529 0.770129 0 
0.0867692 0.256578 0.0361306 -0.0500309 -0.716157 0.696144 0 
0.0874468 0.256819 0.0362443 -0.272812 -0.45777 0.84618 0 
0.0873528 0.256923 0.0361434 -0.254208 -0.485306 0.836574 0 
0.0871499 0.256801 0.0362048 -0.17232 -0.632855 0.754851 0 
0.0871624 0.256812 0.0361062 -0.181476 -0.611529 0.770129 0 
0.0868531 0.256782 0.0361652 -0.181476 -0.611529 0.770129 0 
0.0868189 0.256625 0.0357364 -0.21264 -0.543073 0.812315 0 
0.0874616 0.257151 0.0359809 -0.294195 -0.394801 0.870391 0 
0.0874989 0.257186 0.0356853 -0.285597 -0.416941 0.862899 0 
0.0872787 0.256941 0.0359331 -0.239074 -0.516708 0.822105 0 
0.0872761 0.25715 0.035856 -0.217143 -0.555949 0.802353 0 
0.0870883 0.256829 0.035896 -0.178353 -0.620425 0.763717 0 
0.0868904 0.256817 0.0358696 -0.19972 -0.556473 0.806505 0 
0.086117 0.255917 0.0352601 0.640586 -0.75894 -0.116874 0 
0.0859808 0.255876 0.0355426 0.639543 -0.762476 -0.0980535 0 
0.0858302 0.25559 0.0352869 0.657071 -0.747803 -0.0951217 0 
0.0857835 0.25542 0.0349566 0.678119 -0.732598 -0.0587799 0 
0.0858675 0.255625 0.0349913 0.674963 -0.730842 -0.101465 0 
0.0858599 0.255724 0.035002 0.673401 -0.72989 -0.117436 0 
0.0856672 0.255292 0.0351298 0.678119 -0.732598 -0.0587799 0 
0.0863044 0.256151 0.0360217 -0.248069 -0.452003 0.856828 0 
0.0865912 0.256478 0.0359949 0.267053 -0.909146 0.319587 0 
0.0862279 0.255848 0.0359763 -0.26052 -0.437247 0.860782 0 
0.0863168 0.256163 0.0359231 -0.242535 -0.468291 0.849635 0 
0.086552 0.25621 0.0356539 -0.236284 -0.483239 0.843001 0 
0.086715 0.256508 0.035811 0.458289 -0.888355 -0.0282231 0 
0.0866533 0.256537 0.0355022 -0.238142 -0.502403 0.831192 0 
0.0863789 0.256221 0.0354305 -0.243635 -0.482673 0.84123 0 
0.0863614 0.256629 0.0353748 -0.242535 -0.468291 0.849635 0 
0.0861587 0.255976 0.0356782 -0.244826 -0.460759 0.853089 0 
0.0863939 0.256023 0.0354089 -0.242815 -0.471887 0.847563 0 
0.0862924 0.256227 0.0353187 -0.240792 -0.498455 0.832803 0 
0.0862699 0.256524 0.035351 -0.224074 -0.504548 0.8338 0 
0.0861586 0.256506 0.0354363 -0.222037 -0.519107 0.825365 0 
0.0866309 0.256834 0.0355344 0.458289 -0.888355 -0.0282231 0 
0.0866432 0.256846 0.0354359 -0.255047 -0.459695 0.850665 0 
0.0863713 0.256851 0.0351992 -0.248325 -0.46161 0.851617 0 
0.0860496 0.256809 0.0353568 -0.244301 -0.499358 0.831239 0 
0.0861136 0.257101 0.0355008 -0.263706 -0.43443 0.861237 0 
0.0856708 0.256821 0.0359192 0.56104 -0.814029 -0.150305 0 
0.0859956 0.256208 0.0352792 0.636917 -0.763418 -0.107379 0 
0.0860354 0.256033 0.0350606 0.649799 -0.748389 -0.132947 0 
0.0858225 0.25622 0.0350557 0.650814 -0.749107 -0.12361 0 
0.0859656 0.256605 0.0353221 -0.245655 -0.511395 0.823486 0 
0.0857752 0.256494 0.035285 -0.229212 -0.524571 0.819931 0 
0.0851692 0.256446 0.0353044 0.657582 -0.751727 -0.0499249 0 
0.085303 0.256166 0.0351868 0.65436 -0.752586 -0.0736697 0 
0.0855649 0.25647 0.0353572 0.616669 -0.786006 -0.0437454 0 
0.0857528 0.256791 0.0353172 -0.248702 -0.505129 0.826433 0 
0.0856528 0.255047 0.0345916 -0.260079 -0.518602 0.8145 0 
0.0854325 0.255332 0.0345975 -0.266978 -0.516782 0.813424 0 
0.085682 0.255624 0.0348663 0.666723 -0.741929 -0.0708665 0 
0.0857068 0.255648 0.0346692 0.678376 -0.73067 -0.0769891 0 
0.08541 0.255629 0.0346297 0.665855 -0.743514 -0.0618397 0 
0.0863537 0.257259 0.0351437 0.524911 -0.832979 -0.17497 0 
0.0880663 0.258617 0.0368388 -0.438429 -0.250314 0.863205 0 
0.0852513 0.255886 0.0349443 0.65436 -0.752586 -0.0736697 0 
0.0852288 0.256183 0.0349766 0.666723 -0.741929 -0.0708665 0 
0.0846502 0.255949 0.034876 -0.293311 -0.490944 0.820331 0 
0.0851557 0.254696 0.0346906 -0.288598 -0.531462 0.796404 0 
0.085356 0.255029 0.034552 -0.2803 -0.505793 0.815846 0 
0.0851581 0.255016 0.0345257 -0.280383 -0.51534 0.809821 0 
0.08476 0.254672 0.0346378 -0.309197 -0.469289 0.827142 0 
0.0848612 0.254998 0.0344862 -0.274641 -0.525741 0.80509 0 
0.0847773 0.254794 0.0344515 -0.301271 -0.50948 0.806019 0 
0.0846017 0.255015 0.0341509 -0.29292 -0.543089 0.786925 0 
0.0853609 0.255139 0.0344643 -0.271746 -0.535637 0.799529 0 
0.0850367 0.255308 0.0345447 -0.271048 -0.524862 0.806878 0 
0.0850739 0.255343 0.0342491 -0.282047 -0.490855 0.824325 0 
0.0850789 0.255453 0.0341613 -0.286379 -0.492947 0.821578 0 
0.085143 0.255745 0.0343053 -0.260779 -0.529365 0.807321 0 
0.0848388 0.255296 0.0345184 -0.280383 -0.51534 0.809821 0 
0.0847672 0.255103 0.0343851 -0.288354 -0.527862 0.798883 0 
0.0848088 0.255692 0.0345613 -0.264797 -0.537428 0.800658 0 
0.0847298 0.255599 0.0344389 -0.286379 -0.492947 0.821578 0 
0.0847771 0.255325 0.0342095 -0.287792 -0.511105 0.809906 0 
