0.0816261 0.256818 -0.00283769 -0.931031 -0.285929 -0.226772 0 
0.0815925 0.257413 -0.00193515 -0.858893 -0.00672061 -0.51211 0 
0.0813908 0.257551 -0.00173387 -0.851914 -0.141742 -0.504134 0 
0.0833919 0.257298 -0.00641276 -0.392695 -0.899865 -0.189827 0 
0.0828673 0.256884 -0.00635836 -0.411124 -0.895819 -0.168777 0 
0.0829779 0.257149 -0.00603037 -0.499809 -0.841068 -0.20687 0 
0.0832327 0.257084 -0.00627693 -0.400442 -0.897741 -0.183596 0 
0.0834809 0.257338 -0.00580404 -0.43778 -0.882832 -0.170167 0 
0.0828187 0.256934 -0.00589452 -0.551837 -0.797443 -0.244052 0 
0.0828456 0.256659 -0.00607768 -0.412386 -0.887877 -0.203992 0 
0.0824315 0.256509 -0.00569531 -0.667629 -0.699346 -0.255317 0 
0.0759585 0.256481 0.00721246 -0.926142 0.107754 -0.361455 0 
0.0758908 0.256467 0.00755189 -0.921893 0.0994064 -0.374476 0 
0.0757882 0.256464 0.00764915 -0.919519 0.131756 -0.370304 0 
0.0759596 0.256461 0.00762431 -0.921893 0.0994064 -0.374476 0 
0.0761962 0.256312 0.00766519 -0.922542 0.113776 -0.368743 0 
0.0759864 0.256186 0.00744118 -0.916364 0.159062 -0.36739 0 
0.0763226 0.2565 0.0081109 -0.930924 -0.0377578 -0.363256 0 
0.0765582 0.25637 0.00773992 -0.916364 0.159062 -0.36739 0 
0.0753853 0.256117 0.00773069 -0.917053 -0.0356265 -0.39717 0 
0.0755379 0.256651 0.00831427 -0.607388 -0.708893 -0.358539 0 
0.0754317 0.256508 0.00840483 -0.789069 -0.445573 -0.422889 0 
0.0753787 0.256437 0.0084501 -0.554251 -0.757854 -0.344185 0 
0.0757892 0.256445 0.00806101 -0.914957 0.159307 -0.370776 0 
0.0756866 0.256443 0.00815826 -0.923573 0.0597997 -0.378731 0 
0.0757473 0.256175 0.00780543 -0.922769 0.143356 -0.357695 0 
0.0759571 0.256301 0.00802943 -0.921598 0.0116005 -0.387973 0 
0.0758257 0.255791 0.00839396 0.0663414 -0.988138 -0.138502 0 
0.0753308 0.255864 0.00859294 0.274499 -0.95883 -0.072774 0 
0.0754945 0.256201 0.00887566 0.455101 -0.890415 0.00659567 0 
0.0751785 0.255932 0.00874219 0.455101 -0.890415 0.00659567 0 
0.0753353 0.255986 0.00901149 0.46681 -0.88413 -0.0200635 0 
0.0749541 0.255863 0.00881234 0.5707 -0.820641 0.0291598 0 
0.0748595 0.256124 0.00933488 0.400365 -0.914545 -0.0575775 0 
0.0751073 0.255776 0.0090749 0.384641 -0.920727 -0.0656705 0 
0.075174 0.25581 0.00832365 0.251317 -0.96763 -0.0230677 0 
0.0759869 0.255966 0.0090818 0.752946 -0.641732 0.14578 0 
0.0761487 0.256342 0.00854087 -0.870893 -0.300466 -0.388928 0 
0.0763696 0.25627 0.00846402 -0.894564 -0.224743 -0.386323 0 
0.075993 0.256269 0.00868343 0.241851 -0.966139 -0.0899029 0 
0.0762104 0.256055 0.00859983 0.115362 -0.982396 -0.146934 0 
0.0764966 0.255836 0.0085887 0.529549 -0.848095 0.017697 0 
0.0761573 0.255983 0.00864511 0.192678 -0.975823 -0.103176 0 
0.0757807 0.255982 0.00886453 0.396246 -0.917554 -0.0329108 0 
0.0756745 0.255839 0.00895509 0.406699 -0.912754 -0.0384178 0 
0.0749596 0.255965 0.00964275 0.278333 -0.946331 -0.164284 0 
0.0750283 0.25596 0.00971515 0.311766 -0.943327 -0.113734 0 
0.0754207 0.255884 0.00961347 0.228339 -0.95254 -0.201317 0 
0.0753136 0.255761 0.00929219 0.244985 -0.954503 -0.170017 0 
0.0754354 0.255827 0.00931933 0.244985 -0.954503 -0.170017 0 
0.075627 0.255869 0.00983077 0.47545 -0.878281 -0.0506964 0 
0.0763369 0.255421 0.00995336 -0.353682 -0.801787 -0.481712 0 
0.0772565 0.255098 0.0102999 -0.130529 -0.834506 -0.535316 0 
0.0746178 0.255952 0.0101043 0.335805 -0.938936 -0.0750622 0 
0.074857 0.255963 0.00974002 0.302583 -0.94739 -0.104385 0 
0.0750632 0.255948 0.00995729 0.314656 -0.943968 -0.0995747 0 
0.0748049 0.255872 0.0101971 0.293646 -0.951413 -0.0926616 0 
0.0751634 0.255789 0.0102652 0.273004 -0.952184 -0.137168 0 
0.0745501 0.255937 0.0104437 0.323509 -0.944748 -0.052844 0 
0.0744475 0.255935 0.010541 0.392358 -0.91979 0.0064321 0 
0.0747033 0.25585 0.0107063 -0.804594 -0.253673 -0.536915 0 
0.0748555 0.255783 0.010557 -0.815884 -0.249255 -0.521732 0 
0.0746988 0.255729 0.0102877 -0.84586 -0.203549 -0.493041 0 
0.0750112 0.255857 0.0104144 -0.823801 -0.259086 -0.504209 0 
0.0743266 0.255849 0.0109257 -0.728382 -0.261836 -0.633168 0 
0.0743954 0.255844 0.0109981 -0.728382 -0.261836 -0.633168 0 
0.0735158 0.255654 0.0109911 -0.0739728 -0.723773 -0.686062 0 
0.0739692 0.255913 0.0112695 -0.587051 -0.361388 -0.724411 0 
0.07381 0.255698 0.0114053 -0.309051 -0.508746 -0.803533 0 
0.0739813 0.255695 0.0113805 -0.476951 -0.411839 -0.77647 0 
0.0741406 0.25591 0.0112446 -0.637227 -0.311354 -0.704983 0 
0.0744268 0.255691 0.0112335 -0.700848 -0.237816 -0.672499 0 
0.0744424 0.255614 0.0113512 -0.689415 -0.258332 -0.676736 0 
0.0741877 0.255679 0.0115978 -0.612606 -0.410064 -0.675693 0 
0.0743712 0.255458 0.0116839 -0.730717 -0.264706 -0.629272 0 
0.0744895 0.255383 0.0117043 -0.730717 -0.264706 -0.629272 0 
0.0747347 0.255697 0.0109417 -0.749953 -0.292626 -0.593246 0 
0.0749025 0.255552 0.0109101 -0.791752 -0.230863 -0.565537 0 
0.0745947 0.255546 0.0112019 -0.729158 -0.220153 -0.647967 0 
0.0748879 0.25561 0.0112042 -0.756712 -0.23657 -0.609443 0 
0.0747702 0.255062 0.0108628 -0.733053 -0.223511 -0.642398 0 
0.0747478 0.255459 0.0114645 -0.710965 -0.282788 -0.643863 0 
0.0753034 0.25594 0.0100049 0.351699 -0.932069 -0.0869218 0 
0.0754607 0.255372 0.00995316 0.550473 -0.833413 -0.0490243 0 
0.0755573 0.255072 0.0102543 0.55188 -0.833922 0.00135597 0 
0.0754355 0.255005 0.0102271 0.480755 -0.873208 -0.0798922 0 
0.0758121 0.255006 0.0100077 -0.537843 -0.628889 -0.561448 0 
0.0755842 0.254796 0.0100711 -0.577291 -0.587448 -0.567133 0 
0.0758547 0.254654 0.00994229 -0.510327 -0.618119 -0.597908 0 
0.0749936 0.25515 0.0103808 -0.82928 -0.204667 -0.520006 0 
0.0750215 0.254856 0.0106095 -0.788782 -0.190711 -0.584339 0 
0.074931 0.254636 0.0108178 -0.770552 -0.178524 -0.611864 0 
0.0737038 0.255554 0.0114959 0.115359 -0.87587 -0.468555 0 
0.0738787 0.255693 0.0114777 -0.213553 -0.709247 -0.671836 0 
0.0737726 0.255549 0.0115683 0.065632 -0.864388 -0.498524 0 
0.0735446 0.255339 0.0116317 0.0319119 -0.822771 -0.567476 0 
0.0736134 0.255334 0.0117041 0.0319119 -0.822771 -0.567476 0 
0.0735411 0.255198 0.011625 0.0724593 -0.833993 -0.546997 0 
0.074085 0.255677 0.011695 -0.544736 -0.487748 -0.682177 0 
0.0740284 0.255464 0.0117336 -0.0816372 -0.826397 -0.557138 0 
0.0742651 0.255315 0.0117745 0.512172 -0.858197 -0.0343279 0 
0.0741816 0.255377 0.0119962 0.665072 -0.74108 0.0920869 0 
0.0743834 0.25524 0.0117949 -0.727543 -0.199263 -0.656487 0 
0.0745896 0.255224 0.0120122 -0.826572 -0.134079 -0.546628 0 
0.0743191 0.255367 0.012141 0.39454 -0.900361 -0.183541 0 
0.0738196 0.255319 0.0119214 0.128404 -0.898826 -0.419076 0 
0.0736604 0.255104 0.0120573 0.155671 -0.918601 -0.363233 0 
0.0740224 0.255162 0.012132 0.144534 -0.913509 -0.380278 0 
0.0741599 0.255152 0.0122768 0.230649 -0.929671 -0.28725 0 
0.0740729 0.255073 0.0124918 0.417825 -0.889515 -0.184891 0 
0.0745806 0.254981 0.011175 -0.706122 -0.123907 -0.697165 0 
0.074658 0.254617 0.0113517 -0.703377 -0.0800947 -0.70629 0 
0.0744988 0.254402 0.0114876 -0.754735 0.199102 -0.625087 0 
0.073435 0.255055 0.0117155 0.160434 -0.885998 -0.43505 0 
0.0734826 0.254202 0.0117476 0.387018 -0.91414 -0.120683 0 
0.0736569 0.254963 0.0120505 0.204272 -0.918509 -0.338548 0 
0.0734021 0.255028 0.0122971 0.208529 -0.923484 -0.322014 0 
0.0738667 0.255088 0.0122745 0.277243 -0.920792 -0.27437 0 
0.0737075 0.254873 0.0124104 0.300526 -0.924367 -0.235009 0 
0.0735553 0.254941 0.0125596 0.296859 -0.922128 -0.2481 0 
0.0734492 0.254798 0.0126502 0.299477 -0.915793 -0.267649 0 
0.074202 0.254197 0.0114786 0.705013 -0.538343 0.461675 0 
0.0742596 0.254391 0.0118519 0.655354 -0.742334 0.139469 0 
0.0741535 0.254247 0.0119424 0.442343 -0.891663 -0.0962828 0 
0.0736889 0.254187 0.0119649 0.416299 -0.908409 -0.0385708 0 
0.0739741 0.253988 0.011542 0.554339 -0.789894 0.262251 0 
0.0747596 0.254639 0.0108426 -0.726569 -0.12383 -0.675843 0 
0.0747718 0.254421 0.0109536 -0.748879 -0.0587075 -0.660102 0 
0.0747223 0.25449 0.0110056 -0.735815 -0.0859665 -0.671704 0 
0.0749578 0.25436 0.0106346 -0.742131 -0.143007 -0.654821 0 
0.0748674 0.25414 0.0108429 -0.747586 -0.0557473 -0.661821 0 
0.0746126 0.254206 0.0110895 -0.713468 0.169582 -0.679857 0 
0.0745099 0.254204 0.0111867 -0.701011 0.146233 -0.697996 0 
0.0751683 0.253864 0.0105376 -0.768018 -0.015277 -0.640246 0 
0.0744038 0.25406 0.0112773 -0.685219 0.176287 -0.70668 0 
0.0742411 0.253704 0.0114064 0.64468 -0.584083 0.493188 0 
0.074487 0.255222 0.0121095 -0.809312 -0.170302 -0.562148 0 
0.0739208 0.25514 0.0126411 0.389324 -0.894711 -0.218903 0 
0.0741014 0.254156 0.0123995 0.596986 -0.801983 -0.0207768 0 
0.0743956 0.2542 0.0128137 0.883903 -0.436871 0.166911 0 
0.0710696 0.253444 0.0185404 -0.632986 0.765781 -0.113613 0 
0.0712071 0.253433 0.0186852 -0.632986 0.765781 -0.113613 0 
0.0707076 0.253385 0.0184656 -0.692524 0.698666 -0.179657 0 
0.0706929 0.253442 0.0187598 -0.766903 0.583479 -0.26723 0 
0.0705868 0.253299 0.0188503 -0.75085 0.605423 -0.263983 0 
0.0709139 0.25337 0.0186829 -0.661209 0.733836 -0.155846 0 
0.071021 0.253493 0.0190042 -0.753462 0.604981 -0.257472 0 
0.0711697 0.253285 0.0188482 -0.661209 0.733836 -0.155846 0 
0.0708461 0.253355 0.0190223 -0.75085 0.605423 -0.263983 0 
0.0709149 0.25335 0.0190948 -0.794229 0.520466 -0.313553 0 
0.0711742 0.253406 0.0192668 -0.75085 0.605423 -0.263983 0 
0.0706904 0.253282 0.0191649 -0.835862 0.413996 -0.360475 0 
0.0705044 0.253342 0.0194839 -0.853171 0.404134 -0.32981 0 
0.0707976 0.253405 0.0194862 -0.845689 0.398615 -0.354846 0 
0.0709194 0.253472 0.0195133 -0.842157 0.393634 -0.368542 0 
0.0706914 0.253262 0.0195768 -0.851251 0.407794 -0.330267 0 
0.0707602 0.253257 0.0196492 -0.857123 0.364239 -0.364239 0 
0.0705054 0.253322 0.0198957 -0.856917 0.379647 -0.348655 0 
0.0702966 0.253177 0.0200835 -0.824369 0.486487 -0.289389 0 
0.0701444 0.253244 0.0202328 -0.825585 0.488484 -0.282478 0 
0.0699887 0.253171 0.0203754 -0.893188 0.350416 -0.281824 0 
0.070381 0.253095 0.0202737 -0.890887 0.353669 -0.285024 0 
0.0702749 0.252952 0.0203642 -0.892416 0.366766 -0.262825 0 
0.0703244 0.252882 0.0203122 -0.905657 0.337976 -0.256042 0 
0.070245 0.253286 0.0193119 -0.853171 0.404134 -0.32981 0 
0.0703982 0.253199 0.0195744 -0.850393 0.408873 -0.33114 0 
0.0701389 0.253142 0.0194024 -0.852687 0.399163 -0.337037 0 
0.0707071 0.253185 0.0196944 -0.855989 0.379236 -0.351373 0 
0.0704452 0.252968 0.0199275 -0.822591 0.491682 -0.285644 0 
0.0707496 0.252833 0.019629 -0.854418 0.398521 -0.333393 0 
0.0705409 0.252688 0.0198169 -0.838164 0.421432 -0.346232 0 
0.0706329 0.252266 0.0196994 0.0115845 0.922901 0.384864 0 
0.0733475 0.254776 0.0131593 0.414854 -0.881751 -0.224527 0 
0.0732944 0.254704 0.0132046 0.423581 -0.878373 -0.221451 0 
0.0731352 0.254489 0.0133404 0.338322 -0.91419 -0.223149 0 
0.0727733 0.254431 0.0132657 0.23111 -0.947688 -0.22017 0 
0.072976 0.254274 0.0134763 0.223364 -0.956317 -0.188588 0 
0.073485 0.254766 0.0133042 0.426033 -0.871637 -0.242372 0 
0.073432 0.254694 0.0133495 0.409073 -0.882109 -0.233543 0 
0.0735998 0.25455 0.0133179 0.522323 -0.832406 -0.185146 0 
0.0733258 0.254551 0.01344 0.396108 -0.890875 -0.222351 0 
0.0731858 0.2544 0.0137003 0.326106 -0.927932 -0.180548 0 
0.0732929 0.254524 0.0140215 -0.206746 -0.952651 -0.222961 0 
0.0735321 0.254535 0.0136573 0.629214 -0.768381 -0.11696 0 
0.0736357 0.254518 0.0139719 -0.22003 -0.947086 -0.233697 0 
0.0733966 0.254506 0.0143361 0.142944 -0.978236 -0.150402 0 
0.0736479 0.2543 0.0140829 0.101782 -0.971324 -0.214872 0 
0.0729102 0.254221 0.0146394 0.642232 -0.764697 0.0526886 0 
0.0727546 0.254147 0.0147819 0.945726 0.15018 0.288182 0 
0.0729275 0.254324 0.0139401 0.619468 -0.784473 -0.0293653 0 
0.0730912 0.254661 0.0142228 -0.202674 -0.96368 -0.173907 0 
0.0729623 0.254312 0.0141822 0.227117 -0.966208 -0.121899 0 
0.072932 0.254446 0.0143587 0.366274 -0.925822 -0.093258 0 
0.072697 0.253954 0.0144086 0.277611 -0.95679 -0.0865114 0 
0.0732758 0.25442 0.0147208 0.677527 -0.734343 0.0411914 0 
0.0730366 0.254409 0.0150851 0.934216 0.196898 0.297441 0 
0.0733916 0.254185 0.0151464 0.944156 0.173528 0.280104 0 
0.0729305 0.254265 0.0151756 0.900412 0.300137 0.314922 0 
0.0732732 0.254259 0.015126 0.934216 0.196898 0.297441 0 
0.0731913 0.254502 0.0145307 0.28258 -0.954522 -0.0950615 0 
0.0736524 0.254421 0.0145014 0.361347 -0.925867 -0.110449 0 
0.0734887 0.254085 0.0142187 0.137117 -0.979587 -0.147 0 
0.0732384 0.254272 0.0148838 0.953354 0.131268 0.271819 0 
0.0734341 0.253833 0.0150809 0.933898 0.248571 0.256997 0 
0.0735357 0.253854 0.0145718 0.651358 -0.75877 0.00137708 0 
0.0736202 0.253772 0.014762 0.68741 0.68741 0.23438 0 
0.0723147 0.254253 0.0157593 0.73697 0.54329 0.402133 0 
0.0722121 0.254251 0.0158566 0.734813 0.540835 0.409325 0 
0.0725209 0.254238 0.0159766 0.643337 0.688941 0.333884 0 
0.0720644 0.25444 0.0164244 0.248719 0.928078 0.277144 0 
0.0719583 0.254297 0.016515 0.163863 0.946613 0.277619 0 
0.0720008 0.253945 0.0164495 -0.710974 0.582306 -0.394253 0 
0.0718451 0.253871 0.0165921 0.321424 0.872872 0.367124 0 
0.0726216 0.254279 0.0150556 0.942911 0.159193 0.292534 0 
0.072573 0.254329 0.0155195 0.754698 0.539535 0.373274 0 
0.0728662 0.254392 0.0155218 0.77796 0.537354 0.32562 0 
0.0731367 0.25425 0.0153929 0.819004 0.478147 0.317187 0 
0.0727262 0.254242 0.015782 0.707098 0.615649 0.347834 0 
0.0732703 0.253916 0.0119288 0.34547 -0.938422 -0.00376876 0 
0.0736717 0.254083 0.0126642 0.448726 -0.884631 -0.126783 0 
0.0729599 0.253749 0.0126257 0.285242 -0.957865 -0.0336312 0 
0.0732734 0.253857 0.0131643 0.296473 -0.945762 -0.132809 0 
0.073428 0.25395 0.0126099 0.342731 -0.92909 -0.139019 0 
0.073736 0.253957 0.0123181 0.453725 -0.886509 -0.090745 0 
0.0735767 0.253742 0.0124539 0.400365 -0.914545 -0.0575775 0 
0.0737025 0.254552 0.0132206 0.541843 -0.818077 -0.192757 0 
0.0737293 0.254277 0.0130375 0.473584 -0.863073 -0.175565 0 
0.073886 0.254331 0.0133067 0.644487 -0.756572 -0.11061 0 
0.0737495 0.254321 0.0135737 0.854343 -0.519624 0.00944771 0 
0.0734856 0.254144 0.0129832 0.392477 -0.899366 -0.192618 0 
0.0738765 0.253887 0.0136984 -0.185202 -0.950345 -0.250091 0 
0.0737435 0.254019 0.0139721 0.0696256 -0.97598 -0.206434 0 
0.0735302 0.253752 0.0137414 0.0757281 -0.972052 -0.222219 0 
0.0736374 0.253876 0.0140627 0.473912 -0.876104 -0.0885948 0 
0.0734251 0.253589 0.0142438 0.64697 -0.762049 -0.0266647 0 
0.0736627 0.25342 0.0146965 0.721154 0.652023 0.2341 0 
0.073366 0.253216 0.0146875 0.6673 0.708123 0.230807 0 
0.0740164 0.25444 0.0153999 0.68033 0.702125 0.210171 0 
0.0732935 0.254304 0.0156622 0.587592 0.781913 0.208202 0 
0.0737465 0.25396 0.0152077 0.679345 0.691955 0.244312 0 
0.0727272 0.254222 0.0161939 0.455466 0.85797 0.237568 0 
0.0728117 0.25414 0.016384 0.35262 0.915099 0.195583 0 
0.0722975 0.254149 0.0164585 0.381343 0.873595 0.30234 0 
0.0724497 0.254082 0.0163093 0.406907 0.878379 0.250751 0 
0.0725184 0.254077 0.0163817 0.36808 0.903469 0.219684 0 
0.0727055 0.253997 0.0164746 0.347408 0.916415 0.198723 0 
0.0725038 0.254134 0.0166759 0.254009 0.939695 0.229025 0 
0.0725195 0.254057 0.0167936 0.253216 0.935919 0.244822 0 
0.0722601 0.254001 0.0166215 0.268149 0.929301 0.253962 0 
0.0723976 0.253991 0.0167664 0.245715 0.939826 0.237386 0 
0.0719523 0.253995 0.0169134 0.0926616 0.951413 0.293646 0 
0.0724021 0.254112 0.017185 0.149225 0.937787 0.313508 0 
0.0722161 0.254172 0.0175039 0.117258 0.939409 0.322121 0 
0.0731413 0.254372 0.0158115 0.524511 0.825534 0.208284 0 
0.0729664 0.254233 0.0158296 0.515556 0.827644 0.221827 0 
0.0730351 0.254228 0.015902 0.529743 0.818414 0.222645 0 
0.0729325 0.254226 0.0159993 0.51877 0.829119 0.208421 0 
0.0728759 0.254013 0.0160379 0.503608 0.835289 0.220614 0 
0.0731388 0.254211 0.0162166 0.232813 0.971475 0.0450999 0 
0.0736404 0.253817 0.0152982 0.627763 0.743609 0.230128 0 
0.0737178 0.253453 0.0154749 0.498172 0.840382 0.213502 0 
0.0736874 0.253587 0.0156514 0.256121 0.957499 0.132658 0 
0.0735272 0.253391 0.0153753 0.633448 0.739804 0.22679 0 
0.0736759 0.253183 0.0152194 0.669669 0.710256 0.216979 0 
0.0737072 0.253029 0.0154548 0.520215 0.841481 0.145896 0 
0.0735742 0.253161 0.0157285 0.400545 0.906497 0.133515 0 
0.072923 0.253783 0.016391 0.387409 0.902994 0.185784 0 
0.0728203 0.253781 0.0164883 0.3744 0.908027 0.187917 0 
0.0732203 0.253366 0.016079 0.381152 0.91941 0.0969957 0 
0.0732887 0.252758 0.0154186 0.449234 0.857353 0.251267 0 
0.0736708 0.252861 0.0160296 0.567476 0.822771 0.0319119 0 
0.0734195 0.253068 0.0162829 0.459947 0.885363 0.0676799 0 
0.0738726 0.252724 0.0158283 0.728971 0.684025 -0.0266868 0 
0.0715756 0.253994 0.0171328 0.0771219 0.945071 0.317638 0 
0.071888 0.254121 0.0172595 0.0312466 0.956146 0.291218 0 
0.0715417 0.253986 0.0173025 0.00121753 0.958193 0.286119 0 
0.0719082 0.254166 0.0177958 0.0136162 0.954369 0.298318 0 
0.0720943 0.254106 0.0174768 0.105092 0.943164 0.315275 0 
0.0718506 0.253973 0.0174225 0.0338244 0.955853 0.291892 0 
0.0712834 0.253911 0.0175423 -0.43925 0.898286 0.0118716 0 
0.0714896 0.253895 0.0177596 0.0337996 0.955152 0.294182 0 
0.0716418 0.253828 0.0176103 0.00121753 0.958193 0.286119 0 
0.071795 0.253741 0.0178729 0.0185933 0.955694 0.293774 0 
0.0717384 0.253528 0.0179114 0.0185321 0.957492 0.287865 0 
0.0720568 0.253957 0.0176397 0.0798515 0.946436 0.312861 0 
0.0720038 0.253886 0.017685 0.0798515 0.946436 0.312861 0 
0.0722631 0.253942 0.0178571 0.110956 0.921891 0.371222 0 
0.072203 0.253588 0.0178889 -0.0582975 0.991058 0.120024 0 
0.0718446 0.253671 0.0178209 0.0339112 0.953281 0.300177 0 
0.07215 0.253516 0.0179342 0.143238 0.903392 0.404186 0 
0.0711772 0.253767 0.0176328 -0.326203 0.941631 0.0832016 0 
0.0711555 0.253542 0.0179136 -0.428936 0.902244 0.0443727 0 
0.0713835 0.253752 0.0178502 0.0314533 0.952405 0.303209 0 
0.0712243 0.253537 0.017986 -0.469946 0.882646 0.00931904 0 
0.0716358 0.253526 0.0180087 0.0161031 0.955037 0.296049 0 
0.0709538 0.253679 0.0181148 -0.477411 0.878597 0.0120356 0 
0.071153 0.253381 0.0183187 -0.499448 0.866335 0.00401701 0 
0.0714305 0.253521 0.0182033 0.00123042 0.951115 0.308835 0 
0.0717384 0.253528 0.0179114 0.0185321 0.957492 0.287865 0 
0.0716672 0.253372 0.0182441 0.0345423 0.942876 0.33135 0 
0.0712218 0.253376 0.0183911 -0.540781 0.840757 -0.0261446 0 
0.0715837 0.253434 0.0184659 0.0622948 0.929121 0.364491 0 
0.071428 0.253361 0.0186084 -0.584938 0.808045 -0.0700782 0 
0.0715812 0.253273 0.0188709 0.0428688 0.934019 0.354641 0 
0.069879 0.252886 0.0204592 0.0808894 0.903494 0.420899 0 
0.0700165 0.252876 0.0206041 0.0612693 0.899978 0.431608 0 
0.0698259 0.252815 0.0205045 0.0752629 0.901787 0.425578 0 
0.0698573 0.252661 0.0207399 0.731678 0.444292 0.516964 0 
0.0699034 0.25245 0.0206812 0.731678 0.444292 0.516964 0 
0.0691395 0.252024 0.0210998 0.935464 -0.053642 0.349327 0 
0.0697218 0.252632 0.0214187 -0.177829 0.914753 0.362772 0 
0.0696541 0.252618 0.0217581 0.93486 0.0590024 0.350081 0 
0.0697228 0.252612 0.0218306 0.93486 0.0590024 0.350081 0 
0.0690565 0.252689 0.0220544 0.937703 0.0864549 0.336509 0 
0.0692931 0.25254 0.0220953 0.943592 0.0292883 0.329812 0 
0.0692582 0.252552 0.0218531 0.934752 0.064602 0.349378 0 
0.0695707 0.25268 0.0219799 -0.17489 0.914265 0.365422 0 
0.0695636 0.252397 0.0219664 0.941033 0.0241944 0.337448 0 
0.0694114 0.252465 0.0221157 0.943592 0.0292883 0.329812 0 
0.0695105 0.252326 0.0220117 0.942953 0.0113004 0.332733 0 
0.0701809 0.25259 0.0205658 0.112396 0.874983 0.470926 0 
0.0700105 0.252574 0.0210025 0.73736 0.447035 0.506419 0 
0.0699261 0.252656 0.0208123 0.735849 0.448124 0.507653 0 
0.0699731 0.252425 0.0211655 0.71335 0.490532 0.500509 0 
0.069459 0.252435 0.02124 -0.164122 0.906238 0.389611 0 
0.0698655 0.252102 0.022073 0.944762 0.0138013 0.327467 0 
0.0702159 0.251756 0.0217157 0.908977 0.154569 0.38713 0 
0.0700141 0.251893 0.021917 0.931279 0.0786058 0.355725 0 
0.0702427 0.251481 0.0215326 0.908247 0.148314 0.391267 0 
0.0688927 0.252353 0.0217717 0.930596 0.0985973 0.352519 0 
0.0689964 0.252335 0.0220862 0.230649 -0.929671 -0.28725 0 
0.0692365 0.252327 0.0221338 0.189487 -0.927783 -0.321425 0 
0.0694044 0.252182 0.0221022 0.949144 -0.00870774 0.314723 0 
0.0691764 0.251973 0.0221657 0.940625 0.00375749 0.339427 0 
0.0692452 0.251968 0.0222381 0.936775 0.0165238 0.349543 0 
0.0690434 0.252105 0.0224394 0.924989 0.00383813 0.379975 0 
0.0687199 0.252175 0.0226135 0.914545 0.0575775 0.400365 0 
0.0688867 0.252051 0.0221701 0.920407 0.0881096 0.380905 0 
0.0689261 0.25216 0.0228308 0.914812 0.0275625 0.402937 0 
0.069181 0.252094 0.0225842 0.926239 0.00638785 0.376883 0 
0.0689949 0.252155 0.0229032 0.914812 0.0275625 0.402937 0 
0.0694975 0.251741 0.0223966 0.925411 0.056928 0.374666 0 
0.0692922 0.251737 0.0225912 0.91892 0.0328655 0.393072 0 
0.0696047 0.251865 0.022718 0.927679 0.0193535 0.372878 0 
0.0686364 0.252238 0.0228352 0.92675 -0.00897268 0.375571 0 
0.0687931 0.252292 0.0231045 -0.0680614 0.954144 0.291508 0 
0.0690804 0.252053 0.0235052 0.930877 -0.0594177 0.360467 0 
0.0685637 0.251901 0.0239848 0.950131 -0.199243 0.239905 0 
0.0688716 0.251908 0.023693 0.94708 -0.152668 0.282368 0 
0.0688185 0.251836 0.0237383 0.946804 -0.189361 0.260201 0 
0.0692968 0.251859 0.0230098 0.112744 -0.960268 -0.255294 0 
0.0692856 0.252057 0.0233106 0.913949 0.0169491 0.405475 0 
0.0692105 0.251158 0.0229037 0.927969 -0.142445 0.344358 0 
0.0691801 0.251292 0.0230802 0.918995 -0.0490661 0.391203 0 
0.0697868 0.251061 0.0216594 0.907546 0.118497 0.402889 0 
0.0696906 0.251963 0.0220911 0.949144 0.00870774 0.314723 0 
0.0697593 0.251958 0.0221635 0.947701 0.0316322 0.317587 0 
0.0696375 0.251892 0.0221364 0.953933 0.00122456 0.300017 0 
0.0698054 0.251747 0.0221048 0.953933 0.00122456 0.300017 0 
0.0700567 0.251541 0.0218515 0.924159 0.110899 0.365556 0 
0.0700916 0.251528 0.0220937 0.914691 0.150341 0.37515 0 
0.0698975 0.251326 0.0219874 0.896696 0.186872 0.401268 0 
0.0699055 0.251589 0.0224127 0.930941 0.0675363 0.358869 0 
0.0696957 0.251463 0.0221887 0.937218 0.0427776 0.34611 0 
0.0695896 0.25132 0.0222792 0.921846 0.0600334 0.382879 0 
0.0697383 0.251111 0.0221232 0.928023 0.0932076 0.360673 0 
0.0697463 0.251374 0.0225485 0.922711 0.0434372 0.383037 0 
0.0702054 0.251332 0.0216956 0.744869 0.432452 0.50809 0 
0.0694304 0.251105 0.022415 0.932879 -0.251863 0.257491 0 
0.0695871 0.251159 0.0226843 0.931719 -0.0565076 0.358758 0 
0.0694879 0.251298 0.0227883 0.93196 -0.0619549 0.357229 0 
0.0691225 0.251099 0.0227069 0.91219 -0.301154 0.277876 0 
0.0683619 0.252038 0.0241861 0.957409 -0.217048 0.190416 0 
0.0681102 0.251643 0.0237065 0.951339 -0.220581 0.215168 0 
0.0683053 0.251826 0.0242247 0.950212 -0.163086 0.26552 0 
0.0681042 0.251341 0.0241049 0.952539 -0.148291 0.265856 0 
0.0689982 0.250871 0.0230848 0.921235 -0.212155 0.326063 0 
0.0688575 0.251343 0.0236661 0.938545 -0.169021 0.300939 0 
0.0689678 0.251005 0.0232613 0.927517 -0.234365 0.291181 0 
0.0689991 0.250852 0.0234967 0.9289 -0.212844 0.303055 0 
0.0686913 0.250845 0.0237885 0.945072 -0.212607 0.24827 0 
0.0686493 0.250575 0.0235329 0.925242 -0.326307 0.193524 0 
0.068086 0.251257 0.0243923 0.941196 -0.13407 0.310121 0 
0.0685321 0.25063 0.0239244 0.943615 -0.262344 0.201909 0 
0.0692482 0.251909 0.0234736 0.925898 -0.0379788 0.37586 0 
0.069089 0.251694 0.0236094 0.941947 -0.116571 0.314876 0 
0.0690247 0.251821 0.0239556 0.944863 -0.215929 0.246187 0 
0.069136 0.251463 0.0239625 0.944292 -0.202054 0.259783 0 
0.0684777 0.251803 0.0246117 0.950007 -0.143372 0.277365 0 
0.0676542 0.251625 0.025795 0.879204 -0.266016 0.395266 0 
0.0680905 0.251378 0.0248109 0.920483 -0.116952 0.372871 0 
0.0682968 0.251363 0.0250282 0.922232 -0.155338 0.354059 0 
0.0685031 0.251347 0.0252455 0.914133 -0.271769 0.300836 0 
0.0680001 0.251158 0.0250192 0.908864 -0.151242 0.388705 0 
0.0678827 0.251213 0.0254106 0.89049 -0.266998 0.368427 0 
0.0681648 0.251475 0.0257137 0.893385 -0.26311 0.364192 0 
0.0683023 0.251465 0.0258586 0.887982 -0.258186 0.380564 0 
0.0682154 0.251386 0.0260736 0.872769 -0.257761 0.414528 0 
0.0687805 0.25189 0.0270917 0.391052 -0.915198 0.0974199 0 
0.0686855 0.251548 0.0268814 0.500582 -0.852898 0.148266 0 
0.0687239 0.251677 0.0271303 0.398615 -0.897246 0.189886 0 
0.0674419 0.251339 0.0259761 0.85212 -0.3275 0.40821 0 
0.0677508 0.251325 0.0260961 0.857493 -0.309436 0.411042 0 
0.0676977 0.251254 0.0261414 0.85212 -0.3275 0.40821 0 
0.067904 0.251238 0.0263587 0.814866 -0.371553 0.444907 0 
0.0675385 0.251039 0.0262772 0.812156 -0.384537 0.438787 0 
0.0679353 0.251085 0.0265941 0.792493 -0.414808 0.447089 0 
0.0682847 0.250759 0.025825 0.873103 -0.283948 0.396313 0 
0.0678282 0.250961 0.0262728 0.813279 -0.364464 0.45359 0 
0.0677751 0.250889 0.0263181 0.811462 -0.371455 0.451166 0 
0.0671765 0.250981 0.0262025 0.791487 -0.428924 0.435399 0 
0.0672079 0.250827 0.0264379 0.767844 -0.487442 0.415712 0 
0.0670026 0.250823 0.0266325 0.715557 -0.621872 0.318205 0 
0.0674323 0.250896 0.0263678 0.785548 -0.422738 0.451893 0 
0.0675698 0.250885 0.0265126 0.790221 -0.418542 0.44763 0 
0.0672766 0.250822 0.0265104 0.754906 -0.529902 0.386421 0 
0.0674141 0.250812 0.0266552 0.779249 -0.487638 0.393675 0 
0.0669157 0.250744 0.0268474 0.751108 -0.577404 0.320065 0 
0.0670714 0.250818 0.0267049 0.659817 -0.716238 0.227253 0 
0.067308 0.250668 0.0267458 0.704815 -0.633524 0.319192 0 
0.0670644 0.250535 0.0266915 0.758394 -0.537534 0.368641 0 
0.0675143 0.250653 0.026963 0.704639 -0.653509 0.276423 0 
0.0671715 0.250659 0.0270128 0.702604 -0.674437 0.226899 0 
0.0677185 0.250677 0.0263567 0.799185 -0.403613 0.445421 0 
0.0677115 0.250394 0.0263432 0.792171 -0.404959 0.456588 0 
0.0673505 0.250316 0.0266803 0.778506 -0.453451 0.433948 0 
0.0687169 0.251814 0.0242474 0.949517 -0.177442 0.258713 0 
0.0686177 0.251953 0.0243514 0.954503 -0.170017 0.244985 0 
0.068729 0.251596 0.0243584 0.945929 -0.141284 0.291987 0 
0.0688655 0.251606 0.0240914 0.946657 -0.178435 0.268333 0 
0.068676 0.251525 0.0244037 0.949704 -0.149105 0.275374 0 
0.0682993 0.251524 0.0246231 0.938621 -0.137193 0.316496 0 
0.0684672 0.251379 0.0245915 0.942892 -0.150591 0.297113 0 
0.0686113 0.251049 0.0240169 0.949578 -0.210565 0.2323 0 
0.0689621 0.251306 0.0243925 0.948662 -0.154746 0.275852 0 
0.068902 0.250951 0.0244244 0.949135 -0.129488 0.28701 0 
0.0689596 0.251145 0.0247977 0.93551 -0.135205 0.326404 0 
0.0689192 0.251055 0.0237251 0.938086 -0.178223 0.297038 0 
0.0691255 0.25104 0.0239424 0.945677 -0.155584 0.285462 0 
0.0687488 0.251039 0.0241618 0.949033 -0.14363 0.280549 0 
0.0686958 0.250967 0.0242071 0.952522 -0.139881 0.270436 0 
0.0681932 0.25138 0.0247136 0.921754 -0.122625 0.367875 0 
0.0682619 0.251375 0.024786 0.921193 -0.113948 0.372047 0 
0.0686437 0.250876 0.0246642 0.9307 -0.150737 0.333282 0 
0.0685533 0.250656 0.0248725 0.918448 -0.11429 0.37867 0 
0.0685351 0.250572 0.0251599 0.917755 -0.158815 0.36401 0 
0.0685477 0.250554 0.0240421 0.951866 -0.198474 0.233578 0 
0.0686053 0.250747 0.0244154 0.934017 -0.106475 0.34099 0 
0.0684886 0.25018 0.0244857 0.947086 -0.22003 0.233697 0 
0.0686331 0.250452 0.024644 0.933979 -0.112186 0.33926 0 
0.0686988 0.250908 0.0254426 0.904299 -0.266143 0.333782 0 
0.0684551 0.250775 0.0253883 0.902867 -0.266589 0.337286 0 
0.06871 0.25071 0.0251418 0.920487 -0.158318 0.357267 0 
0.0688747 0.251027 0.0258363 0.900241 -0.25195 0.355087 0 
0.0685623 0.250899 0.0257096 0.88726 -0.267824 0.375552 0 
0.0684244 0.250307 0.0248319 0.92348 -0.0965642 0.371296 0 
0.0682651 0.250092 0.0249677 0.917775 -0.0998473 0.384344 0 
0.0680103 0.250157 0.0252142 0.886806 -0.0938641 0.452509 0 
0.068159 0.249948 0.0250582 0.899841 -0.113355 0.421232 0 
0.0684355 0.250108 0.024531 0.950967 -0.143113 0.274189 0 
0.0684739 0.250237 0.0247799 0.928688 -0.0959779 0.358227 0 
0.0683678 0.250094 0.0248704 0.919384 -0.0740354 0.38633 0 
0.0682959 0.25056 0.0255241 0.893929 -0.203365 0.399415 0 
0.0681367 0.250345 0.02566 0.869289 -0.239544 0.432384 0 
0.0680574 0.249927 0.0255674 0.864499 -0.0801243 0.496208 0 
0.068115 0.25012 0.0259407 0.832753 -0.284848 0.474747 0 
0.0676975 0.249829 0.0263163 0.811293 -0.223221 0.540349 0 
0.0693082 0.252245 0.0282729 0.496673 -0.697349 -0.51674 0 
0.069824 0.251594 0.0282892 0.496673 -0.697349 -0.51674 0 
0.0789533 0.25847 0.00105967 -0.899651 -0.171294 -0.401604 0 
0.078374 0.257803 0.00197627 -0.921478 0.134411 -0.364434 0 
0.0784696 0.257523 0.00186557 -0.916618 0.0972794 -0.387747 0 
0.0790504 0.25837 0.000131972 -0.875627 -0.324363 -0.357865 0 
0.0793903 0.2576 -0.000245444 -0.830934 -0.367377 -0.417832 0 
0.0794159 0.258569 0.000213422 -0.876674 -0.369206 -0.308431 0 
0.0792567 0.258354 0.000349261 -0.881503 -0.303914 -0.361371 0 
0.0792688 0.258136 0.000460252 -0.881939 -0.259042 -0.393803 0 
0.0794584 0.258217 0.000147983 -0.864732 -0.339442 -0.37016 0 
0.0795055 0.257987 0.000501119 -0.882577 -0.27214 -0.383402 0 
0.079959 0.257843 -0.00118224 -0.70767 -0.491206 -0.507857 0 
0.0803139 0.257619 -0.00112095 -0.718715 -0.473057 -0.509574 0 
0.0804313 0.257564 -0.00151234 -0.772736 -0.377458 -0.510298 0 
0.080775 0.257538 -0.00115021 -0.779939 -0.360096 -0.511885 0 
0.0805313 0.257405 -0.00120452 -0.788461 -0.345253 -0.509047 0 
0.0802235 0.257399 -0.000912696 -0.737496 -0.450417 -0.503213 0 
0.0801739 0.257468 -0.000860684 -0.74374 -0.440307 -0.502972 0 
0.080221 0.257238 -0.000507563 -0.75765 -0.420553 -0.4991 0 
0.0802098 0.257436 -0.000206709 -0.789298 -0.395456 -0.469705 0 
0.0805097 0.25718 -0.000923812 0.326414 -0.938944 0.108805 0 
0.0803009 0.257034 -0.000735998 -0.741252 -0.419112 -0.5243 0 
0.080213 0.256975 -0.000932842 0.327703 -0.933747 0.14397 0 
0.0802104 0.256814 -0.000527732 -0.755895 -0.396723 -0.520801 0 
0.078738 0.258242 5.24521e-006 -0.856764 -0.325725 -0.399823 0 
0.0788912 0.258155 0.000267811 -0.880581 -0.262524 -0.394536 0 
0.0792081 0.258404 0.000813104 -0.887834 -0.22974 -0.39871 0 
0.0792046 0.258263 0.000806384 -0.878645 -0.246979 -0.408637 0 
0.0790185 0.258323 0.00112537 -0.89342 -0.190927 -0.40663 0 
0.07951 0.258108 0.00091967 -0.880605 -0.240709 -0.408158 0 
0.0795965 0.257585 -2.81706e-005 -0.854418 -0.333393 -0.398521 0 
0.0796436 0.257354 0.000324957 -0.864161 -0.308519 -0.397545 0 
0.0797958 0.257287 0.000175692 -0.830934 -0.367377 -0.417832 0 
0.0793043 0.257502 0.000381365 -0.86618 -0.288727 -0.407884 0 
0.0797897 0.256985 0.000574097 -0.860091 -0.318495 -0.398504 0 
0.0796906 0.257124 0.00067807 -0.862003 -0.2955 -0.411863 0 
0.0795314 0.256909 0.000813909 -0.862456 -0.289528 -0.415143 0 
0.0796836 0.256842 0.000664636 -0.856764 -0.325725 -0.399823 0 
0.0801507 0.257063 0.000236958 -0.830934 -0.367377 -0.417832 0 
0.0799384 0.256776 0.000418074 -0.827993 -0.372043 -0.419538 0 
0.0787763 0.258773 0.00221577 -0.88885 -0.244842 -0.387295 0 
0.079473 0.258562 0.00181552 -0.932327 -0.0511403 -0.357982 0 
0.0792597 0.258295 0.00158479 -0.91557 -0.120506 -0.38368 0 
0.0790625 0.258554 0.00220463 -0.93874 -0.034673 -0.342878 0 
0.07875 0.258426 0.00207788 -0.919694 -0.134963 -0.368712 0 
0.0785559 0.258224 0.00197158 -0.920151 -0.0685076 -0.385523 0 
0.0788684 0.258351 0.00209831 -0.924588 0.00897658 -0.380863 0 
0.0787622 0.258208 0.00218888 -0.922075 0.0909853 -0.376163 0 
0.0791015 0.258061 0.00213248 -0.919544 0.0600573 -0.388371 0 
0.0790414 0.257707 0.00216431 -0.898814 0.0727285 -0.432254 0 
0.0785297 0.257877 0.0018337 -0.919179 0.10548 -0.379452 0 
0.0785768 0.257646 0.00218684 -0.904038 0.113179 -0.412197 0 
0.0789352 0.257563 0.00225485 -0.90311 0.086864 -0.420532 0 
0.0803064 0.257136 9.44138e-005 -0.799624 -0.387745 -0.458537 0 
0.0787244 0.257457 0.001619 -0.914515 0.0438011 -0.402174 0 
0.0793984 0.257041 0.00108762 -0.870269 -0.245847 -0.426839 0 
0.0793873 0.257239 0.00138848 -0.884565 -0.154402 -0.440118 0 
0.0793767 0.256816 0.00136831 -0.881476 -0.202282 -0.426711 0 
0.0793722 0.256694 0.000949726 -0.860973 -0.269721 -0.431249 0 
0.0805238 0.256923 1.08406e-005 -0.7912 -0.357886 -0.495904 0 
0.0782113 0.257447 0.00210537 -0.906974 0.142464 -0.39636 0 
0.0784176 0.257431 0.00232267 -0.884864 0.102695 -0.45439 0 
0.0785743 0.257486 0.00259197 -0.89822 0.0957917 -0.42898 0 
0.0786804 0.257629 0.00250142 -0.892536 0.105087 -0.438562 0 
0.0782088 0.257286 0.00251053 -0.8915 0.0845746 -0.445057 0 
0.0783847 0.257405 0.00290423 -0.880923 0.0735258 -0.467513 0 
0.0780758 0.257418 0.00278421 -0.881325 0.0969879 -0.46245 0 
0.0782255 0.25719 0.00304007 -0.893333 0.113953 -0.434708 0 
0.0786895 0.257872 0.00333854 -0.894985 0.113805 -0.431335 0 
0.0785788 0.257607 0.00301053 -0.887631 0.0908599 -0.451504 0 
0.0786213 0.257255 0.0029451 -0.877911 0.0565061 -0.475478 0 
0.0776087 0.257197 0.00321187 -0.900412 0.314922 -0.300137 0 
0.0776365 0.256902 0.00344058 -0.848034 0.477873 -0.229075 0 
0.0781072 0.257264 0.00301964 -0.901842 0.155293 -0.403193 0 
0.0781724 0.257118 0.00308534 -0.902463 0.182796 -0.39006 0 
0.0779479 0.257049 0.00315548 -0.899186 0.336269 -0.279977 0 
0.0780167 0.257044 0.00322792 -0.900412 0.314922 -0.300137 0 
0.0777887 0.256835 0.00329131 -0.900412 0.314922 -0.300137 0 
0.0779116 0.256881 0.0037303 -0.900241 0.25195 -0.355087 0 
0.0784621 0.25704 0.00308093 -0.889982 0.096403 -0.445689 0 
0.0786684 0.257025 0.00329821 -0.894133 0.116871 -0.432282 0 
0.0782568 0.257036 0.00327548 -0.904169 0.213343 -0.370085 0 
0.0784247 0.256892 0.00324389 -0.905129 0.256722 -0.338873 0 
0.0781011 0.256962 0.00341802 -0.898879 0.324307 -0.29469 0 
0.077995 0.256819 0.00350859 -0.897169 0.271375 -0.348487 0 
0.0773463 0.25678 0.00467381 -0.0253165 0.970466 0.239904 0 
0.077087 0.256724 0.00450177 -0.0399929 0.97316 0.226626 0 
0.0769697 0.256779 0.00489319 -0.0224896 0.976521 0.214243 0 
0.0770238 0.256831 0.00525977 -0.0217558 0.98588 0.166031 0 
0.077176 0.256763 0.00511049 0.0034765 0.979215 0.202796 0 
0.0772255 0.256694 0.00505849 0.0129494 0.975911 0.217785 0 
0.0767836 0.256839 0.00521215 -0.0217558 0.98588 0.166031 0 
0.077173 0.256822 0.00387496 -0.890841 0.169477 -0.42152 0 
0.0775496 0.256823 0.00365556 -0.570744 0.818399 0.0668952 0 
0.0769712 0.256959 0.00407623 -0.889027 0.150804 -0.432306 0 
0.0772417 0.256817 0.0039474 -0.893334 0.181572 -0.411079 0 
0.0775541 0.256945 0.00407411 -0.893975 0.193962 -0.403966 0 
0.0777402 0.256884 0.00375512 -0.258524 0.924117 0.281377 0 
0.0778934 0.256797 0.0040177 -0.901335 0.204651 -0.381725 0 
0.0775855 0.256791 0.00430952 -0.896696 0.186872 -0.401268 0 
0.0778525 0.256508 0.00417397 -0.893334 0.181572 -0.411079 0 
0.0771739 0.256802 0.00428678 -0.891657 0.178331 -0.416107 0 
0.0774864 0.25693 0.00441353 -0.893923 0.184599 -0.408443 0 
0.0776011 0.256714 0.00442724 -0.898746 0.202473 -0.388922 0 
0.0777498 0.256506 0.00427123 -0.896312 0.218577 -0.38581 0 
0.077628 0.256439 0.00424408 -0.898519 0.230126 -0.373772 0 
0.078042 0.256589 0.00386172 -0.258524 0.924117 0.281377 0 
0.0781108 0.256583 0.00393414 -0.894177 0.169013 -0.414586 0 
0.0780891 0.256358 0.00421485 -0.892705 0.175069 -0.415245 0 
0.0777923 0.256154 0.00420581 -0.902407 0.20134 -0.380952 0 
0.0779253 0.256022 0.00393209 -0.890972 0.144443 -0.43047 0 
0.0772702 0.2559 0.00385506 -0.0856157 0.944407 0.317437 0 
0.0774419 0.256499 0.00456306 -0.0375982 0.97149 0.234079 0 
0.0774803 0.256628 0.00481194 -0.00356154 0.969926 0.243372 0 
0.0774733 0.256346 0.00479849 -0.00595298 0.970335 0.241691 0 
0.0776402 0.256221 0.00435509 -0.905885 0.203716 -0.371312 0 
0.0774844 0.256147 0.00449762 -0.902725 0.226046 -0.366048 0 
0.0770973 0.255723 0.00469686 -0.0482819 0.983301 0.175463 0 
0.0770704 0.255998 0.00488003 -0.0367184 0.979553 0.197806 0 
0.0773096 0.256009 0.00451575 -0.0981093 0.974883 0.199944 0 
0.0776331 0.255939 0.00434163 -0.906477 0.197436 -0.373255 0 
0.0769257 0.25695 0.00577559 -0.915099 0.195583 -0.35262 0 
0.0769682 0.256598 0.00571015 -0.917435 0.192021 -0.348483 0 
0.0771386 0.256615 0.00527346 -0.0244615 0.981953 0.187538 0 
0.0772761 0.256604 0.00541832 -0.010344 0.982676 0.185042 0 
0.0771169 0.256389 0.00555417 -0.029088 0.983173 0.180345 0 
0.0783561 0.256075 0.00407927 -0.10463 0.928082 0.357373 0 
0.0792175 0.256601 0.00150415 -0.880714 -0.103198 -0.462269 0 
0.0770062 0.256125 0.00522615 -0.0367184 0.979553 0.197806 0 
0.0771549 0.255916 0.00507016 -0.0244615 0.981953 0.187538 0 
0.0767373 0.255625 0.00544582 -0.919535 0.15583 -0.360795 0 
0.0763741 0.256811 0.00601313 -0.927038 0.187096 -0.324956 0 
0.0767665 0.256735 0.00591142 -0.917537 0.177268 -0.355953 0 
0.0766603 0.256592 0.00600199 -0.920694 0.179613 -0.346498 0 
0.0761618 0.256524 0.00619424 -0.918138 0.131956 -0.373645 0 
0.0765011 0.256377 0.0061378 -0.920121 0.191397 -0.341678 0 
0.0763489 0.256445 0.00628708 -0.92703 0.157053 -0.340513 0 
0.0765481 0.256147 0.00649095 -0.931337 0.191869 -0.309512 0 
0.0768847 0.256661 0.00593184 -0.922103 0.200334 -0.331048 0 
0.0767559 0.256312 0.00589128 -0.91918 0.194633 -0.342384 0 
0.0769622 0.256296 0.00610857 -0.914149 0.165822 -0.369911 0 
0.0770805 0.256221 0.006129 -0.917412 0.164881 -0.362173 0 
0.0772135 0.25609 0.0058553 -0.917618 0.204074 -0.341074 0 
0.0766497 0.256168 0.00598182 -0.920694 0.179613 -0.346498 0 
0.0765663 0.256231 0.00620352 -0.927067 0.18373 -0.326788 0 
0.076848 0.25589 0.00577382 -0.921474 0.206513 -0.328996 0 
0.0768141 0.255883 0.00594353 -0.917412 0.164881 -0.362173 0 
0.076803 0.256081 0.0062444 -0.922463 0.173226 -0.345043 0 
0.0765977 0.256077 0.00643896 -0.932474 0.17093 -0.318236 0 
0.0767656 0.255933 0.00640738 -0.930352 0.183272 -0.317579 0 
0.0770204 0.255867 0.00616082 -0.928005 0.174963 -0.328931 0 
0.0760557 0.256381 0.00628479 -0.930529 0.132933 -0.34124 0 
0.0763419 0.256162 0.00627366 -0.92703 0.157053 -0.340513 0 
0.0762089 0.256294 0.00654734 -0.937241 0.100562 -0.333867 0 
0.076316 0.256418 0.00686864 -0.929535 0.156539 -0.333857 0 
0.0762448 0.256262 0.00720133 -0.928182 0.136538 -0.346172 0 
0.0765527 0.256268 0.0069095 -0.933021 0.14703 -0.328412 0 
0.0765295 0.25546 0.00604549 -0.924559 0.0991084 -0.367923 0 
0.0765376 0.255723 0.00647079 -0.936739 0.158186 -0.312246 0 
0.0767924 0.255658 0.00622424 -0.930764 0.15628 -0.330539 0 
0.0765846 0.255493 0.0068239 -0.936992 0.175255 -0.302211 0 
0.0763135 0.256257 0.00727378 -0.924882 0.130945 -0.356996 0 
0.0765952 0.255916 0.00684407 -0.933924 0.152674 -0.323228 0 
0.0762873 0.25591 0.00713588 -0.933399 0.109414 -0.341751 0 
0.076436 0.255701 0.00697989 -0.932807 0.106645 -0.344234 0 
0.0768039 0.256062 0.00665623 -0.93116 0.238795 -0.275533 0 
0.0770184 0.255907 0.00533716 -0.0582126 0.982485 0.177014 0 
0.0770184 0.255907 0.00533716 -0.0582126 0.982485 0.177014 0 
0.0764254 0.255278 0.00695974 -0.943847 0.127547 -0.30477 0 
0.0762767 0.255486 0.00711575 -0.934855 0.0952291 -0.34202 0 
0.0765406 0.255664 0.00770631 -0.925037 0.0848287 -0.370284 0 
0.0765406 0.255664 0.00770631 -0.925037 0.0848287 -0.370284 0 
0.0765451 0.255786 0.00812488 -0.925754 -0.157309 -0.343851 0 
0.0766139 0.255781 0.00819729 -0.90369 -0.257148 -0.342374 0 
0.0766452 0.255627 0.00843271 -0.806104 -0.498866 -0.318324 0 
0.0773304 0.254592 0.0104699 0.496673 -0.697349 -0.51674 0 
0.0634257 0.250893 0.0285142 0.496673 -0.697349 -0.51674 0 
0.0636659 0.250885 0.0285618 0.496673 -0.697349 -0.51674 0 
0.0633615 0.25102 0.0288603 0.496673 -0.697349 -0.51674 0 
0.0632553 0.250877 0.0289509 0.496673 -0.697349 -0.51674 0 
0.0630693 0.250937 0.0292699 0.496673 -0.697349 -0.51674 0 
0.064974 0.249323 0.0309366 0.906863 0.151853 0.393116 0 
0.0647026 0.248663 0.0315613 0.866779 0.242698 0.435651 0 
0.0639361 0.248479 0.0343468 0.93016 -0.0843167 0.357342 0 
0.0650585 0.248419 0.0320345 0.934439 -0.214346 0.284394 0 
0.0649028 0.248345 0.0321771 0.922439 -0.182228 0.340441 0 
0.0649716 0.24834 0.0322495 0.923356 -0.211988 0.320116 0 
0.0647593 0.248054 0.0324306 0.911076 -0.208698 0.355507 0 
0.0648933 0.247902 0.0325687 0.893701 -0.243737 0.376684 0 
0.064281 0.248031 0.0331591 0.899351 -0.242869 0.363568 0 
0.0645359 0.247965 0.0329126 0.885636 -0.252399 0.389799 0 
0.0644872 0.248015 0.0333764 -0.0125778 -0.984498 -0.174946 0 
0.0639776 0.248146 0.0338695 0.911247 -0.0918099 0.401497 0 
0.0643351 0.248083 0.0335257 -0.0195684 -0.984175 -0.176116 0 
0.0646936 0.248 0.0335937 0.578087 -0.805773 0.128628 0 
0.0641759 0.247868 0.0336615 0.914265 -0.083115 0.396499 0 
0.0643857 0.247994 0.0338855 0.91268 -0.0775302 0.401253 0 
0.0646359 0.247807 0.0332204 0.900582 -0.214563 0.37804 0 
0.0649595 0.247736 0.0330463 0.880525 -0.253507 0.400511 0 
0.0633926 0.248602 0.0350096 0.923448 -0.290636 0.250548 0 
0.0639291 0.248196 0.0343334 0.916234 -0.0492027 0.397611 0 
0.0636819 0.247922 0.0342723 0.914683 -0.0549078 0.400425 0 
0.0638134 0.247609 0.0348156 0.928221 -0.0622345 0.366786 0 
0.0636046 0.247464 0.0350034 0.899696 -0.0225255 0.435935 0 
0.0639367 0.247856 0.0340258 0.909243 -0.0170565 0.415916 0 
0.0640889 0.247789 0.0338765 0.915175 -0.0660436 0.397609 0 
0.0644397 0.248046 0.034252 0.909414 -0.0386135 0.414096 0 
0.0643336 0.247902 0.0343426 0.907492 0.0358745 0.418536 0 
0.0643326 0.247922 0.0339308 0.91268 -0.0775302 0.401253 0 
0.0642265 0.247779 0.0340214 0.916351 -0.046549 0.397662 0 
0.063728 0.247711 0.0342136 0.906321 0.0117704 0.422427 0 
0.0637594 0.247557 0.034449 0.898819 0.00921191 0.438224 0 
0.0640718 0.247685 0.0345757 0.889282 0.0589201 0.453548 0 
0.0641744 0.247687 0.0344785 0.899604 0.0279877 0.435808 0 
0.0640718 0.247685 0.0345757 0.889282 0.0589201 0.453548 0 
0.0640672 0.247564 0.0341572 0.909207 -0.00129701 0.416342 0 
0.0636071 0.247625 0.0345983 0.918338 -0.0382092 0.39395 0 
0.0639656 0.247542 0.0346663 0.918338 -0.0382092 0.39395 0 
0.0638444 0.246853 0.0343181 0.901283 -0.0198521 0.432775 0 
0.0634681 0.247455 0.0352704 0.888683 0.0146121 0.458289 0 
0.0638604 0.247379 0.0351687 0.87347 0.0396411 0.485261 0 
0.0634151 0.247383 0.0353157 0.900354 -0.00920069 0.435061 0 
0.0637048 0.247305 0.0353112 0.888683 0.0146121 0.458289 0 
0.0644903 0.247956 0.0346119 0.906214 0.0692907 0.417103 0 
0.0643007 0.247875 0.0349242 0.935625 -0.045545 0.350046 0 
0.0640343 0.247537 0.0347387 0.918338 -0.0382092 0.39395 0 
0.0639135 0.247451 0.0351234 0.899696 -0.0225255 0.435935 0 
0.0639823 0.247446 0.0351959 0.87347 0.0396411 0.485261 0 
0.0639292 0.247374 0.0352411 0.898286 -0.0118716 0.43925 0 
0.0638003 0.247025 0.0352005 0.889848 0.00925548 0.456163 0 
0.0642994 0.24647 0.0346872 0.932128 -0.115329 0.343273 0 
0.0627206 0.24633 0.0354857 0.916173 -0.0329559 0.399425 0 
0.062798 0.245966 0.0356624 0.947041 -0.144144 0.286941 0 
0.0633572 0.245765 0.0351173 0.89832 0.00393425 0.439324 0 
0.063542 0.246949 0.0354403 0.890316 0.0145953 0.455109 0 
0.0634359 0.246806 0.0355309 0.923412 -0.0654807 0.378184 0 
0.0634516 0.246729 0.0356486 0.934855 -0.0952291 0.34202 0 
0.0632271 0.246661 0.0357188 0.947954 -0.140785 0.285593 0 
0.0632923 0.246514 0.0357844 0.943123 -0.247173 0.222317 0 
0.0634829 0.246576 0.035884 0.941079 -0.263944 0.211432 0 
0.0633803 0.246573 0.0359813 0.938524 -0.278646 0.203786 0 
0.0624697 0.247139 0.0364718 0.871063 -0.486401 0.0682913 0 
0.0630749 0.246728 0.035868 0.94774 -0.208639 0.241367 0 
0.0631331 0.246299 0.0359203 0.943964 -0.265189 0.196487 0 
0.0630264 0.246778 0.0363319 0.958627 0.00854827 0.284535 0 
0.0632742 0.24643 0.0360719 0.94113 -0.2844 0.18273 0 
0.0632742 0.24643 0.0360719 0.94113 -0.2844 0.18273 0 
0.0627565 0.246298 0.0361397 0.943778 -0.267885 0.193701 0 
0.0628141 0.246491 0.036513 0.959274 -0.175977 0.220964 0 
0.0629627 0.246283 0.036357 0.959579 0.0673612 0.273258 0 
0.0631645 0.246146 0.0361557 0.933924 0.152674 0.323228 0 
0.0630315 0.246278 0.0364294 0.969856 -0.0402582 0.240329 0 
0.0635562 0.246692 0.036375 0.955853 0.0338244 0.291892 0 
0.0632266 0.24646 0.0369476 0.418025 0.856103 0.303878 0 
0.0632681 0.246128 0.0364703 0.966306 0.0533391 0.25181 0 
0.0634576 0.247031 0.0352502 0.900354 -0.00920069 0.435061 0 
0.0636412 0.24681 0.0353364 0.900354 -0.00920069 0.435061 0 
0.0635047 0.246801 0.0356034 0.923412 -0.0654807 0.378184 0 
0.0639011 0.246244 0.0351874 0.917215 -0.0885869 0.388419 0 
0.0632347 0.246321 0.0354112 0.922245 -0.059886 0.38194 0 
0.063574 0.246174 0.0353548 0.894028 0.0172695 0.447678 0 
0.0640872 0.246184 0.0348684 0.896771 -0.0361925 0.441013 0 
0.0636696 0.245893 0.035244 0.912462 -0.0303714 0.408033 0 
0.0640993 0.245966 0.0349794 0.846909 0.0149535 0.531527 0 
0.0641873 0.246025 0.0351762 0.867597 -0.0230096 0.496736 0 
0.0640776 0.245741 0.0352601 0.862069 0.0203638 0.506381 0 
0.0632661 0.246167 0.0356466 0.946184 -0.169689 0.275574 0 
0.0632773 0.245969 0.0353458 0.87453 0.0424263 0.483113 0 
0.0607399 0.245403 0.039647 0.0291723 0.94493 0.325969 0 
0.0609902 0.245215 0.0389819 0.135498 0.790652 0.597084 0 
0.0608041 0.245276 0.0393009 0.588169 0.0701224 0.805692 0 
0.0609113 0.245399 0.0396222 -0.115437 0.976873 0.179983 0 
0.0610069 0.245119 0.0395114 0.548853 0.140542 0.824019 0 
0.061246 0.24513 0.0391472 0.0941856 0.8042 0.586849 0 
0.0610903 0.245057 0.0392897 0.365289 0.530887 0.764672 0 
0.0628813 0.246306 0.0374024 -0.675161 0.731057 0.098553 0 
0.0630876 0.24629 0.0376197 -0.654789 0.748961 0.101529 0 
0.0628283 0.246234 0.0374477 -0.647274 0.755887 0.0983387 0 
0.0630345 0.246219 0.0376649 -0.630542 0.768703 0.107295 0 
0.0627221 0.246091 0.0375382 -0.61689 0.778842 0.113366 0 
0.0628788 0.246145 0.0378075 -0.560938 0.812238 0.160054 0 
0.0630709 0.246387 0.0370901 -0.838034 0.545602 -0.00406156 0 
0.0629588 0.245941 0.0375791 -0.62033 0.776517 0.11051 0 
0.0631186 0.245534 0.0371222 -0.769207 0.638927 0.0097017 0 
0.0625179 0.246067 0.0381446 -0.399893 0.8898 0.219868 0 
0.0623126 0.246063 0.0383391 -0.179012 0.933913 0.309454 0 
0.0625629 0.245876 0.037674 -0.578231 0.802352 0.14792 0 
0.0627692 0.24586 0.0378913 -0.537737 0.825329 0.172256 0 
0.0619244 0.245658 0.0381265 -0.134126 0.925055 0.355365 0 
0.0631126 0.245232 0.0375206 -0.590757 0.798915 0.112874 0 
0.0628846 0.245022 0.037584 -0.515493 0.844469 0.145395 0 
0.0616555 0.245158 0.0383462 -0.120816 0.935303 0.332582 0 
0.0614998 0.245085 0.0384888 -0.084574 0.927629 0.363802 0 
0.0616226 0.245131 0.0389278 -0.167621 0.953427 0.250761 0 
0.0642778 0.250154 0.0272385 0.496673 -0.697349 -0.51674 0 
0.066534 0.250421 0.0278771 0.727593 -0.685373 0.0295541 0 
0.0666331 0.250282 0.0277731 0.73034 -0.68231 0.032491 0 
0.0657004 0.25002 0.0278115 0.365256 -0.890031 -0.272824 0 
0.0663738 0.250226 0.0276011 0.723564 -0.689844 0.0238846 0 
0.0662676 0.250083 0.0276916 0.799801 0.325963 0.50405 0 
0.0665001 0.250414 0.0280468 0.720057 0.480593 0.500548 0 
0.0663748 0.250206 0.0280129 0.832078 0.304419 0.463653 0 
0.0660781 0.250002 0.0280039 0.936131 -0.0348628 0.349919 0 
0.0662348 0.250056 0.0282732 0.789644 0.402089 0.463452 0 
0.0661817 0.249984 0.0283185 0.706734 -0.706734 -0.0324449 0 
0.0667565 0.250529 0.0269833 0.0166939 -0.928436 -0.371118 0 
0.0667034 0.250457 0.0270286 0.0428688 -0.934019 -0.354641 0 
0.0669051 0.25032 0.0268273 0.0531422 -0.942302 -0.330519 0 
0.0662894 0.250308 0.0274109 0.507107 -0.854755 -0.110615 0 
0.0664269 0.250298 0.0275558 0.66153 -0.749918 0.00138106 0 
0.0667515 0.250207 0.0277935 0.731603 -0.68066 0.0382075 0 
0.0671913 0.250101 0.0268162 0.832487 -0.290981 0.471483 0 
0.0675462 0.249877 0.0268774 0.821002 -0.30611 0.481926 0 
0.0657915 0.249618 0.0272822 0.255865 -0.907954 -0.331893 0 
0.0667403 0.250406 0.0280944 0.688264 -0.724858 -0.0295573 0 
0.0666002 0.250255 0.0283546 0.683041 -0.728673 -0.0499091 0 
0.0667873 0.250175 0.0284475 0.857527 0.273614 0.435642 0 
0.0665315 0.25026 0.0282822 0.918779 0.0686057 0.388766 0 
0.0665472 0.250184 0.0283999 0.857527 0.273614 0.435642 0 
0.0668333 0.249965 0.0283888 0.857527 0.273614 0.435642 0 
0.0663688 0.249904 0.0284113 0.686249 -0.726032 -0.044045 0 
0.0662818 0.249825 0.0286263 0.780956 0.446493 0.436751 0 
0.0666742 0.24975 0.0285246 0.722321 0.516418 0.459961 0 
0.0664193 0.249815 0.0287712 0.809458 0.408736 0.421559 0 
