0.139491 0.154123 0.0134565 0.826928 -0.146451 -0.542902 1 
0.142354 0.158785 0.0106339 0.480285 -0.820422 -0.310217 1 
0.14106 0.157879 0.0112923 0.482418 -0.852121 -0.202886 1 
0.142777 0.157743 0.0122784 0.540711 -0.829483 -0.139966 1 
0.142918 0.158045 0.0118923 0.536207 -0.832957 -0.136623 1 
0.143455 0.157849 0.012816 0.534542 -0.822256 -0.195343 1 
0.142593 0.15751 0.0127802 0.497359 -0.86294 -0.0892696 1 
0.142291 0.15742 0.0128068 0.504061 -0.860694 -0.0716075 1 
0.141753 0.157452 0.012066 0.48797 -0.860866 -0.144206 1 
0.142512 0.157401 0.0118628 0.53426 -0.837056 -0.117916 1 
0.143033 0.15884 0.010251 0.468291 -0.849635 -0.242535 1 
0.141897 0.157396 0.0116346 0.502417 -0.850131 -0.15765 1 
0.141135 0.157753 0.0109625 0.484106 -0.845288 -0.226118 1 
0.141157 0.157351 0.0106047 0.551903 -0.802346 -0.227254 1 
0.140874 0.157217 0.0103188 0.523873 -0.803901 -0.281601 1 
0.141345 0.156543 0.0103784 0.54491 -0.813549 -0.203006 1 
0.138854 0.15605 0.012762 0.48396 -0.870564 0.0888906 1 
0.138077 0.156145 0.0132777 0.524797 -0.831555 0.18195 1 
0.138195 0.155951 0.0128324 0.518339 -0.847534 0.114063 1 
0.138621 0.155866 0.0128699 0.505882 -0.854666 0.116742 1 
0.13851 0.155977 0.0119837 0.517304 -0.850774 -0.0926303 1 
0.140057 0.15787 0.0104015 0.49444 -0.810376 -0.314356 1 
0.139531 0.157258 0.0110002 0.496051 -0.851431 -0.170286 1 
0.138115 0.156005 0.0117321 0.472439 -0.867357 -0.156505 1 
0.138208 0.155835 0.0110898 0.449163 -0.88254 -0.139197 1 
0.139683 0.15612 0.0133777 0.474707 -0.866157 0.156288 1 
0.140014 0.155991 0.0133199 0.483433 -0.868467 0.109806 1 
0.139249 0.156022 0.0130136 0.457965 -0.880263 0.124121 1 
0.139123 0.155136 0.0127154 0.722532 -0.684271 -0.0985939 1 
0.138904 0.155949 0.0122354 0.528635 -0.847759 -0.0430123 1 
0.139306 0.155889 0.0120759 0.519365 -0.851533 -0.0717821 1 
0.139523 0.155597 0.0124183 0.584031 -0.807886 -0.0789231 1 
0.139152 0.1556 0.0123636 0.575013 -0.816828 -0.0463947 1 
0.13932 0.155356 0.0123121 0.63523 -0.760781 -0.133025 1 
0.138789 0.155571 0.0118979 0.513297 -0.839532 -0.178082 1 
0.139403 0.15473 0.0126296 0.781964 -0.396648 -0.480835 1 
0.139448 0.156354 0.0115069 0.489361 -0.861101 -0.13795 1 
0.139726 0.156417 0.0103628 0.432641 -0.872767 -0.226051 1 
0.139554 0.156172 0.0109631 0.453937 -0.877417 -0.15518 1 
0.139027 0.156244 0.0112412 0.471243 -0.868079 -0.156108 1 
0.139057 0.155341 0.0115307 0.464972 -0.845543 -0.26241 1 
0.139416 0.156196 0.0109834 0.465498 -0.871167 -0.156139 1 
0.1393 0.155818 0.0106459 0.452142 -0.873356 -0.181151 1 
0.138267 0.155397 0.0110275 0.423893 -0.884454 -0.195079 1 
0.13918 0.154952 0.0108572 0.422036 -0.857884 -0.293123 1 
0.139082 0.155265 0.0108071 0.396472 -0.893891 -0.209209 1 
0.137252 0.156983 0.016533 0.644487 0.11061 0.756572 1 
0.138203 0.15545 0.0134796 0.578283 -0.788007 0.211266 1 
0.136889 0.153689 0.0140335 0.461423 0.0392413 -0.886312 1 
0.136964 0.153564 0.0137037 -0.0254653 -0.246164 -0.968894 1 
0.137747 0.155753 0.0134732 0.523283 -0.825352 0.212059 1 
0.137379 0.155236 0.0135562 0.645928 -0.755307 0.110857 1 
0.137607 0.1554 0.0129389 0.55816 -0.828101 0.0520199 1 
0.137386 0.155153 0.0122247 0.4824 -0.799726 -0.357392 1 
0.137089 0.154868 0.0120232 0.226326 -0.814464 -0.534252 1 
0.136675 0.15494 0.0120841 0.426085 -0.865817 -0.262323 1 
0.136652 0.154495 0.0129454 0.416601 -0.78295 -0.461989 1 
0.13757 0.155386 0.011723 0.421941 -0.863684 -0.275709 1 
0.137655 0.155769 0.011354 0.466666 -0.878012 -0.106383 1 
0.136909 0.155124 0.0119762 0.446915 -0.865239 -0.227219 1 
0.137238 0.155301 0.0110431 0.48731 -0.868683 -0.088987 1 
0.137693 0.15568 0.0107288 0.460109 -0.87865 -0.127569 1 
0.137628 0.154152 0.0130846 0.867554 0.146772 -0.475193 1 
0.137382 0.153981 0.013094 -0.542527 -0.4205 -0.727217 1 
0.137882 0.154454 0.0124812 0.749248 -0.295546 -0.592689 1 
0.136923 0.154591 0.0122124 -0.00415877 -0.694514 -0.719467 1 
0.137136 0.153809 0.0131035 0.350053 -0.230948 -0.907814 1 
0.136745 0.154326 0.0123031 -0.032379 -0.66025 -0.750348 1 
0.139603 0.153961 0.0134222 0.827502 -0.133753 -0.545299 1 
0.139625 0.153559 0.0130645 0.966279 -0.0230935 0.256459 1 
0.140221 0.153608 0.0136052 0.972099 -0.156708 -0.174545 1 
0.141804 0.155933 0.0112601 0.540811 -0.828255 -0.146686 1 
0.140852 0.155405 0.0118213 0.61813 -0.769262 -0.161711 1 
0.139762 0.154218 0.0127235 0.518964 -0.238692 -0.820794 1 
0.140462 0.155239 0.0113415 0.635315 -0.738339 -0.226341 1 
0.139302 0.151871 0.0153312 0.059272 -0.359583 -0.931229 1 
0.139445 0.153183 0.0142586 -0.221769 0.00586692 -0.975082 1 
0.139322 0.153306 0.0132739 -0.0603966 -0.166979 -0.984109 1 
0.139141 0.152032 0.0140511 -0.283716 -0.232902 -0.930194 1 
0.139769 0.152657 0.0131366 -0.238299 -0.230035 -0.943556 1 
0.139247 0.152533 0.0131867 -0.309706 -0.249205 -0.917594 1 
0.138074 0.150443 0.0145956 -0.884947 0.448886 -0.123978 1 
0.139746 0.152161 0.0130774 -0.21824 -0.268283 -0.938294 1 
0.13921 0.151887 0.0132119 -0.262788 -0.265628 -0.927569 1 
0.139341 0.15168 0.012865 -0.249939 -0.244354 -0.936922 1 
0.139624 0.151815 0.013151 -0.388209 -0.189053 -0.901972 1 
0.13893 0.151446 0.0138013 -0.270955 -0.234454 -0.933603 1 
0.138684 0.151275 0.0138107 -0.287626 -0.236618 -0.928053 1 
0.138407 0.15116 0.0140342 -0.335551 -0.226101 -0.914485 1 
0.138574 0.150917 0.0139828 -0.619884 -0.101116 -0.778152 1 
0.138259 0.150676 0.0140938 -0.0615764 -0.450192 -0.890806 1 
0.138261 0.150155 0.0142315 -0.856437 0.512744 -0.0600763 1 
0.138414 0.150445 0.0139438 -0.0615764 -0.450192 -0.890806 1 
0.138992 0.151333 0.0133731 -0.251384 -0.254193 -0.933912 1 
0.138052 0.149947 0.0145363 -0.823042 0.561622 -0.0847461 1 
0.139465 0.153087 0.0130255 -0.286371 -0.269102 -0.919552 1 
0.13933 0.152753 0.0130006 -0.305709 -0.329569 -0.893267 1 
0.139543 0.152604 0.0126506 -0.387544 -0.33196 -0.860007 1 
0.139352 0.152351 0.0126429 -0.276941 -0.268332 -0.92266 1 
0.141378 0.161923 0.00718835 0.0204217 -0.515989 -0.856352 1 
0.141832 0.162772 0.00581582 -0.199266 -0.477938 -0.855493 1 
0.143306 0.162739 0.00552512 -0.575657 -0.163829 -0.801111 1 
0.141702 0.162927 0.0052422 -0.281782 -0.448079 -0.848425 1 
0.142013 0.162679 0.00567987 -0.199266 -0.477938 -0.855493 1 
0.141798 0.162451 0.00547522 -0.199266 -0.477938 -0.855493 1 
0.141939 0.162753 0.00508907 -0.281782 -0.448079 -0.848425 1 
0.141656 0.16267 0.00572365 -0.199266 -0.477938 -0.855493 1 
0.142056 0.162396 0.00482666 0.0520516 -0.569754 -0.820165 1 
0.142607 0.1623 0.00474541 -0.578041 -0.0850484 -0.811564 1 
0.143004 0.161802 0.00605523 -0.199266 -0.477938 -0.855493 1 
0.142113 0.160948 0.00545071 -0.0304012 -0.244426 -0.969191 1 
0.141154 0.161401 0.00776054 0.896876 -0.4193 -0.140714 1 
0.141264 0.161708 0.00666797 -0.082879 -0.389939 -0.917104 1 
0.141475 0.161396 0.00650082 0.869176 -0.488474 -0.0769802 1 
0.140655 0.160825 0.00653231 0.828381 -0.512953 -0.225087 1 
0.140576 0.16041 0.00649025 0.815545 -0.517288 -0.259421 1 
0.141025 0.161505 0.00626637 0.857801 -0.499058 -0.122956 1 
0.140946 0.16109 0.00622432 0.821728 -0.529016 -0.211911 1 
0.141192 0.161261 0.00621489 0.846843 -0.513371 -0.138947 1 
0.14073 0.160699 0.00620258 0.828381 -0.512953 -0.225087 1 
0.140951 0.160895 0.00599622 0.81626 -0.530338 -0.229045 1 
0.141966 0.158781 0.00997129 0.347089 -0.870015 -0.350147 1 
0.141311 0.159171 0.00949291 0.51772 -0.678565 -0.521071 1 
0.140151 0.158598 0.0101761 0.484709 -0.80145 -0.350335 1 
0.140716 0.159284 0.0087693 0.541375 -0.625702 -0.561614 1 
0.140037 0.158332 0.00873524 0.479792 -0.718858 -0.503034 1 
0.140415 0.157827 0.00943714 0.482194 -0.763338 -0.429888 1 
0.141676 0.160627 0.00729345 0.606632 -0.489002 -0.626797 1 
0.140654 0.159346 0.00827697 0.615975 -0.545096 -0.568722 1 
0.14046 0.159237 0.00757685 0.643958 -0.502724 -0.576704 1 
0.141031 0.159311 0.00792062 0.647313 -0.506081 -0.569972 1 
0.140576 0.158931 0.0082349 0.57894 -0.609322 -0.541807 1 
0.140038 0.15828 0.0078147 0.558762 -0.636415 -0.531753 1 
0.143095 0.158676 0.00890228 0.448721 -0.672247 -0.588841 1 
0.141882 0.158296 0.00849923 0.51072 -0.681518 -0.524116 1 
0.142804 0.15841 0.00921025 0.412468 -0.807282 -0.422098 1 
0.142465 0.158357 0.00894145 0.455916 -0.727808 -0.512284 1 
0.142158 0.158247 0.00845857 0.493853 -0.691395 -0.527335 1 
0.142689 0.158033 0.00887281 0.399033 -0.809283 -0.431084 1 
0.142443 0.157861 0.00888226 0.454211 -0.762485 -0.46077 1 
0.142898 0.158241 0.00856797 0.47905 -0.596711 -0.643776 1 
0.141706 0.157562 0.0096482 0.473309 -0.800615 -0.367416 1 
0.141224 0.157727 0.00962785 0.504209 -0.77658 -0.377752 1 
0.141195 0.157263 0.00997961 0.533148 -0.774756 -0.339862 1 
0.140874 0.157166 0.00939827 0.50142 -0.751308 -0.429084 1 
0.141326 0.157903 0.00912919 0.489625 -0.746802 -0.45006 1 
0.141874 0.158164 0.00909315 0.525045 -0.708393 -0.471707 1 
0.141636 0.158124 0.00850864 0.508238 -0.682683 -0.525012 1 
0.141414 0.157928 0.00871504 0.50574 -0.706033 -0.495726 1 
0.140935 0.157573 0.00883238 0.495662 -0.724429 -0.479085 1 
0.141168 0.157757 0.00872447 0.485364 -0.727217 -0.485364 1 
0.140521 0.157645 0.00889332 0.481001 -0.753514 -0.448168 1 
0.141303 0.157407 0.00906996 0.488649 -0.751894 -0.442581 1 
0.141948 0.157193 0.00926693 0.524519 -0.756549 -0.39053 1 
0.141866 0.157136 0.00927005 0.512845 -0.763569 -0.392367 1 
0.142209 0.157678 0.00899015 0.489219 -0.764098 -0.420499 1 
0.141743 0.157473 0.00902306 0.50543 -0.742505 -0.439576 1 
0.141485 0.157314 0.00893402 0.483732 -0.755934 -0.441098 1 
0.140935 0.157522 0.00791185 0.491697 -0.711711 -0.501698 1 
0.139751 0.157239 0.0100562 0.46783 -0.816721 -0.337789 1 
0.14007 0.157754 0.00865886 0.478339 -0.729921 -0.488269 1 
0.137863 0.156395 0.00907038 0.56172 -0.787034 -0.255043 1 
0.139729 0.158222 0.00825235 0.531895 -0.698633 -0.478539 1 
0.139679 0.157425 0.00836201 0.502127 -0.730819 -0.462355 1 
0.138881 0.15735 0.00845271 0.489625 -0.746802 -0.45006 1 
0.139465 0.158043 0.00765384 0.572926 -0.660293 -0.485559 1 
0.138812 0.157912 0.00731318 0.633865 -0.633865 -0.443204 1 
0.138566 0.157741 0.00732262 0.691691 -0.609151 -0.387941 1 
0.139278 0.157433 0.00760092 0.557225 -0.684399 -0.470211 1 
0.138462 0.157402 0.00800416 0.68956 -0.620439 -0.37358 1 
0.140517 0.157157 0.00944203 0.47308 -0.761184 -0.443615 1 
0.14087 0.156677 0.00994701 0.519539 -0.800626 -0.298458 1 
0.141038 0.156433 0.00989548 0.525683 -0.787726 -0.321162 1 
0.140537 0.156592 0.00926721 0.443434 -0.767419 -0.46307 1 
0.139274 0.156312 0.00939077 0.385756 -0.85672 -0.342378 1 
0.139078 0.15604 0.00887354 0.355828 -0.84176 -0.405989 1 
0.139287 0.156248 0.00856873 0.412587 -0.791197 -0.451419 1 
0.139289 0.155728 0.00870643 0.357714 -0.830463 -0.42705 1 
0.138872 0.155474 0.00913318 0.36748 -0.854352 -0.36748 1 
0.138741 0.155466 0.00874248 0.326588 -0.85594 -0.400883 1 
0.140159 0.157096 0.00856528 0.460083 -0.761347 -0.456808 1 
0.139574 0.156872 0.00830594 0.471666 -0.729841 -0.494836 1 
0.139447 0.15672 0.00860762 0.443192 -0.76373 -0.469359 1 
0.139836 0.156673 0.00834975 0.487649 -0.717327 -0.497635 1 
0.139508 0.156444 0.00836235 0.402571 -0.764396 -0.503621 1 
0.141423 0.160436 0.00679341 0.792753 -0.480797 -0.374668 1 
0.140837 0.160048 0.00671696 0.758528 -0.480019 -0.4407 1 
0.140953 0.160375 0.00613391 0.823702 -0.515776 -0.235563 1 
0.140572 0.159921 0.00703897 0.735286 -0.470914 -0.487437 1 
0.139638 0.159084 0.00562957 0.764679 -0.555399 -0.3268 1 
0.14064 0.15893 0.00670329 0.651605 -0.503436 -0.567418 1 
0.140624 0.1593 0.00665003 0.736494 -0.474997 -0.481617 1 
0.14081 0.159012 0.00628598 0.749684 -0.472877 -0.462992 1 
0.139923 0.158749 0.00697372 0.708701 -0.515267 -0.481916 1 
0.140326 0.158852 0.00663143 0.698851 -0.525389 -0.485359 1 
0.140219 0.158819 0.00643766 0.711016 -0.52785 -0.464575 1 
0.140126 0.158938 0.0061594 0.734693 -0.526667 -0.427608 1 
0.139787 0.158884 0.00589061 0.771227 -0.564506 -0.294179 1 
0.139642 0.158726 0.00558435 0.756665 -0.57031 -0.319695 1 
0.140037 0.158698 0.00583596 0.765106 -0.567041 -0.305084 1 
0.140154 0.158555 0.00631113 0.689388 -0.549174 -0.47239 1 
0.139809 0.158482 0.00553285 0.747667 -0.583662 -0.316753 1 
0.139462 0.158982 0.00553738 0.77697 -0.568937 -0.269497 1 
0.13964 0.158614 0.00668775 0.68397 -0.563565 -0.463227 1 
0.139569 0.158382 0.00697229 0.651605 -0.567418 -0.503436 1 
0.139123 0.158928 0.00526861 0.775716 -0.570333 -0.270158 1 
0.139086 0.158965 0.00497319 0.773938 -0.564164 -0.287644 1 
0.138594 0.158623 0.00499208 0.64688 -0.710769 -0.276322 1 
0.139182 0.15849 0.00520621 0.749175 -0.617245 -0.240302 1 
0.139603 0.1586 0.00547187 0.747667 -0.583662 -0.316753 1 
0.138936 0.158318 0.0052157 0.674443 -0.696556 -0.244821 1 
0.146764 0.168346 0.0258 0.580457 -0.779649 0.234984 1 
0.146931 0.168103 0.0257485 0.583601 -0.790832 0.184375 1 
0.146558 0.16778 0.0260596 0.583601 -0.790832 0.184375 1 
0.146676 0.167586 0.0256142 0.89247 -0.444159 -0.0788694 1 
0.14633 0.16735 0.0250189 0.721551 0.317999 -0.615013 1 
0.146436 0.167168 0.0244751 0.562128 -0.767121 0.309091 1 
0.141912 0.166204 0.0288828 0.648857 -0.678276 0.344858 1 
0.142043 0.165997 0.0285359 0.770765 -0.58162 0.260074 1 
0.141629 0.166069 0.0285969 0.685495 -0.659689 0.30807 1 
0.14164 0.165843 0.0279577 0.741736 -0.632427 0.223302 1 
0.142054 0.16577 0.0278968 0.741736 -0.632427 0.223302 1 
0.141771 0.165636 0.0276108 0.639342 -0.721838 0.264938 1 
0.141348 0.165363 0.0275281 0.616214 -0.742942 0.261376 1 
0.140996 0.165159 0.0273437 0.897212 -0.422467 -0.128577 1 
0.144614 0.1677 0.0247704 0.659995 -0.719285 0.216878 1 
0.142553 0.16603 0.0265464 0.519633 -0.734085 0.437152 1 
0.141645 0.165382 0.0260715 0.525302 -0.795095 0.30312 1 
0.142021 0.165347 0.0257152 0.419665 -0.834614 0.356793 1 
0.141126 0.164953 0.0269968 0.627386 -0.758664 0.175546 1 
0.141442 0.165193 0.0268858 0.627386 -0.758664 0.175546 1 
0.141707 0.164637 0.0268844 0.627386 -0.758664 0.175546 1 
0.141628 0.164906 0.0265218 0.525302 -0.795095 0.30312 1 
0.141469 0.164597 0.0262999 0.492997 -0.829903 0.26118 1 
0.14151 0.165048 0.0260466 0.492997 -0.829903 0.26118 1 
0.141182 0.16482 0.0260592 0.565579 -0.806892 0.170428 1 
0.14135 0.164577 0.0260076 0.408601 -0.864643 0.292295 1 
0.141338 0.164589 0.0259092 0.408601 -0.864643 0.292295 1 
0.14069 0.164477 0.0260781 0.568062 -0.818297 0.087726 1 
0.140821 0.164271 0.0257312 0.554101 -0.826088 0.102718 1 
0.141702 0.165198 0.0242133 0.357933 -0.932199 0.0537555 1 
0.141517 0.165017 0.0256356 0.319843 -0.897048 0.304967 1 
0.142083 0.164653 0.0274486 0.616214 -0.742942 0.261376 1 
0.141427 0.164196 0.0274738 0.897212 -0.422467 -0.128577 1 
0.145798 0.167616 0.0255252 0.905523 -0.383161 -0.182253 1 
0.145641 0.166787 0.0254411 0.73647 -0.661166 0.143077 1 
0.145256 0.166477 0.0256537 0.622851 -0.719417 0.307402 1 
0.145216 0.167034 0.0252206 0.724658 -0.673435 0.146137 1 
0.145929 0.16741 0.0251783 0.70192 0.297152 -0.647309 1 
0.14563 0.166962 0.0251597 0.729282 -0.669135 0.142849 1 
0.146047 0.167216 0.0247329 0.662048 -0.715262 0.223813 1 
0.145539 0.16656 0.0250192 0.702947 -0.693838 0.156379 1 
0.145761 0.166756 0.0248128 0.72787 -0.670604 0.143163 1 
0.145895 0.167038 0.0239172 0.721454 -0.67608 0.149736 1 
0.145623 0.166728 0.0239126 0.679502 -0.713095 0.172548 1 
0.144012 0.165367 0.0239443 0.465206 -0.849572 0.248618 1 
0.14435 0.164573 0.0247166 0.533362 -0.788102 0.30728 1 
0.144258 0.164691 0.0244384 0.535232 -0.781279 0.321139 1 
0.144895 0.165141 0.0238053 0.618204 -0.764741 0.181645 1 
0.143887 0.164695 0.0243837 0.489392 -0.83212 0.260906 1 
0.144429 0.164937 0.0238382 0.484131 -0.841502 0.239775 1 
0.144171 0.164778 0.0237492 0.449398 -0.867443 0.213502 1 
0.1423 0.164993 0.0265498 0.433688 -0.808163 0.398481 1 
0.142785 0.165153 0.0262044 0.1874 -0.963208 0.192642 1 
0.142584 0.165076 0.0259153 0.485767 -0.778202 0.398036 1 
0.142181 0.164972 0.0262576 0.390221 -0.850402 0.352909 1 
0.141442 0.163612 0.0267894 0.634645 -0.758257 0.149239 1 
0.141935 0.164801 0.026267 0.395502 -0.821182 0.411385 1 
0.141637 0.164353 0.0262484 0.358907 -0.86415 0.352746 1 
0.141378 0.164194 0.0261594 0.417632 -0.855298 0.306674 1 
0.141147 0.164336 0.0259015 0.428803 -0.871148 0.239227 1 
0.141123 0.164361 0.0257046 0.380978 -0.88596 0.264443 1 
0.141107 0.164047 0.0259719 0.451148 -0.864825 0.220328 1 
0.140877 0.16419 0.025714 0.554101 -0.826088 0.102718 1 
0.141368 0.163686 0.0261987 0.411727 -0.87885 0.241047 1 
0.141249 0.163666 0.0259064 0.451148 -0.864825 0.220328 1 
0.141044 0.163946 0.0256625 0.468998 -0.862063 0.192066 1 
0.141184 0.163402 0.0257799 0.418652 -0.883164 0.211545 1 
0.14214 0.165153 0.0252698 0.388593 -0.890957 0.234929 1 
0.141443 0.164407 0.0253654 0.327237 -0.898792 0.2917 1 
0.141623 0.164835 0.0250917 0.386829 -0.890744 0.238619 1 
0.140675 0.164112 0.0254249 0.586353 -0.809857 0.0179355 1 
0.143535 0.164491 0.0241994 0.435961 -0.884958 0.163667 1 
0.143367 0.163837 0.0238339 0.370999 -0.92549 0.0763429 1 
0.139844 0.163768 0.0260955 0.574471 -0.818102 0.0263011 1 
0.140194 0.164278 0.0254046 0.551599 -0.832311 0.0547388 1 
0.140336 0.164059 0.0251561 0.571954 -0.819661 0.0320071 1 
0.139934 0.163905 0.0245779 0.807852 -0.0235566 -0.588914 1 
0.1399 0.163635 0.0251578 0.623803 -0.781483 -0.0124484 1 
0.140417 0.163902 0.0244154 0.854278 -0.358146 -0.376751 1 
0.139461 0.163518 0.0242842 0.475119 0.521798 -0.708511 1 
0.139038 0.163245 0.0242015 0.156111 0.831107 -0.533752 1 
0.145549 0.166802 0.0233218 0.658966 -0.729624 0.18279 1 
0.146069 0.166763 0.0234547 0.65791 -0.723234 0.209971 1 
0.145754 0.166522 0.0235657 0.669513 -0.721603 0.176188 1 
0.145328 0.166606 0.0235282 0.666125 -0.727098 0.16615 1 
0.145169 0.166297 0.0233064 0.690252 -0.714003 0.117269 1 
0.145495 0.166363 0.0234767 0.667261 -0.725284 0.169487 1 
0.145299 0.166091 0.0229595 0.69595 -0.707872 0.120711 1 
0.144978 0.166045 0.0232986 0.682292 -0.723554 0.104628 1 
0.144523 0.165665 0.0236129 0.508265 -0.827658 0.238009 1 
0.144277 0.165494 0.0236224 0.467481 -0.854779 0.22542 1 
0.144586 0.165552 0.0231847 0.504463 -0.847675 0.164209 1 
0.144315 0.165405 0.0229972 0.455094 -0.876747 0.155575 1 
0.144093 0.165209 0.0232036 0.407481 -0.899318 0.158703 1 
0.144877 0.165817 0.0228767 0.622544 -0.778542 0.079443 1 
0.143646 0.164961 0.0229239 0.360581 -0.927786 0.0958848 1 
0.145884 0.166315 0.0232188 0.663279 -0.724836 0.18621 1 
0.145737 0.165994 0.0230954 0.667952 -0.730995 0.139594 1 
0.14543 0.165884 0.0226126 0.674905 -0.725785 0.133185 1 
0.144928 0.165248 0.0234083 0.663128 -0.746199 0.058722 1 
0.14394 0.16492 0.0234913 0.39568 -0.906235 0.148912 1 
0.145019 0.165599 0.0226283 0.655928 -0.754247 0.0294957 1 
0.144679 0.165382 0.0225424 0.563719 -0.82191 -0.0817607 1 
0.144527 0.165256 0.0226472 0.541589 -0.83726 -0.0753392 1 
0.144576 0.164992 0.0223034 0.535277 -0.83951 -0.0932789 1 
0.144785 0.165201 0.0219986 0.551929 -0.828614 -0.0936694 1 
0.144199 0.165027 0.0226597 0.447678 -0.894028 0.0172695 1 
0.143916 0.164893 0.0223738 0.405449 -0.911923 0.0633093 1 
0.144317 0.164833 0.0222144 0.477621 -0.877679 -0.0394616 1 
0.144448 0.164627 0.0218675 0.467889 -0.883493 -0.0227912 1 
0.144034 0.164699 0.0219284 0.439122 -0.898144 0.0225531 1 
0.143334 0.16526 0.0234068 0.360315 -0.923565 0.131149 1 
0.143428 0.165091 0.0227645 0.353376 -0.93114 0.0900236 1 
0.143521 0.164921 0.0221222 0.429093 -0.898456 0.0930395 1 
0.137451 0.165387 0.0217237 0.270858 -0.178304 -0.945962 1 
0.13734 0.16555 0.021758 0.253843 -0.204446 -0.945392 1 
0.137302 0.165587 0.0214626 0.227019 -0.213425 -0.950217 1 
0.137044 0.163898 0.0221977 0.37699 0.132155 -0.91674 1 
0.136356 0.164181 0.0221164 -0.348672 -0.917933 -0.189279 1 
0.140028 0.163735 0.0239356 0.836559 -0.431621 -0.337449 1 
0.140158 0.163529 0.0235887 -0.5088 0.833824 -0.214151 1 
0.139782 0.163564 0.023945 0.800459 0.00964408 -0.599311 1 
0.139088 0.163144 0.0236748 0.185353 0.824294 -0.534962 1 
0.139322 0.163328 0.0235669 0.0898035 0.850995 -0.517439 1 
0.139788 0.163532 0.023534 -0.202171 0.900315 -0.385434 1 
0.140042 0.163151 0.0232512 -0.316184 0.881987 -0.349467 1 
0.141143 0.163213 0.0212929 0.723116 -0.304385 0.620043 1 
0.141551 0.163122 0.0207225 0.821915 -0.332868 0.462229 1 
0.141774 0.162797 0.0206538 0.854753 -0.310679 0.415784 1 
0.141777 0.163123 0.020288 0.893393 -0.355276 0.275005 1 
0.141827 0.163022 0.0197613 0.940406 -0.295164 0.168861 1 
0.141774 0.162746 0.0197333 0.958132 -0.237214 0.160351 1 
0.141976 0.162772 0.0191019 0.972735 -0.217406 0.0807507 1 
0.141693 0.162637 0.0188159 0.974656 -0.210703 0.0751631 1 
0.14315 0.164342 0.0178307 0.895412 -0.438765 -0.0756492 1 
0.143197 0.164599 0.0173492 0.870296 -0.478734 -0.115754 1 
0.143536 0.164652 0.017618 0.86485 -0.489078 -0.113305 1 
0.143218 0.164034 0.0171744 0.908923 -0.410174 -0.0749486 1 
0.14205 0.16333 0.0184515 0.961971 -0.270049 0.0410673 1 
0.142816 0.166041 0.0145309 0.932691 -0.360674 -0.00126552 1 
0.142404 0.165644 0.0156501 0.873692 -0.444977 -0.196618 1 
0.142531 0.165163 0.0165895 0.882491 -0.44197 -0.160848 1 
0.142131 0.164702 0.0168866 0.898522 -0.42473 -0.110738 1 
0.142676 0.16527 0.0159753 0.89349 -0.423081 -0.150588 1 
0.143034 0.165279 0.0159315 0.873692 -0.444977 -0.196618 1 
0.141886 0.16448 0.0159755 0.92919 -0.348959 -0.121794 1 
0.143202 0.165036 0.01588 0.912898 -0.382828 -0.141632 1 
0.142301 0.163887 0.0160523 0.934275 -0.352482 -0.0537241 1 
0.141956 0.163917 0.0171151 0.946601 -0.315534 -0.0662231 1 
0.141839 0.163376 0.0169605 0.96083 -0.270745 -0.0591861 1 
0.141956 0.163866 0.0161946 0.935567 -0.347721 -0.0616713 1 
0.141839 0.163325 0.01604 0.941192 -0.329483 -0.0748228 1 
0.142142 0.163578 0.0158305 0.928981 -0.350585 -0.11868 1 
0.141522 0.162921 0.016334 0.956125 -0.276329 -0.097299 1 
0.142718 0.165722 0.0157219 0.873692 -0.444977 -0.196618 1 
0.142263 0.165291 0.0151157 0.9098 -0.380151 -0.166583 1 
0.142948 0.165366 0.0152423 0.912898 -0.382828 -0.141632 1 
0.143128 0.16511 0.0152892 0.918748 -0.371113 -0.134824 1 
0.142077 0.164681 0.0150628 0.928738 -0.347076 -0.130325 1 
0.142058 0.164725 0.0153753 0.927798 -0.350501 -0.12783 1 
0.142743 0.165646 0.0149984 0.903089 -0.398044 -0.161215 1 
0.142874 0.16544 0.0146514 0.914231 -0.383838 -0.129807 1 
0.143078 0.165159 0.0148953 0.918748 -0.371113 -0.134824 1 
0.141979 0.16431 0.0153333 0.930809 -0.344795 -0.121291 1 
0.142407 0.163705 0.0155085 0.92919 -0.348959 -0.121794 1 
0.142124 0.163571 0.0152225 0.933801 -0.335733 -0.123691 1 
0.141747 0.163392 0.0148413 0.949407 -0.313987 0.00620527 1 
0.142768 0.166253 0.0139541 0.938035 -0.345861 -0.021696 1 
0.143033 0.166381 0.0136321 0.715672 -0.628826 -0.303959 1 
0.140683 0.162345 0.022156 0.613337 0.0265454 0.789375 1 
0.141071 0.162135 0.022081 0.652721 0.00137996 0.757597 1 
0.14188 0.161932 0.0204306 0.930103 -0.029753 0.366091 1 
0.141782 0.161979 0.0187224 0.996909 -0.0700531 0.0355654 1 
0.141987 0.161698 0.0189662 0.998469 0.0548382 0.00724278 1 
0.141749 0.162505 0.0178782 0.984889 -0.172727 -0.0125828 1 
0.141666 0.162233 0.0171438 0.980949 -0.181746 -0.0686063 1 
0.142415 0.161042 0.018221 0.896895 0.431012 -0.0990351 1 
0.141493 0.162406 0.0157653 0.988111 -0.140826 -0.0616842 1 
0.142052 0.161594 0.0155936 0.998853 -0.0218272 -0.042615 1 
0.142255 0.163364 0.0148757 0.946976 -0.317372 -0.0501114 1 
0.141522 0.16287 0.0154135 0.940805 -0.33517 -0.0504696 1 
0.141624 0.162199 0.0154184 0.989124 -0.12466 -0.0780581 1 
0.141877 0.163185 0.0144944 0.949407 -0.313987 0.00620527 1 
0.141856 0.162852 0.0142522 0.945982 -0.317923 0.0635845 1 
0.141616 0.1627 0.0147712 0.945348 -0.323644 0.039656 1 
0.141746 0.162494 0.0144243 0.959318 -0.278915 0.0437759 1 
0.142209 0.162372 0.0147572 0.942749 -0.332809 -0.0215124 1 
0.141717 0.16203 0.0147761 0.986165 -0.151627 0.0669981 1 
0.141926 0.162238 0.0144712 0.986576 -0.148984 0.0668666 1 
0.141781 0.161132 0.0192259 0.95092 0.29249 0.100994 1 
0.141588 0.161818 0.0171017 0.992579 -0.111538 -0.0484459 1 
0.14203 0.160732 0.0184337 0.93145 0.360265 -0.0510922 1 
0.14191 0.159865 0.0186449 0.871288 0.490353 -0.0202625 1 
0.142157 0.160883 0.018132 0.93016 0.342112 -0.133273 1 
0.142214 0.160965 0.0179319 0.968556 0.23109 -0.0921833 1 
0.141873 0.159902 0.0183495 0.877641 0.479317 -0.00132775 1 
0.137233 0.157079 0.0177661 0.704675 0.37944 0.599549 1 
0.137601 0.157545 0.0167625 0.644487 0.11061 0.756572 1 
0.138377 0.157971 0.0161091 0.582032 0.11582 0.804875 1 
0.136782 0.157137 0.016611 0.666287 0.126699 0.734853 1 
0.148184 0.159485 0.0163881 0.629815 -0.733995 -0.254136 1 
0.1479 0.15935 0.0161021 0.684462 -0.703002 -0.193133 1 
0.147282 0.158439 0.0184014 -0.452968 -0.891237 -0.0227152 1 
0.146105 0.157807 0.0175562 0.670757 -0.717017 0.189662 1 
0.147286 0.159345 0.015874 0.718905 -0.483144 -0.499747 1 
0.14532 0.160514 0.0144389 0.524717 0.057369 -0.849342 1 
0.147094 0.15893 0.0160491 0.735072 -0.384726 -0.558262 1 
0.145138 0.158179 0.014982 0.210389 -0.84307 -0.494944 1 
0.144819 0.159142 0.0146347 0.205369 -0.882053 -0.424035 1 
0.144561 0.158983 0.0145457 0.0487348 -0.991697 -0.119004 1 
0.144636 0.158174 0.0145366 0.177281 -0.900817 -0.396359 1 
0.146816 0.156124 0.0214201 0.817359 0.575076 -0.0348109 1 
0.147369 0.15619 0.021156 0.817359 0.575076 -0.0348109 1 
0.147647 0.157784 0.0191878 0.106369 -0.965014 -0.239652 1 
0.14752 0.157633 0.0194895 -0.0347786 -0.975 -0.219465 1 
0.147472 0.157213 0.0201538 0.221176 -0.834366 -0.504891 1 
0.14797 0.157524 0.0197239 0.57076 -0.739875 -0.356115 1 
0.147877 0.157642 0.0194457 0.420142 -0.851136 -0.314719 1 
0.146745 0.155208 0.0220252 0.817359 0.575076 -0.0348109 1 
0.147372 0.155833 0.0211108 0.952608 -0.295193 0.0734759 1 
0.148515 0.158091 0.0188125 0.611221 -0.690301 -0.387161 1 
0.148523 0.158222 0.0182186 0.644166 -0.67367 -0.362241 1 
0.148728 0.157942 0.0184625 0.60804 -0.684252 -0.402599 1 
0.148762 0.158211 0.0178826 0.630701 -0.686399 -0.362039 1 
0.148056 0.159119 0.0159521 0.743217 -0.648985 -0.162626 1 
0.14785 0.158553 0.0162118 0.757511 -0.621746 -0.19902 1 
0.147819 0.158029 0.0185875 0.615361 -0.716027 -0.3296 1 
0.146728 0.158158 0.017928 0.597043 -0.784469 0.167777 1 
0.147803 0.157716 0.0188549 0.529743 -0.790637 -0.307028 1 
0.148403 0.157356 0.0184299 0.78169 -0.463164 -0.41766 1 
0.146555 0.157698 0.0177906 0.841561 -0.539532 0.0260843 1 
0.145662 0.156517 0.0175519 0.787934 -0.595093 -0.158189 1 
0.146025 0.156546 0.0180176 0.923055 -0.279063 -0.264752 1 
0.146305 0.15614 0.0179318 0.875783 -0.121438 -0.46718 1 
0.146486 0.158261 0.0166511 0.721457 -0.59058 -0.361546 1 
0.146579 0.158091 0.0160088 0.678565 -0.51772 -0.521071 1 
0.145956 0.157109 0.0168781 0.782877 -0.562348 -0.26621 1 
0.146118 0.157744 0.0167341 0.742066 -0.548768 -0.384957 1 
0.146587 0.15759 0.016656 0.745331 -0.569959 -0.345873 1 
0.146165 0.157317 0.0165732 0.731652 -0.547506 -0.406108 1 
0.146625 0.157502 0.0160309 0.72232 -0.5405 -0.431408 1 
0.145707 0.157458 0.0167498 0.676246 -0.576061 -0.459179 1 
0.145342 0.157266 0.016467 0.449472 -0.623245 -0.639954 1 
0.145054 0.157327 0.0164092 0.333227 -0.648573 -0.684334 1 
0.146252 0.157179 0.016342 0.71464 -0.552146 -0.429447 1 
0.145993 0.15702 0.016253 0.761234 -0.523246 -0.383062 1 
0.1463 0.155651 0.0184805 0.901674 -0.140135 -0.40908 1 
0.147572 0.155379 0.0180836 0.427645 0.179523 -0.885941 1 
0.147031 0.154402 0.0180292 -0.0986504 -0.100972 -0.989986 1 
0.146399 0.155236 0.0166896 -0.507307 -0.40291 -0.761776 1 
0.147257 0.155719 0.016033 -0.783378 -0.400609 -0.475217 1 
0.152775 0.155717 0.020012 -0.261274 0.945236 -0.195613 1 
0.152421 0.15535 0.0200105 -0.340064 0.925031 -0.169332 1 
0.153122 0.155218 0.0200074 -0.261274 0.945236 -0.195613 1 
0.1527 0.154944 0.0199247 -0.364171 0.918161 -0.156073 1 
0.152425 0.155155 0.0197824 -0.370516 0.912804 -0.171772 1 
0.152218 0.155059 0.0189838 -0.337662 0.918954 -0.203737 1 
0.151464 0.154915 0.0189589 -0.326721 0.92024 -0.215436 1 
0.151464 0.154915 0.0189589 -0.326721 0.92024 -0.215436 1 
0.150898 0.154646 0.018387 -0.312114 0.933568 -0.176171 1 
0.151595 0.154708 0.018612 -0.264471 0.924932 -0.273048 1 
0.151431 0.154594 0.0186183 -0.309927 0.91825 -0.2465 1 
0.151324 0.154561 0.0184245 -0.335775 0.922319 -0.191264 1 
0.150858 0.154357 0.0184574 -0.302685 0.933161 -0.193886 1 
0.15116 0.154447 0.0184308 -0.306176 0.932508 -0.191535 1 
0.150573 0.15406 0.0183544 -0.265432 0.915232 -0.303143 1 
0.150805 0.154764 0.0181087 -0.302685 0.933161 -0.193886 1 
0.150976 0.154163 0.018012 -0.302685 0.933161 -0.193886 1 
0.151841 0.154828 0.017682 -0.339036 0.91697 -0.210288 1 
0.151481 0.154493 0.0180916 -0.335775 0.922319 -0.191264 1 
0.151198 0.154359 0.0178057 -0.356919 0.923544 -0.140268 1 
0.151562 0.154336 0.0173509 -0.31333 0.928749 -0.198114 1 
0.151316 0.154165 0.0173603 -0.306787 0.934244 -0.181851 1 
0.151935 0.154658 0.0170397 -0.296364 0.931228 -0.21209 1 
0.147693 0.15398 0.0180966 -0.0983189 -0.129118 -0.986743 1 
0.147604 0.153741 0.0177731 -0.0563392 -0.078433 -0.995326 1 
0.147972 0.153575 0.0180108 -0.0460104 0.00306736 -0.998936 1 
0.148561 0.153441 0.0182249 -0.107156 0.620919 -0.776516 1 
0.148644 0.154345 0.0177182 0.108765 0.234166 -0.966093 1 
0.148071 0.154108 0.0175573 0.00098326 -0.00688282 -0.999976 1 
0.148435 0.154085 0.0171025 0.119634 0.195192 -0.973441 1 
0.148032 0.153982 0.0174448 0.00098326 -0.00688282 -0.999976 1 
0.147635 0.153684 0.017559 -0.0399617 0.0680429 -0.996882 1 
0.148864 0.154327 0.0167742 0.175335 -0.0148977 -0.984396 1 
0.148621 0.153798 0.0167385 0.178585 -0.00113748 -0.983924 1 
0.150623 0.153959 0.0178277 0.393062 -0.289864 -0.872629 1 
0.150316 0.154064 0.0180824 -0.0984746 0.662866 -0.742234 1 
0.150311 0.154044 0.0175729 -0.0758939 0.582808 -0.809058 1 
0.149922 0.154092 0.0178308 -0.0578067 0.554098 -0.830442 1 
0.150027 0.15391 0.017287 -0.0578067 0.554098 -0.830442 1 
0.149643 0.153762 0.0173167 -0.063245 0.527042 -0.847483 1 
0.149486 0.153616 0.016912 -0.063245 0.527042 -0.847483 1 
0.150988 0.153936 0.0173729 -0.321231 0.885271 -0.336312 1 
0.150741 0.153765 0.0173823 0.375582 -0.350853 -0.857811 1 
0.150441 0.153838 0.017226 0.385548 -0.509184 -0.76947 1 
0.150101 0.153621 0.0171402 -0.20248 0.737275 -0.644536 1 
0.14914 0.153646 0.0179747 -0.172506 0.673231 -0.719029 1 
0.148881 0.153487 0.0178857 -0.0978943 0.612205 -0.784616 1 
0.1484 0.152969 0.018186 -0.146217 0.709979 -0.688876 1 
0.148635 0.153316 0.0178951 -0.0675196 0.622042 -0.780067 1 
0.148655 0.152588 0.0179032 -0.0831475 0.491839 -0.866707 1 
0.148859 0.152991 0.0178265 -0.105915 0.558591 -0.822653 1 
0.148192 0.15271 0.0175703 -0.116987 0.650095 -0.750793 1 
0.149397 0.153591 0.0173262 -0.063245 0.527042 -0.847483 1 
0.149388 0.153246 0.0171825 -0.0555035 0.431844 -0.900239 1 
0.148975 0.153318 0.0172434 0.0656027 0.386922 -0.919776 1 
0.148359 0.152466 0.0175188 -0.094001 0.577022 -0.811301 1 
0.149179 0.153037 0.0174874 0.0195705 0.397934 -0.917205 1 
0.148453 0.152297 0.0168765 -0.0238305 0.730335 -0.682674 1 
0.148595 0.152078 0.0166281 -0.166229 0.718292 -0.675591 1 
0.14759 0.158915 0.0159851 0.720974 -0.641746 -0.261452 1 
0.147237 0.158711 0.0158007 0.757628 -0.288696 -0.585367 1 
0.146924 0.158796 0.0155459 0.329202 -0.823792 -0.461512 1 
0.147448 0.158399 0.0156336 0.772895 -0.49628 -0.395397 1 
0.147203 0.15839 0.0154601 0.70938 -0.283432 -0.645327 1 
0.146808 0.158418 0.0152085 0.598499 0.608615 -0.520947 1 
0.146792 0.157942 0.0156588 0.66645 -0.518723 -0.53551 1 
0.147173 0.158395 0.0147537 0.604398 -0.119697 -0.787639 1 
0.147075 0.158025 0.0150242 0.279382 -0.729586 -0.624219 1 
0.14684 0.157678 0.015315 0.549008 -0.508714 -0.663175 1 
0.147243 0.157781 0.0149727 0.649495 -0.355014 -0.672399 1 
0.146983 0.157459 0.0150666 0.626454 -0.420406 -0.656364 1 
0.145041 0.157073 0.0146526 0.20626 -0.808235 -0.551555 1 
0.146591 0.157181 0.0156903 0.736983 -0.529243 -0.420426 1 
0.146509 0.157124 0.0156934 0.736983 -0.529243 -0.420426 1 
0.146684 0.157012 0.015048 0.563315 -0.556548 -0.610681 1 
0.146463 0.156816 0.0152543 0.563315 -0.556548 -0.610681 1 
0.146179 0.156733 0.0158889 0.66048 -0.569727 -0.489058 1 
0.146322 0.156514 0.0156405 0.912764 -0.391976 -0.114961 1 
0.145851 0.156504 0.0159015 -0.833153 -0.247944 -0.494348 1 
0.145994 0.156285 0.0156531 -0.127095 -0.455542 -0.881095 1 
0.146852 0.156768 0.0149965 0.836887 -0.543342 0.06633 1 
0.14702 0.156525 0.014945 0.845769 -0.527362 0.0810232 1 
0.146854 0.156248 0.0151342 0.639704 -0.541807 -0.545183 1 
0.146594 0.156609 0.0149074 0.791242 -0.560268 -0.24502 1 
0.145378 0.153323 0.0189143 -0.703692 0.700717 -0.11753 1 
0.1442 0.156435 0.0161001 0.180783 -0.788456 -0.587924 1 
0.145273 0.154984 0.0177134 -0.115273 -0.29017 -0.950007 1 
0.145587 0.153531 0.0186094 -0.0555363 0.0642479 -0.996387 1 
0.145095 0.153189 0.0186283 -0.754142 0.653205 -0.0677718 1 
0.145516 0.155461 0.0168286 -0.71979 -0.251531 -0.64702 1 
0.146562 0.153239 0.0196691 -0.264102 0.608858 -0.748025 1 
0.144184 0.151532 0.0188398 -0.785594 0.609386 -0.107193 1 
0.145391 0.153259 0.0180922 -0.374364 0.516978 -0.769795 1 
0.145393 0.152739 0.0182299 -0.483827 0.713271 -0.507104 1 
0.14496 0.152855 0.0186034 -0.720167 0.664412 -0.199788 1 
0.144499 0.152456 0.0184082 -0.800496 0.57822 -0.157696 1 
0.144803 0.152026 0.0185193 -0.807219 0.571469 -0.147717 1 
0.145542 0.153386 0.0179874 -0.253155 0.438095 -0.862546 1 
0.145483 0.152927 0.0176328 -0.418744 0.703424 -0.574325 1 
0.145692 0.153135 0.017328 -0.251749 0.555098 -0.792773 1 
0.144972 0.152628 0.0179642 -0.74578 0.641646 -0.179171 1 
0.144692 0.152136 0.0176331 -0.795087 0.580035 -0.177191 1 
0.144854 0.151873 0.0170721 -0.781106 0.586216 -0.214998 1 
0.146279 0.153471 0.0164839 0.0760182 -0.0246256 -0.996802 1 
0.146229 0.153521 0.01609 0.174018 -0.289117 -0.941344 1 
0.145593 0.153234 0.0165402 -0.486486 0.718937 -0.496448 1 
0.145084 0.152415 0.0170094 -0.786602 0.58033 -0.210889 1 
0.145363 0.152009 0.0169236 -0.486386 0.746891 -0.453411 1 
0.144891 0.151785 0.016447 -0.77969 0.588241 -0.214608 1 
0.148154 0.1519 0.0177784 0.0707441 -0.671347 -0.737759 1 
0.145766 0.152061 0.0156607 -0.468862 0.76619 -0.439456 1 
0.145525 0.151695 0.015442 -0.642493 0.625804 -0.442235 1 
0.14439 0.152098 0.0185802 -0.789007 0.603877 -0.113135 1 
0.144495 0.151916 0.0180364 -0.772402 0.611548 -0.171476 1 
0.14433 0.151639 0.0182256 -0.769114 0.613768 -0.178191 1 
0.143957 0.151316 0.0185367 -0.795638 0.581253 -0.170602 1 
0.144477 0.151909 0.0174284 -0.78452 0.584152 -0.208075 1 
0.144259 0.151355 0.0175896 -0.775825 0.593096 -0.215249 1 
0.143435 0.150295 0.0181698 -0.801994 0.577973 -0.150841 1 
0.143006 0.150054 0.0184981 -0.812341 0.566715 -0.13761 1 
0.14289 0.149676 0.0181606 -0.806028 0.579103 -0.122304 1 
0.143526 0.150646 0.0173898 -0.786484 0.592515 -0.174269 1 
0.143074 0.149909 0.0176589 -0.807233 0.572347 -0.144202 1 
0.142544 0.14944 0.0175653 -0.806521 0.575664 -0.134667 1 
0.14457 0.151739 0.0167862 -0.78452 0.584152 -0.208075 1 
0.144235 0.151328 0.0164722 -0.779289 0.591025 -0.208325 1 
0.144633 0.151626 0.016358 -0.779289 0.591025 -0.208325 1 
0.143969 0.151038 0.0169771 -0.779289 0.591025 -0.208325 1 
0.144328 0.151159 0.0158298 -0.773113 0.604712 -0.191365 1 
0.143889 0.151092 0.0158768 -0.777692 0.596691 -0.197874 1 
0.143565 0.150089 0.0178229 -0.79885 0.583833 -0.144838 1 
0.142872 0.149669 0.0175527 -0.805157 0.575962 -0.141386 1 
0.143242 0.149665 0.0176074 -0.80091 0.584768 -0.128797 1 
0.143996 0.150441 0.0163912 -0.770668 0.604536 -0.201512 1 
0.144496 0.150915 0.0157784 -0.776939 0.595397 -0.204619 1 
0.144019 0.150886 0.0155298 -0.775767 0.601334 -0.191264 1 
0.144089 0.150272 0.0157489 -0.765047 0.614797 -0.191645 1 
0.142312 0.148787 0.0187314 -0.817359 -0.575076 0.0348109 1 
0.105452 0.21126 0.0106614 0.565116 0.190403 -0.802739 0 
0.105743 0.210627 0.00993637 0.513672 0.245267 -0.822183 0 
0.104953 0.210735 0.0103536 0.554365 0.156896 -0.817352 0 
0.105467 0.210675 0.009977 0.536447 0.225953 -0.813124 0 
0.105629 0.211994 0.00951237 0.608099 -0.0152371 -0.793715 0 
0.10555 0.211579 0.00947032 0.501117 0.0230867 -0.865072 0 
0.105431 0.211559 0.00917808 0.583358 0.0292375 -0.811689 0 
0.104931 0.211717 0.00854976 0.575129 0.032029 -0.817435 0 
0.105207 0.211037 0.00975025 0.529761 0.114661 -0.840361 0 
0.105625 0.211454 0.00914058 0.405378 -0.0438605 -0.913096 0 
0.105776 0.210734 0.00953934 0.515776 0.235563 -0.823702 0 
0.106037 0.211219 0.00926257 0.518334 0.164857 -0.839137 0 
0.105766 0.211072 0.00907506 0.528659 0.172226 -0.831178 0 
0.105878 0.21091 0.00904072 0.537412 0.22944 -0.811508 0 
0.105715 0.211642 0.0085435 0.592751 0.0320783 -0.804747 0 
0.105416 0.211194 0.00852489 0.56043 0.0816996 -0.824162 0 
0.105774 0.211203 0.00848111 0.556065 0.0905222 -0.826195 0 
0.10591 0.211016 0.00864372 0.536564 0.202162 -0.819286 0 
0.104741 0.211465 0.00854201 0.583919 0.0263526 -0.811384 0 
0.104352 0.209982 0.00962402 0.585884 0.242165 -0.773367 0 
0.105014 0.211091 0.00886722 0.563323 0.147148 -0.813028 0 
0.104622 0.210761 0.00857037 0.59471 0.198237 -0.779116 0 
0.105373 0.210579 0.00896113 0.544855 0.226894 -0.80725 0 
0.10501 0.210551 0.00849543 0.568439 0.224588 -0.791478 0 
0.104531 0.210359 0.00842988 0.600565 0.221914 -0.768164 0 
0.106048 0.21036 0.00986454 0.527862 0.288354 -0.798883 0 
0.106384 0.209873 0.00976155 0.505793 0.2803 -0.815846 0 
0.105999 0.210409 0.00947069 0.516392 0.25587 -0.817233 0 
0.105962 0.210446 0.00917528 0.509621 0.252487 -0.822519 0 
0.106204 0.210129 0.00971459 0.529547 0.295598 -0.795111 0 
0.106167 0.210166 0.00941919 0.508277 0.265796 -0.81915 0 
0.106142 0.21019 0.00922227 0.515007 0.259838 -0.816855 0 
0.106022 0.210854 0.00860938 0.53071 0.226128 -0.816831 0 
0.106264 0.209853 0.0094693 0.505966 0.266216 -0.820443 0 
0.106376 0.20969 0.00943496 0.510111 0.258932 -0.820208 0 
0.106063 0.209776 0.00918019 0.508277 0.265796 -0.81915 0 
0.106175 0.209613 0.00914585 0.501938 0.26884 -0.82206 0 
0.1066 0.209366 0.0093663 0.525781 0.26055 -0.809733 0 
0.106644 0.20946 0.00906777 0.526242 0.267025 -0.807321 0 
0.105408 0.210165 0.00870183 0.521588 0.235407 -0.820079 0 
0.105038 0.210168 0.00864714 0.544855 0.226894 -0.80725 0 
0.105274 0.209831 0.00867698 0.509621 0.252487 -0.822519 0 
0.105441 0.209588 0.00862546 0.505129 0.248702 -0.826433 0 
0.104711 0.210103 0.00847681 0.568439 0.224588 -0.791478 0 
0.104903 0.209835 0.00862226 0.544855 0.226894 -0.80725 0 
0.104633 0.209688 0.00843476 0.551903 0.227254 -0.802346 0 
0.105195 0.209417 0.0086349 0.50509 0.262647 -0.822132 0 
0.104949 0.209245 0.00864433 0.541377 0.285683 -0.790757 0 
0.105907 0.209792 0.00859254 0.5168 0.252968 -0.817878 0 
0.105609 0.209345 0.00857394 0.503323 0.255533 -0.82545 0 
0.105832 0.20902 0.0085053 0.483239 0.236284 -0.843001 0 
0.106066 0.209204 0.0083974 0.510876 0.276529 -0.813964 0 
0.105363 0.209173 0.00858337 0.507702 0.273378 -0.817009 0 
0.105117 0.209002 0.00859283 0.528528 0.317756 -0.787204 0 
0.10553 0.20893 0.0085319 0.524479 0.299476 -0.797017 0 
0.105309 0.208734 0.00873825 0.515917 0.298191 -0.803064 0 
0.107586 0.208001 0.0102904 0.466386 0.0765709 -0.881261 0 
0.107333 0.208493 0.00946973 0.504134 0.141742 -0.851914 0 
0.10748 0.208131 0.00991369 0.461252 0.10015 -0.881599 0 
0.107648 0.207888 0.0098622 0.379559 0.0115798 -0.925095 0 
0.106793 0.209261 0.00932881 0.53205 0.271518 -0.801998 0 
0.106986 0.208993 0.00947426 0.55388 0.265172 -0.78924 0 
0.106961 0.209017 0.00927732 0.542748 0.258079 -0.799262 0 
0.106756 0.209298 0.00903342 0.525781 0.26055 -0.809733 0 
0.106842 0.208997 0.00898506 0.504135 0.231381 -0.832052 0 
0.107317 0.208863 0.00941646 0.543892 0.199579 -0.815076 0 
0.107128 0.208774 0.00922583 0.503269 0.167756 -0.84769 0 
0.107009 0.208754 0.00893356 0.504525 0.187139 -0.842872 0 
0.107296 0.20853 0.00917432 0.497466 0.13859 -0.856341 0 
0.107246 0.20858 0.00878045 0.50195 0.141951 -0.853168 0 
0.10771 0.208458 0.00911339 0.506761 0.129231 -0.852345 0 
0.10782 0.208133 0.00926195 0.450975 0.0730939 -0.889538 0 
0.107783 0.20817 0.00896656 0.457448 0.0792539 -0.885697 0 
0.107463 0.208287 0.00912283 0.481089 0.112778 -0.869387 0 
0.107414 0.208336 0.00872898 0.481089 0.112778 -0.869387 0 
0.105944 0.208858 0.00847096 0.483555 0.24715 -0.839697 0 
0.106167 0.208533 0.00840231 0.484913 0.21602 -0.847464 0 
0.105698 0.208686 0.00848039 0.484924 0.257087 -0.835916 0 
0.10523 0.208319 0.00869621 0.505388 0.315273 -0.803234 0 
0.105452 0.208515 0.00848983 0.52073 0.320082 -0.791446 0 
0.105921 0.208362 0.00841174 0.474254 0.215296 -0.853657 0 
0.106033 0.208199 0.00837741 0.4755 0.182201 -0.860641 0 
0.105675 0.20819 0.00842117 0.467149 0.214798 -0.857691 0 
0.105787 0.208028 0.00838684 0.479632 0.222416 -0.848813 0 
0.105541 0.207857 0.00839628 0.457638 0.228064 -0.859392 0 
0.105392 0.208056 0.00813519 0.495732 0.303734 -0.813631 0 
0.106322 0.208302 0.0082523 0.467437 0.16265 -0.868935 0 
0.105745 0.207576 0.00864018 0.417216 0.086748 -0.904657 0 
0.106163 0.207993 0.00803052 0.436573 0.138844 -0.888891 0 
0.105835 0.207764 0.0080431 0.461796 0.207733 -0.862318 0 
0.107921 0.207514 0.0101874 0.289885 -0.0896952 -0.952849 0 
0.108195 0.207303 0.0103297 0.4181 -0.0144172 -0.908287 0 
0.108088 0.20727 0.0101359 0.463513 0.00132055 -0.886089 0 
0.107815 0.207644 0.00981069 0.30175 -0.06035 -0.951475 0 
0.107754 0.207706 0.00931837 0.360726 -0.0297372 -0.932198 0 
0.107995 0.207388 0.00985768 0.241258 -0.134322 -0.96112 0 
0.107921 0.207462 0.00926687 0.280113 -0.111782 -0.953437 0 
0.108225 0.207083 0.0102985 0.395713 -0.0222017 -0.918106 0 
0.108092 0.206913 0.0100907 0.440278 -0.0145437 -0.897744 0 
0.108333 0.206595 0.01063 0.392124 -0.0327863 -0.919328 0 
0.108445 0.206433 0.0105957 0.389866 -0.0354424 -0.920189 0 
0.10853 0.206816 0.0102267 0.279747 -0.0594937 -0.958229 0 
0.108642 0.206653 0.0101923 0.392124 -0.0327863 -0.919328 0 
0.108163 0.207145 0.00980618 0.455114 -0.0200197 -0.890208 0 
0.108166 0.206787 0.00976096 0.455125 -0.0119421 -0.890347 0 
0.108334 0.206544 0.00970947 0.422979 -0.0304969 -0.905626 0 
0.107757 0.207348 0.00927319 0.23718 -0.145453 -0.960515 0 
0.108259 0.206669 0.0100392 0.387154 -0.0273745 -0.921609 0 
0.10788 0.207011 0.0095202 0.194461 -0.1788 -0.964477 0 
0.107367 0.207865 0.00847281 0.435774 0.0306508 -0.899534 0 
0.106992 0.205798 0.00887046 0.513922 -0.0259006 -0.857446 0 
0.108576 0.206226 0.0102487 0.407685 -0.0385109 -0.91231 0 
0.108427 0.206426 0.00998769 0.392124 -0.0327863 -0.919328 0 
0.108828 0.206366 0.00982826 0.405423 -0.041207 -0.9132 0 
0.108653 0.206427 0.00955319 0.392124 -0.0327863 -0.919328 0 
0.109779 0.206047 0.00977052 0.388506 -0.0194903 -0.92124 0 
0.109477 0.205957 0.00979716 0.388506 -0.0194903 -0.92124 0 
0.109701 0.205632 0.00972848 0.411494 -0.0249788 -0.91107 0 
0.10989 0.205722 0.00991912 0.411494 -0.0249788 -0.91107 0 
0.108202 0.205689 0.00982226 0.405423 -0.041207 -0.9132 0 
0.107669 0.205741 0.00959096 0.407685 -0.0385109 -0.91231 0 
0.107361 0.205632 0.00910807 0.47539 -0.0255875 -0.879403 0 
0.107836 0.205498 0.00953945 0.399019 -0.041095 -0.916021 0 
0.107566 0.205351 0.00935194 0.383037 -0.0434372 -0.922711 0 
0.107962 0.204803 0.00974128 0.397326 0.011648 -0.917604 0 
0.108167 0.204522 0.00998521 0.449831 0.00923407 -0.893066 0 
0.108344 0.205471 0.00957384 0.407685 -0.0385109 -0.91231 0 
0.108098 0.205299 0.00958329 0.421606 0.00129725 -0.906778 0 
0.108184 0.204999 0.00953493 0.396395 0.00903832 -0.918036 0 
0.10777 0.205071 0.00959587 0.413971 0.0117531 -0.910214 0 
0.10716 0.205555 0.00881896 0.448488 -0.0390575 -0.892935 0 
0.107114 0.204614 0.00962105 0.374603 0.0272203 -0.926786 0 
0.107307 0.205192 0.00926292 0.350971 -0.0088693 -0.936344 0 
0.106979 0.204964 0.00927551 0.363728 0.00380203 -0.931498 0 
0.107549 0.204875 0.00980224 0.395143 0.01166 -0.918546 0 
0.107729 0.204619 0.0098492 0.396056 0.0168811 -0.918071 0 
0.107263 0.204415 0.00988212 0.410558 0.0196753 -0.911622 0 
0.107921 0.204351 0.00999463 0.440405 0.00130684 -0.897798 0 
0.107593 0.204123 0.0100072 0.407374 -0.022268 -0.91299 0 
0.0766295 0.272044 -0.00289407 0.272391 -0.664253 -0.696111 0 
0.0764531 0.271942 -0.00298625 0.268271 -0.630198 -0.728616 0 
0.076536 0.272846 -0.00349294 0.219378 -0.811545 -0.541542 0 
0.0762796 0.272166 -0.00344425 0.268306 -0.611229 -0.744588 0 
0.0764574 0.272431 -0.00353498 0.308204 -0.627704 -0.714841 0 
0.0764886 0.272374 -0.00374907 0.301117 -0.632829 -0.713341 0 
0.0767499 0.272859 -0.00402589 0.332647 -0.728578 -0.598765 0 
0.0764515 0.272411 -0.00404447 0.340168 -0.62988 -0.698239 0 
0.0735522 0.272376 -0.0039897 0.327896 -0.589567 -0.73817 0 
0.0737306 0.272589 -0.00500093 0.198558 -0.604908 -0.771143 0 
0.0732284 0.273268 -0.00576696 -0.22679 -0.739804 -0.633448 0 
0.0732131 0.272955 -0.00549965 -0.20591 -0.735394 -0.645598 0 
0.0736129 0.272732 -0.00547611 -0.182518 -0.719336 -0.670256 0 
0.0734781 0.27245 -0.00458049 0.162014 -0.616257 -0.7707 0 
0.0750614 0.271929 -0.0045397 0.342582 -0.592618 -0.729001 0 
0.0752661 0.271649 -0.00429581 0.337863 -0.570649 -0.748471 0 
0.0746396 0.270972 -0.00430187 0.328788 -0.530872 -0.781072 0 
0.0735172 0.271892 -0.00414738 0.356963 -0.528176 -0.770459 0 
0.0738335 0.27145 -0.00393783 0.272204 -0.622407 -0.733836 0 
0.0736413 0.271718 -0.00408326 0.338284 -0.564885 -0.752641 0 
0.0733987 0.271189 -0.004119 0.206577 -0.558523 -0.803355 0 
0.0740134 0.271194 -0.00389086 0.288861 -0.604852 -0.742101 0 
0.0741853 0.271439 -0.00449109 0.337637 -0.554112 -0.760895 0 
0.0742659 0.271333 -0.00431131 0.323547 -0.574657 -0.751723 0 
0.0737861 0.270978 -0.00419399 0.352353 -0.506809 -0.786761 0 
0.0742818 0.270963 -0.00425807 0.31866 -0.552451 -0.770229 0 
0.074181 0.27095 -0.00394234 0.287128 -0.566325 -0.77255 0 
0.0737341 0.272232 -0.00504617 0.24231 -0.576853 -0.780081 0 
0.0740627 0.271777 -0.00473815 0.330482 -0.556177 -0.762527 0 
0.0743241 0.272261 -0.00501494 0.329671 -0.554812 -0.763872 0 
0.074078 0.27209 -0.00500547 0.336578 -0.549153 -0.764949 0 
0.0740548 0.272278 -0.00538533 0.297059 -0.541696 -0.786334 0 
0.074115 0.272685 -0.00595122 -0.00415877 -0.694514 -0.719467 0 
0.0738502 0.272558 -0.00562925 0.00138271 -0.678911 -0.734219 0 
0.0744125 0.272287 -0.0054291 0.33904 -0.522217 -0.782522 0 
0.074459 0.272544 -0.00591055 0.211839 -0.607685 -0.765404 0 
0.074157 0.272454 -0.00588397 -0.00415589 -0.677411 -0.735593 0 
0.0748494 0.272027 -0.00511022 0.313862 -0.600362 -0.735565 0 
0.0754642 0.272032 -0.00488203 0.342914 -0.583442 -0.73621 0 
0.0742861 0.271452 -0.0048068 0.323755 -0.565363 -0.758649 0 
0.0744916 0.272018 -0.00506644 0.330909 -0.563353 -0.757056 0 
0.074673 0.271925 -0.00520236 0.333568 -0.559169 -0.758988 0 
0.0747412 0.271832 -0.0051211 0.314325 -0.5948 -0.739873 0 
0.0749459 0.271551 -0.00487715 0.344185 -0.554251 -0.757854 0 
0.0748638 0.271494 -0.00487403 0.350363 -0.537654 -0.766925 0 
0.0745866 0.271379 -0.00465049 0.354065 -0.538373 -0.764717 0 
0.074715 0.271693 -0.0051351 0.323728 -0.5782 -0.748922 0 
0.0751854 0.272387 -0.00571673 0.333125 -0.55199 -0.764418 0 
0.0746636 0.272263 -0.0056667 0.293781 -0.557391 -0.776536 0 
0.0752971 0.272224 -0.00575104 0.337408 -0.550508 -0.763608 0 
0.0738379 0.271938 -0.00448653 0.327394 -0.578988 -0.746717 0 
0.0739496 0.271776 -0.00452087 0.306871 -0.589643 -0.747095 0 
0.0788904 0.266988 -0.000763834 0.425904 -0.185875 -0.88547 0 
0.0791751 0.265704 -0.00075715 0.454719 -0.121163 -0.882355 0 
0.0790684 0.265672 -0.000950947 0.445479 -0.123823 -0.886688 0 
0.0765014 0.264191 0.000607803 0.568941 -0.153808 -0.807867 0 
0.0767926 0.271312 -0.00239684 0.17049 -0.577855 -0.798134 0 
0.0766844 0.271116 -0.00240772 0.116694 -0.613013 -0.781407 0 
0.0762752 0.271677 -0.0028955 0.26373 -0.598526 -0.756448 0 
0.076294 0.271633 -0.00320806 0.260294 -0.601043 -0.755642 0 
0.0776339 0.269737 -0.00269955 0.37337 -0.156393 -0.914405 0 
0.0781142 0.269408 -0.00249629 0.423851 -0.0869792 -0.901546 0 
