0.1135 0.2157 -0.037 -0.552693 0.745076 0.373353 0 
0.1138 0.2157 -0.0377 -0.55122 0.766565 0.329446 0 
0.1138 0.2157 -0.0374 -0.552116 0.756124 0.351347 0 
0.1138 0.2159 -0.0368 -0.531208 0.753498 0.387373 0 
0.1132 0.2162 -0.0383 -0.569116 0.75291 0.330506 0 
0.1129 0.2162 -0.0382 -0.587453 0.739576 0.328521 0 
0.1135 0.2162 -0.0382 -0.56615 0.75648 0.327432 0 
0.1132 0.216 -0.038 -0.587453 0.739576 0.328521 0 
0.1129 0.2162 -0.0379 -0.58823 0.737313 0.332196 0 
0.1132 0.216 -0.0377 -0.56972 0.753709 0.32763 0 
0.113 0.216 -0.0373 -0.576345 0.741943 0.34256 0 
0.113 0.2162 -0.037 -0.55347 0.754732 0.352208 0 
0.1121 0.2145 -0.0365 -0.414102 0.813815 0.407707 0 
0.1124 0.2147 -0.0365 -0.566074 0.726871 0.388868 0 
0.1123 0.2148 -0.0367 -0.426248 0.812586 0.397513 0 
0.1123 0.2144 -0.0362 -0.554268 0.731897 0.396376 0 
0.1124 0.2151 -0.0364 -0.563205 0.730688 0.385869 0 
0.1123 0.2148 -0.0362 -0.549323 0.736257 0.395184 0 
0.1126 0.215 -0.0361 -0.538443 0.744655 0.394422 0 
0.1121 0.2153 -0.0365 -0.576229 0.72398 0.379228 0 
0.1124 0.2153 -0.0367 -0.577758 0.725062 0.374806 0 
0.1129 0.2159 -0.0365 -0.555297 0.735482 0.388216 0 
0.1132 0.2157 -0.0368 -0.558309 0.738409 0.37821 0 
0.1132 0.2159 -0.0365 -0.541455 0.744296 0.39096 0 
0.1135 0.2157 -0.0361 -0.532343 0.736711 0.416975 0 
0.1126 0.2147 -0.0359 -0.520204 0.749948 0.408615 0 
0.1126 0.2147 -0.0357 -0.522592 0.748666 0.407917 0 
0.1126 0.215 -0.0359 -0.533678 0.743864 0.402311 0 
0.1126 0.2145 -0.0353 -0.480579 0.770556 0.418674 0 
0.1135 0.2156 -0.0358 -0.517519 0.744242 0.42223 0 
0.1129 0.2159 -0.0359 -0.528118 0.741998 0.412952 0 
0.1133 0.2159 -0.0359 -0.530485 0.740708 0.412234 0 
0.1132 0.2153 -0.0356 -0.514556 0.747996 0.419207 0 
0.1135 0.2153 -0.0355 -0.511423 0.748223 0.422623 0 
0.1132 0.2153 -0.0353 -0.492787 0.758008 0.4273 0 
0.1138 0.2159 -0.0365 -0.525756 0.751782 0.398002 0 
0.1142 0.2156 -0.0365 -0.527542 0.744475 0.409215 0 
0.1139 0.2156 -0.0362 -0.5329 0.734181 0.42071 0 
0.1138 0.2151 -0.0357 -0.517676 0.747754 0.415784 0 
0.1139 0.215 -0.0353 -0.486938 0.75582 0.437753 0 
0.1139 0.2156 -0.0359 -0.519859 0.737705 0.430741 0 
0.1135 0.2162 -0.0367 -0.533571 0.755485 0.38019 0 
0.1129 0.216 -0.0362 -0.546314 0.736621 0.398661 0 
0.113 0.2162 -0.0362 -0.534271 0.741404 0.406046 0 
0.1135 0.216 -0.0364 -0.530022 0.746625 0.402029 0 
0.1132 0.2162 -0.0361 -0.529908 0.743183 0.408505 0 
0.1115 0.2133 -0.0329 0.0140855 0.930924 0.364942 0 
0.1111 0.2132 -0.0322 0.258278 0.885312 0.386671 0 
0.112 0.2132 -0.0327 -0.0326951 0.922002 0.385802 0 
0.1105 0.2136 -0.0323 0.505118 0.748628 0.429433 0 
0.1126 0.2136 -0.0352 -0.296543 0.843051 0.448696 0 
0.1126 0.2139 -0.0352 -0.481126 0.76817 0.422412 0 
0.1126 0.2136 -0.035 -0.289341 0.846361 0.447163 0 
0.1126 0.2139 -0.0349 -0.451366 0.777262 0.43833 0 
0.1126 0.2142 -0.0352 -0.313474 0.837491 0.447597 0 
0.1127 0.2141 -0.0349 -0.464121 0.773535 0.431551 0 
0.1126 0.2136 -0.0346 -0.121438 0.875783 0.46718 0 
0.1127 0.2139 -0.0346 -0.41061 0.797066 0.442815 0 
0.1127 0.2141 -0.0346 -0.238699 0.849891 0.469796 0 
0.1123 0.2132 -0.0341 -0.33108 0.860808 0.386517 0 
0.1126 0.2133 -0.0341 -0.325263 0.858633 0.396174 0 
0.1121 0.2132 -0.0338 -0.33372 0.862751 0.379857 0 
0.1124 0.2135 -0.0338 -0.328415 0.858813 0.393173 0 
0.1126 0.2136 -0.0344 0.00924501 0.894125 0.447723 0 
0.1127 0.2139 -0.0343 -0.097455 0.877095 0.470326 0 
0.1126 0.2136 -0.0341 -0.400738 0.812652 0.42309 0 
0.1127 0.2139 -0.034 -0.431061 0.7927 0.431061 0 
0.1126 0.2136 -0.0338 -0.332981 0.853359 0.401125 0 
0.1126 0.2139 -0.0337 -0.37329 0.833209 0.407942 0 
0.1129 0.2141 -0.0343 -0.399884 0.801374 0.444851 0 
0.1144 0.2144 -0.035 -0.453077 0.763852 0.45962 0 
0.1144 0.2144 -0.0344 -0.442322 0.76876 0.461909 0 
0.1136 0.2144 -0.0337 -0.395783 0.809192 0.43424 0 
0.1142 0.2142 -0.0338 -0.387374 0.817789 0.425633 0 
0.1124 0.2124 -0.0321 -0.232935 0.870124 0.434311 0 
0.1123 0.2132 -0.0335 -0.33196 0.860007 0.387544 0 
0.1124 0.2135 -0.0335 -0.34246 0.853827 0.392047 0 
0.1124 0.2135 -0.0334 -0.314891 0.861725 0.397837 0 
0.1127 0.2135 -0.0333 -0.308519 0.864161 0.397545 0 
0.1121 0.2133 -0.0332 -0.2929 0.875664 0.383957 0 
0.1121 0.2132 -0.0329 -0.218003 0.896886 0.384798 0 
0.1126 0.2133 -0.0331 -0.249014 0.884225 0.395143 0 
0.1129 0.2135 -0.0329 -0.267489 0.875007 0.403501 0 
0.1126 0.2136 -0.0335 -0.304043 0.869349 0.389603 0 
0.1126 0.2139 -0.0334 -0.304487 0.867558 0.393232 0 
0.1135 0.2139 -0.0335 -0.355374 0.840687 0.408602 0 
0.1132 0.2141 -0.0335 -0.354961 0.831397 0.42753 0 
0.1133 0.2141 -0.0332 -0.281215 0.871007 0.402822 0 
0.1132 0.2141 -0.0329 -0.262524 0.880581 0.394536 0 
0.1124 0.2129 -0.0325 -0.194784 0.888976 0.414465 0 
0.1126 0.213 -0.0327 -0.235132 0.876131 0.420842 0 
0.1126 0.2132 -0.0328 -0.247325 0.876878 0.412208 0 
0.1126 0.2132 -0.0325 -0.197046 0.891817 0.407229 0 
0.1124 0.2129 -0.0322 -0.144037 0.897025 0.417851 0 
0.1127 0.2129 -0.0323 -0.235132 0.876131 0.420842 0 
0.1129 0.2132 -0.0323 -0.203992 0.887877 0.412386 0 
0.1129 0.2129 -0.0322 -0.241411 0.874179 0.421345 0 
0.1135 0.2132 -0.0323 -0.272521 0.866281 0.418677 0 
0.1139 0.2141 -0.0335 -0.378949 0.822907 0.423345 0 
0.1139 0.2141 -0.0333 -0.366895 0.832994 0.414135 0 
0.1142 0.2141 -0.0335 -0.363688 0.832862 0.417218 0 
0.1142 0.2141 -0.0333 -0.357263 0.835713 0.41707 0 
0.1139 0.2138 -0.0329 -0.33204 0.846469 0.41622 0 
0.1144 0.2138 -0.0329 -0.341659 0.844008 0.413424 0 
0.1136 0.2141 -0.0331 -0.344854 0.844189 0.410391 0 
0.1144 0.2138 -0.0329 -0.341659 0.844008 0.413424 0 
0.1139 0.2135 -0.0323 -0.294287 0.855127 0.426793 0 
0.1139 0.2132 -0.0321 -0.270782 0.858241 0.436005 0 
0.1139 0.2136 -0.0327 -0.32068 0.853597 0.410532 0 
0.1142 0.2138 -0.0326 -0.342561 0.843107 0.414515 0 
0.1142 0.2136 -0.0323 -0.326447 0.838765 0.435783 0 
0.1145 0.2136 -0.0327 -0.325621 0.845993 0.422217 0 
0.1148 0.2136 -0.0327 -0.328403 0.845131 0.421787 0 
0.1145 0.2136 -0.0323 -0.330546 0.838114 0.43394 0 
0.1148 0.2136 -0.0323 -0.326472 0.841954 0.429568 0 
0.1148 0.2136 -0.0321 -0.322803 0.840536 0.435083 0 
0.1135 0.215 -0.0352 -0.490133 0.75569 0.434399 0 
0.1135 0.215 -0.0349 -0.462397 0.766304 0.446058 0 
0.1135 0.2148 -0.0346 -0.423816 0.784303 0.453045 0 
0.1135 0.2147 -0.0343 -0.426475 0.783221 0.45242 0 
0.1135 0.2145 -0.034 -0.419613 0.789003 0.448776 0 
0.1142 0.2147 -0.035 -0.452622 0.766353 0.45589 0 
0.1138 0.2148 -0.035 -0.4603 0.764983 0.450472 0 
0.1139 0.2147 -0.0347 -0.445611 0.768801 0.458669 0 
0.1139 0.2147 -0.0344 -0.434403 0.776067 0.45718 0 
0.1142 0.2145 -0.0347 -0.442989 0.769917 0.459335 0 
0.1142 0.2144 -0.0344 -0.428012 0.779536 0.457306 0 
0.1139 0.2145 -0.0341 -0.415871 0.791288 0.448235 0 
0.1142 0.2144 -0.0341 -0.427099 0.784369 0.449835 0 
0.1139 0.2144 -0.0338 -0.406409 0.801573 0.438536 0 
0.1133 0.2112 -0.0287 -0.384332 0.868192 0.313897 0 
0.1135 0.2111 -0.0285 -0.378742 0.874605 0.302689 0 
0.1135 0.2111 -0.0281 -0.390254 0.878448 0.275739 0 
0.1135 0.2106 -0.0279 -0.40995 0.872846 0.264728 0 
0.1135 0.2111 -0.0279 -0.396313 0.878519 0.26672 0 
0.1135 0.2111 -0.0276 -0.406352 0.874639 0.264356 0 
0.1135 0.2106 -0.0275 -0.395581 0.879904 0.263219 0 
0.1135 0.2106 -0.0273 -0.39345 0.878855 0.269837 0 
0.1135 0.2111 -0.0273 -0.389861 0.880574 0.269441 0 
0.1135 0.2103 -0.0269 -0.379557 0.88861 0.257503 0 
0.1135 0.2106 -0.027 -0.378419 0.886967 0.264744 0 
0.1135 0.2111 -0.027 -0.392409 0.879538 0.269124 0 
0.1135 0.2108 -0.0267 -0.374154 0.88992 0.260864 0 
0.1133 0.2105 -0.0266 -0.372463 0.891834 0.256718 0 
0.1135 0.2111 -0.0267 -0.378419 0.886967 0.264744 0 
0.1135 0.2111 -0.0264 -0.379847 0.889288 0.254721 0 
0.1133 0.2103 -0.0258 -0.397042 0.877116 0.27023 0 
0.1132 0.2106 -0.0263 -0.378843 0.889909 0.254047 0 
0.1133 0.2108 -0.0264 -0.372745 0.89251 0.253942 0 
0.1132 0.2108 -0.0261 -0.372463 0.891834 0.256718 0 
0.1135 0.2111 -0.0262 -0.383829 0.885644 0.261362 0 
0.1132 0.2106 -0.026 -0.377005 0.889612 0.257794 0 
0.1133 0.2108 -0.0258 -0.376714 0.888925 0.260573 0 
0.1136 0.2109 -0.0258 -0.371987 0.888885 0.267412 0 
0.1138 0.2112 -0.026 -0.377417 0.887602 0.264043 0 
0.1138 0.2112 -0.0257 -0.361705 0.891611 0.272395 0 
0.1147 0.2112 -0.0258 -0.335989 0.898437 0.282704 0 
0.1094 0.2126 -0.0305 0.487096 0.163346 0.857937 0 
0.1103 0.2126 -0.0311 0.448708 0.809591 0.378448 0 
0.1109 0.2127 -0.0314 0.447922 0.821454 0.352956 0 
0.1109 0.213 -0.0317 0.377483 0.8292 0.412231 0 
0.1112 0.2129 -0.0314 0.324235 0.86514 0.382628 0 
0.1112 0.2129 -0.0313 0.312598 0.870699 0.379692 0 
0.1105 0.213 -0.0309 0.437623 0.836032 0.330962 0 
0.1112 0.2129 -0.0309 0.316071 0.871868 0.374094 0 
0.1123 0.2126 -0.0317 -0.095916 0.896606 0.432317 0 
0.1126 0.2126 -0.032 -0.236699 0.866889 0.438721 0 
0.1127 0.2126 -0.0317 -0.186858 0.878379 0.439925 0 
0.1126 0.2123 -0.0313 -0.219495 0.870515 0.440483 0 
0.1124 0.2124 -0.0316 -0.180234 0.880657 0.438131 0 
0.1129 0.2127 -0.0319 -0.222337 0.872933 0.434228 0 
0.113 0.2127 -0.0316 -0.219776 0.868637 0.444036 0 
0.1129 0.2126 -0.0314 -0.223494 0.868478 0.442489 0 
0.113 0.2126 -0.0313 -0.226051 0.869773 0.438629 0 
0.1124 0.2118 -0.0309 -0.214056 0.866701 0.450565 0 
0.1132 0.2112 -0.0306 -0.327259 0.834588 0.44313 0 
0.1129 0.2118 -0.0306 -0.236686 0.863827 0.444728 0 
0.113 0.212 -0.0308 -0.23263 0.868986 0.436744 0 
0.1132 0.212 -0.0305 -0.236081 0.867636 0.437577 0 
0.1124 0.212 -0.0309 -0.190671 0.873539 0.447855 0 
0.1126 0.2123 -0.0309 -0.183998 0.872887 0.451899 0 
0.1132 0.2124 -0.0309 -0.236686 0.863827 0.444728 0 
0.1129 0.2124 -0.0311 -0.220053 0.86674 0.447591 0 
0.1132 0.2126 -0.0311 -0.220053 0.86674 0.447591 0 
0.1132 0.2123 -0.0305 -0.236385 0.865741 0.441152 0 
0.1135 0.2124 -0.0305 -0.252828 0.864458 0.4345 0 
0.1133 0.2126 -0.0308 -0.237003 0.864984 0.442304 0 
0.1141 0.2127 -0.0309 -0.309891 0.842468 0.440699 0 
0.1145 0.2127 -0.0305 -0.386886 0.819944 0.421913 0 
0.1129 0.213 -0.032 -0.192015 0.883854 0.426536 0 
0.1144 0.2135 -0.032 -0.345172 0.827468 0.442892 0 
0.1141 0.2133 -0.0317 -0.294659 0.850038 0.43659 0 
0.1144 0.2135 -0.0317 -0.352536 0.823638 0.444227 0 
0.1136 0.2132 -0.0316 -0.273965 0.855566 0.439262 0 
0.1139 0.2132 -0.0314 -0.27113 0.85628 0.439629 0 
0.1142 0.2135 -0.0314 -0.296177 0.845114 0.445041 0 
0.115 0.2135 -0.0317 -0.3469 0.822106 0.451445 0 
0.1151 0.2132 -0.0313 -0.374826 0.815048 0.441817 0 
0.1145 0.2135 -0.0314 -0.350181 0.82237 0.448421 0 
0.115 0.2135 -0.0314 -0.36784 0.816893 0.444275 0 
0.1145 0.2136 -0.032 -0.348428 0.827714 0.439871 0 
0.1145 0.2136 -0.0317 -0.34649 0.824298 0.447747 0 
0.1141 0.213 -0.0311 -0.309465 0.84131 0.443204 0 
0.1142 0.213 -0.0311 -0.306649 0.842116 0.443629 0 
0.1144 0.213 -0.0308 -0.384608 0.815496 0.432484 0 
0.1142 0.2129 -0.0305 -0.327304 0.837835 0.436927 0 
0.115 0.2132 -0.0311 -0.373922 0.819446 0.434386 0 
0.1148 0.213 -0.0309 -0.383609 0.816561 0.431361 0 
0.1151 0.213 -0.0309 -0.383609 0.816561 0.431361 0 
0.1145 0.2132 -0.0311 -0.356225 0.821693 0.444886 0 
0.1145 0.213 -0.0308 -0.380889 0.817556 0.431886 0 
0.1151 0.2129 -0.0306 -0.392805 0.819006 0.41825 0 
0.115 0.2129 -0.0305 -0.389609 0.822154 0.415052 0 
0.1132 0.2115 -0.0302 -0.294287 0.855127 0.426793 0 
0.1132 0.2117 -0.0303 -0.26654 0.863588 0.427986 0 
0.1133 0.2118 -0.0303 -0.26584 0.864359 0.426863 0 
0.1132 0.2115 -0.0299 -0.306259 0.857216 0.413988 0 
0.1132 0.2118 -0.0299 -0.282043 0.864423 0.416203 0 
0.1133 0.2118 -0.0297 -0.302203 0.863656 0.403449 0 
0.1135 0.2121 -0.0303 -0.286367 0.859102 0.424191 0 
0.1135 0.2121 -0.03 -0.335243 0.846683 0.413206 0 
0.1135 0.212 -0.0297 -0.320237 0.855514 0.406872 0 
0.1132 0.2112 -0.0293 -0.338247 0.870871 0.356613 0 
0.1132 0.2115 -0.0296 -0.31444 0.863559 0.3942 0 
0.1132 0.2115 -0.0293 -0.357076 0.85791 0.369442 0 
0.1135 0.2118 -0.0294 -0.359625 0.85158 0.381421 0 
0.1132 0.2112 -0.029 -0.369941 0.867288 0.3331 0 
0.1135 0.2114 -0.029 -0.37722 0.863757 0.334109 0 
0.1135 0.2117 -0.0291 -0.391857 0.847723 0.357511 0 
0.1135 0.2117 -0.0288 -0.383892 0.861831 0.331473 0 
0.1135 0.2121 -0.0294 -0.334703 0.859123 0.387145 0 
0.1136 0.2123 -0.0303 -0.286367 0.859102 0.424191 0 
0.1144 0.2126 -0.0302 -0.38387 0.829349 0.405986 0 
0.1142 0.2126 -0.0299 -0.38387 0.829349 0.405986 0 
0.1145 0.2127 -0.0302 -0.38068 0.829283 0.409113 0 
0.1148 0.2127 -0.0303 -0.388085 0.825274 0.410261 0 
0.1151 0.2126 -0.0303 -0.411955 0.809483 0.418366 0 
0.1151 0.2124 -0.0297 -0.447131 0.795796 0.40839 0 
0.1147 0.2126 -0.0299 -0.403981 0.815945 0.413561 0 
0.115 0.2126 -0.0299 -0.41783 0.811647 0.408225 0 
0.115 0.2126 -0.0297 -0.435935 0.8027 0.40698 0 
0.1142 0.2126 -0.0296 -0.394964 0.826411 0.401309 0 
0.1144 0.2124 -0.0293 -0.435074 0.814369 0.384076 0 
0.1144 0.2124 -0.0288 -0.443563 0.825563 0.348852 0 
0.1145 0.2124 -0.0296 -0.416738 0.815912 0.400771 0 
0.1145 0.2124 -0.0293 -0.435074 0.814369 0.384076 0 
0.115 0.2124 -0.0294 -0.437386 0.809084 0.392526 0 
0.1147 0.2123 -0.029 -0.439285 0.823064 0.359992 0 
0.115 0.2124 -0.0291 -0.459124 0.807866 0.369539 0 
0.11 0.2145 -0.0309 0.740984 0.195644 0.642391 0 
0.1103 0.2151 -0.0311 0.790805 0.10086 0.603701 0 
0.1103 0.2148 -0.0309 0.705838 0.261715 0.658254 0 
0.1106 0.2147 -0.0308 0.123332 0.851714 -0.509287 0 
0.1135 0.2114 -0.0287 -0.387591 0.865568 0.31712 0 
0.1135 0.2114 -0.0285 -0.379044 0.872257 0.30902 0 
0.1136 0.2112 -0.0281 -0.390254 0.878448 0.275739 0 
0.1144 0.212 -0.0282 -0.427529 0.853514 0.297881 0 
0.1144 0.2117 -0.0281 -0.418403 0.859796 0.292729 0 
0.115 0.212 -0.0285 -0.448034 0.838307 0.310657 0 
0.1147 0.212 -0.0284 -0.449455 0.841367 0.300155 0 
0.1147 0.2117 -0.0281 -0.442748 0.850014 0.285395 0 
0.115 0.2118 -0.0281 -0.432202 0.853637 0.290698 0 
0.1144 0.212 -0.0287 -0.43394 0.838114 0.330546 0 
0.1145 0.2121 -0.0287 -0.444528 0.830937 0.334574 0 
0.115 0.2123 -0.0287 -0.485539 0.807109 0.335897 0 
0.1136 0.2112 -0.0279 -0.403501 0.875007 0.267489 0 
0.1144 0.2117 -0.0276 -0.39417 0.877444 0.273352 0 
0.1136 0.2114 -0.0275 -0.415063 0.868135 0.272147 0 
0.1136 0.2112 -0.0273 -0.399581 0.876063 0.269906 0 
0.1144 0.2115 -0.0273 -0.408585 0.870331 0.274921 0 
0.1147 0.2117 -0.0276 -0.397042 0.877116 0.27023 0 
0.115 0.2117 -0.0278 -0.420931 0.86176 0.283172 0 
0.1147 0.2115 -0.0273 -0.40031 0.874639 0.273419 0 
0.115 0.2115 -0.0275 -0.404976 0.872139 0.274534 0 
0.1135 0.2114 -0.0264 -0.376714 0.888925 0.260573 0 
0.1136 0.2114 -0.027 -0.389543 0.879856 0.272229 0 
0.1136 0.2112 -0.0267 -0.377417 0.887602 0.264043 0 
0.1138 0.2114 -0.0266 -0.381278 0.886657 0.261661 0 
0.1145 0.2114 -0.027 -0.39345 0.878855 0.269837 0 
0.115 0.2115 -0.0272 -0.403907 0.872862 0.273809 0 
0.115 0.2114 -0.0269 -0.399581 0.876063 0.269906 0 
0.1147 0.2114 -0.0267 -0.382697 0.883955 0.268638 0 
0.1147 0.2114 -0.0264 -0.384847 0.884997 0.262055 0 
0.115 0.2115 -0.0266 -0.389142 0.881955 0.265939 0 
0.1136 0.2112 -0.0262 -0.377005 0.889612 0.257794 0 
0.1144 0.2112 -0.0262 -0.366766 0.892416 0.262825 0 
0.1144 0.2112 -0.0258 -0.339796 0.897714 0.280443 0 
0.1147 0.2114 -0.0262 -0.370311 0.89083 0.263233 0 
0.115 0.2114 -0.0263 -0.363227 0.893983 0.262413 0 
0.115 0.2112 -0.0258 -0.335989 0.898437 0.282704 0 
0.1153 0.2124 -0.03 -0.429022 0.805018 0.40974 0 
0.1153 0.2123 -0.0294 -0.498112 0.77394 0.391026 0 
0.1153 0.2121 -0.0291 -0.508211 0.782483 0.359781 0 
0.1153 0.212 -0.0281 -0.439478 0.849658 0.291444 0 
0.1153 0.2121 -0.0287 -0.457835 0.825992 0.328823 0 
0.1153 0.2121 -0.0285 -0.461509 0.830715 0.311323 0 
0.1153 0.2117 -0.0279 -0.403542 0.869519 0.284764 0 
0.1153 0.2115 -0.0275 -0.393844 0.876717 0.276143 0 
0.1153 0.2114 -0.0273 -0.389543 0.879856 0.272229 0 
0.1153 0.2114 -0.027 -0.385255 0.882937 0.268329 0 
0.1153 0.2114 -0.0266 -0.380978 0.88596 0.264443 0 
0.1153 0.2114 -0.0263 -0.364873 0.892078 0.266581 0 
0.1153 0.2114 -0.026 -0.341434 0.900144 0.270487 0 
0.1153 0.2112 -0.0257 -0.315255 0.907641 0.277131 0 
0.1135 0.2102 -0.0255 -0.354197 0.88474 0.302952 0 
0.1135 0.2106 -0.0255 -0.37508 0.881213 0.287712 0 
0.1133 0.2112 -0.0252 -0.363043 0.884258 0.293748 0 
0.1135 0.2111 -0.0251 -0.354197 0.88474 0.302952 0 
0.1135 0.21 -0.0246 -0.343455 0.864027 0.368097 0 
0.1135 0.21 -0.0243 -0.318041 0.861936 0.394862 0 
0.1135 0.2102 -0.0243 -0.315275 0.862776 0.395247 0 
0.1133 0.2103 -0.024 -0.320237 0.855514 0.406872 0 
0.1138 0.2099 -0.0251 -0.323718 0.886836 0.32974 0 
0.1136 0.21 -0.0249 -0.335736 0.876561 0.344851 0 
0.1136 0.2102 -0.0251 -0.329418 0.885969 0.32641 0 
0.1136 0.2102 -0.0249 -0.335192 0.878173 0.341259 0 
0.1136 0.2106 -0.0252 -0.347336 0.885632 0.308242 0 
0.1144 0.2112 -0.0255 -0.329285 0.895477 0.299486 0 
0.1136 0.2106 -0.0249 -0.329418 0.885969 0.32641 0 
0.1147 0.2112 -0.0255 -0.322801 0.897001 0.301975 0 
0.115 0.2112 -0.0255 -0.311698 0.902596 0.296926 0 
0.115 0.2112 -0.0252 -0.288002 0.902407 0.320495 0 
0.1147 0.2109 -0.0251 -0.301458 0.898434 0.319278 0 
0.1147 0.2109 -0.0249 -0.300682 0.890077 0.342568 0 
0.115 0.2109 -0.0249 -0.286659 0.895622 0.340129 0 
0.1136 0.2102 -0.0246 -0.342543 0.864805 0.36712 0 
0.1138 0.2106 -0.0246 -0.324363 0.875627 0.357865 0 
0.1136 0.2109 -0.0248 -0.329418 0.885969 0.32641 0 
0.1138 0.2105 -0.0243 -0.30994 0.868749 0.38628 0 
0.1147 0.2108 -0.0246 -0.277047 0.888048 0.3669 0 
0.115 0.2108 -0.0246 -0.273976 0.887801 0.369792 0 
0.115 0.2108 -0.024 -0.270675 0.872511 0.406768 0 
0.1147 0.2108 -0.0243 -0.275651 0.881181 0.384105 0 
0.115 0.2108 -0.0243 -0.272547 0.880885 0.386987 0 
0.1133 0.2094 -0.0236 -0.313523 0.840741 0.441428 0 
0.1135 0.2094 -0.0233 -0.261585 0.872455 0.412791 0 
0.1132 0.2091 -0.023 -0.150341 0.914691 0.37515 0 
0.1132 0.2094 -0.023 -0.221951 0.895152 0.386576 0 
0.113 0.2093 -0.0227 -0.196825 0.90942 0.366354 0 
0.1133 0.2097 -0.0239 -0.321981 0.847727 0.42153 0 
0.1133 0.21 -0.024 -0.327084 0.851038 0.410792 0 
0.1135 0.2097 -0.0236 -0.315961 0.845156 0.431138 0 
0.1132 0.2097 -0.0233 -0.276436 0.862907 0.423054 0 
0.1147 0.2108 -0.024 -0.270675 0.872511 0.406768 0 
0.115 0.2108 -0.0238 -0.272538 0.863292 0.424794 0 
0.1151 0.2105 -0.0234 -0.276805 0.861002 0.426678 0 
0.115 0.2103 -0.0231 -0.0383546 0.916542 0.398094 0 
0.115 0.2099 -0.0228 -0.253562 0.877715 0.406599 0 
0.115 0.2097 -0.0225 -0.210987 0.900696 0.379777 0 
0.115 0.2094 -0.0222 -0.190887 0.908505 0.371726 0 
0.115 0.2094 -0.0219 -0.178385 0.911902 0.369613 0 
0.115 0.2091 -0.0213 -0.198399 0.917775 0.343987 0 
0.1151 0.2093 -0.0216 -0.190192 0.91378 0.358934 0 
0.1147 0.209 -0.0209 -0.200669 0.920802 0.334449 0 
0.115 0.2091 -0.021 -0.203399 0.920273 0.334257 0 
0.1135 0.2093 -0.0204 -0.171512 0.930068 0.324896 0 
0.1132 0.2091 -0.0201 -0.203399 0.920273 0.334257 0 
0.1139 0.209 -0.0203 -0.21507 0.921526 0.323318 0 
0.1151 0.2091 -0.0207 -0.230041 0.91293 0.337104 0 
0.1138 0.2088 -0.0198 -0.322312 0.888982 0.32531 0 
0.1136 0.2085 -0.0197 -0.381348 0.868371 0.317024 0 
0.1144 0.2087 -0.02 -0.338406 0.885873 0.31735 0 
0.1139 0.2084 -0.0194 -0.380702 0.869958 0.31343 0 
0.1144 0.2084 -0.0194 -0.369889 0.880184 0.297421 0 
0.1141 0.2085 -0.0196 -0.3656 0.878351 0.307954 0 
0.1145 0.2085 -0.0197 -0.384954 0.871853 0.30279 0 
0.1142 0.2078 -0.0188 -0.316035 0.897659 0.307133 0 
0.1145 0.2079 -0.0189 -0.321942 0.89758 0.301171 0 
0.1145 0.2076 -0.0186 -0.307933 0.903172 0.299093 0 
0.1145 0.2079 -0.0186 -0.308204 0.903966 0.296406 0 
0.1144 0.2073 -0.018 -0.367278 0.881164 0.297752 0 
0.1144 0.2073 -0.0177 -0.400988 0.867536 0.294261 0 
0.1145 0.2076 -0.0183 -0.319278 0.898434 0.301458 0 
0.1147 0.2079 -0.0184 -0.314362 0.901762 0.296652 0 
0.1147 0.2079 -0.018 -0.341962 0.891491 0.297164 0 
0.1145 0.2076 -0.018 -0.341962 0.891491 0.297164 0 
0.1145 0.2076 -0.0177 -0.378742 0.874605 0.302689 0 
0.1147 0.2079 -0.0178 -0.35882 0.887292 0.289759 0 
0.1147 0.2072 -0.0172 -0.421987 0.851702 0.310694 0 
0.1147 0.2072 -0.0168 -0.450944 0.831183 0.325245 0 
0.1145 0.2073 -0.0174 -0.419849 0.856616 0.299892 0 
0.1147 0.2075 -0.0174 -0.401687 0.865994 0.297829 0 
0.1147 0.2079 -0.0174 -0.401687 0.865994 0.297829 0 
0.1147 0.2075 -0.0172 -0.416481 0.853089 0.314296 0 
0.1147 0.2075 -0.0168 -0.439194 0.839314 0.320408 0 
0.1147 0.2079 -0.0172 -0.404142 0.862067 0.305795 0 
0.1147 0.2078 -0.0168 -0.439194 0.839314 0.320408 0 
0.1145 0.2076 -0.0166 -0.454626 0.829023 0.325632 0 
0.1148 0.2078 -0.0166 -0.446096 0.834277 0.324006 0 
0.1147 0.2075 -0.0162 -0.470803 0.816376 0.334476 0 
0.115 0.2076 -0.0163 -0.422899 0.844238 0.329269 0 
0.115 0.2076 -0.016 -0.429812 0.839305 0.332909 0 
0.1141 0.2082 -0.0192 -0.364966 0.879856 0.304391 0 
0.1145 0.2082 -0.0191 -0.336067 0.891698 0.303207 0 
0.1145 0.2082 -0.0188 -0.314922 0.900412 0.300137 0 
0.1147 0.2082 -0.0186 -0.307384 0.904503 0.295618 0 
0.1147 0.2082 -0.0183 -0.323725 0.900223 0.291205 0 
0.1147 0.2082 -0.018 -0.341962 0.891491 0.297164 0 
0.1145 0.2082 -0.0177 -0.353255 0.885392 0.302146 0 
0.1145 0.2082 -0.0174 -0.378742 0.874605 0.302689 0 
0.1151 0.2072 -0.0154 -0.442216 0.829352 0.341498 0 
0.1147 0.2075 -0.016 -0.473265 0.815156 0.333977 0 
0.1151 0.2076 -0.0157 -0.471519 0.814443 0.33816 0 
0.1151 0.2067 -0.0148 -0.430104 0.830273 0.354481 0 
0.115 0.207 -0.0151 -0.435986 0.832623 0.341549 0 
0.1151 0.2072 -0.0151 -0.43853 0.831478 0.341079 0 
0.1151 0.2058 -0.0129 -0.294437 0.892279 0.342264 0 
0.1153 0.2112 -0.0254 -0.288951 0.907922 0.303619 0 
0.1153 0.2109 -0.0251 -0.288706 0.898689 0.330161 0 
0.1153 0.2108 -0.0245 -0.264043 0.887602 0.377417 0 
0.1153 0.2108 -0.0248 -0.272688 0.892569 0.359114 0 
0.1153 0.2106 -0.0242 -0.270675 0.872511 0.406768 0 
0.1153 0.2096 -0.0226 -0.0792802 0.925832 0.369527 0 
0.1156 0.2102 -0.0234 -0.277533 0.857133 0.433933 0 
0.1153 0.2105 -0.0238 -0.26584 0.864359 0.426863 0 
0.1153 0.2105 -0.0234 -0.269366 0.862884 0.427637 0 
0.1153 0.2099 -0.0228 -0.257042 0.876349 0.407359 0 
0.1156 0.2099 -0.0228 -0.301086 0.853848 0.424608 0 
0.1153 0.21 -0.0232 -0.287122 0.855225 0.431451 0 
0.1156 0.21 -0.0232 -0.293513 0.855952 0.425671 0 
0.1156 0.2097 -0.0226 -0.252771 0.883951 0.393366 0 
0.1153 0.2094 -0.0222 -0.185147 0.908513 0.3746 0 
0.1156 0.2094 -0.0222 -0.211306 0.899143 0.383265 0 
0.1153 0.2094 -0.0219 -0.177921 0.912381 0.368653 0 
0.1156 0.2094 -0.0219 -0.183998 0.914287 0.360865 0 
0.1153 0.2094 -0.0216 -0.18616 0.91659 0.353846 0 
0.1156 0.2094 -0.0216 -0.182644 0.918881 0.349713 0 
0.1154 0.2093 -0.0214 -0.186046 0.918868 0.347949 0 
0.1156 0.2093 -0.0214 -0.173226 0.922463 0.345043 0 
0.1154 0.2091 -0.021 -0.203592 0.921145 0.331726 0 
0.1156 0.2091 -0.021 -0.226101 0.914485 0.335551 0 
0.1153 0.2091 -0.0207 -0.242468 0.910343 0.335389 0 
0.1156 0.2091 -0.0207 -0.418336 0.853652 0.310279 0 
0.1159 0.209 -0.0204 -0.317137 0.894834 0.31416 0 
0.1154 0.209 -0.0204 -0.379044 0.872257 0.30902 0 
0.1154 0.2088 -0.0201 -0.353575 0.886193 0.29941 0 
0.1156 0.209 -0.0204 -0.320405 0.895644 0.308483 0 
0.1156 0.2088 -0.0201 -0.347048 0.887901 0.301976 0 
0.1159 0.209 -0.0202 -0.245195 0.921992 0.299683 0 
0.116 0.2091 -0.0208 -0.349723 0.879606 0.322472 0 
0.1153 0.2088 -0.0198 -0.360738 0.882978 0.300363 0 
0.1156 0.2088 -0.0198 -0.339321 0.892399 0.297466 0 
0.1154 0.2088 -0.0195 -0.331639 0.896763 0.292972 0 
0.1156 0.2088 -0.0195 -0.327824 0.897438 0.29519 0 
0.1159 0.209 -0.0198 -0.303906 0.905847 0.295098 0 
0.116 0.2088 -0.0195 -0.307384 0.904503 0.295618 0 
0.1154 0.2087 -0.0191 -0.315201 0.901208 0.297443 0 
0.1156 0.2087 -0.0191 -0.311698 0.902596 0.296926 0 
0.1154 0.2085 -0.0188 -0.311139 0.903926 0.293444 0 
0.1156 0.2087 -0.0188 -0.313799 0.903094 0.293174 0 
0.1156 0.2085 -0.0184 -0.323415 0.902312 0.285018 0 
0.116 0.2088 -0.0192 -0.30336 0.90715 0.291636 0 
0.116 0.2087 -0.0189 -0.313799 0.903094 0.293174 0 
0.116 0.2087 -0.0186 -0.362371 0.890269 0.275879 0 
0.1156 0.2084 -0.0181 -0.360435 0.88987 0.279674 0 
0.1157 0.2082 -0.0178 -0.370831 0.88429 0.283753 0 
0.116 0.2085 -0.0183 -0.363033 0.888909 0.279371 0 
0.116 0.2085 -0.018 -0.362371 0.890269 0.275879 0 
0.1163 0.2087 -0.0178 -0.376626 0.883796 0.277593 0 
0.1157 0.2082 -0.0175 -0.36435 0.886135 0.286382 0 
0.1156 0.2082 -0.0172 -0.370874 0.879501 0.298213 0 
0.1157 0.2084 -0.0168 -0.416924 0.856924 0.303077 0 
0.116 0.2082 -0.0175 -0.37731 0.882394 0.281103 0 
0.116 0.2084 -0.0172 -0.398424 0.868595 0.29462 0 
0.1163 0.2087 -0.0174 -0.381213 0.881461 0.278753 0 
0.116 0.2082 -0.0169 -0.418025 0.856103 0.303878 0 
0.1165 0.2084 -0.0172 -0.394556 0.875279 0.279666 0 
0.1165 0.2082 -0.0168 -0.42533 0.852207 0.304691 0 
0.1156 0.2085 -0.0166 -0.396492 0.864935 0.307703 0 
0.116 0.2082 -0.0166 -0.440995 0.839915 0.316332 0 
0.1165 0.2082 -0.0165 -0.435519 0.84138 0.320005 0 
0.1162 0.2081 -0.0163 -0.413781 0.850809 0.323896 0 
0.1166 0.2082 -0.0163 -0.432802 0.839043 0.32968 0 
0.1165 0.2081 -0.0162 -0.44751 0.830642 0.331315 0 
0.1168 0.2082 -0.016 -0.443373 0.828365 0.342391 0 
0.1153 0.2075 -0.0156 -0.462939 0.820018 0.336539 0 
0.1153 0.2075 -0.0153 -0.445218 0.829081 0.33824 0 
0.116 0.2079 -0.016 -0.458549 0.824127 0.332487 0 
0.116 0.2076 -0.0154 -0.461153 0.819299 0.340714 0 
0.1165 0.2079 -0.0156 -0.458334 0.816754 0.35049 0 
0.1168 0.2079 -0.0154 -0.476098 0.807297 0.348714 0 
0.1165 0.2078 -0.0153 -0.451445 0.822106 0.3469 0 
0.1153 0.207 -0.0148 -0.426234 0.835167 0.347593 0 
0.1153 0.2066 -0.0148 -0.444227 0.823638 0.352536 0 
0.1153 0.2067 -0.0147 -0.442341 0.822849 0.356726 0 
0.1153 0.2064 -0.0144 -0.495771 0.794197 0.351372 0 
0.1153 0.207 -0.0145 -0.460199 0.813708 0.355101 0 
0.1153 0.2075 -0.015 -0.425116 0.836115 0.346682 0 
0.1153 0.2073 -0.0147 -0.429456 0.832169 0.350801 0 
0.1156 0.2076 -0.0145 -0.421432 0.838164 0.346232 0 
0.1168 0.2076 -0.0151 -0.472933 0.810515 0.345544 0 
0.1165 0.2076 -0.015 -0.443373 0.828365 0.342391 0 
0.1168 0.2076 -0.0148 -0.482057 0.80661 0.342054 0 
0.1165 0.2073 -0.0145 -0.42272 0.834441 0.353577 0 
0.1168 0.2075 -0.0144 -0.462026 0.8145 0.350886 0 
0.1165 0.2076 -0.0144 -0.46254 0.815405 0.348097 0 
0.1171 0.2079 -0.0156 -0.480478 0.802926 0.352776 0 
0.1171 0.2078 -0.0153 -0.49451 0.795377 0.350478 0 
0.1171 0.2076 -0.015 -0.501538 0.785366 0.362849 0 
0.1171 0.2076 -0.0147 -0.49138 0.798692 0.347327 0 
0.1154 0.2064 -0.0142 -0.531639 0.778987 0.332475 0 
0.1154 0.2064 -0.0139 -0.53963 0.776619 0.325059 0 
0.1153 0.2061 -0.0138 -0.538598 0.781526 0.314848 0 
0.1154 0.2064 -0.0136 -0.5511 0.779798 0.29699 0 
0.1153 0.2061 -0.0135 -0.541696 0.786334 0.297059 0 
0.1154 0.2064 -0.0133 -0.548361 0.780421 0.300406 0 
0.1153 0.2061 -0.0132 -0.546673 0.784357 0.293143 0 
0.1154 0.2064 -0.013 -0.540851 0.788278 0.293424 0 
0.1153 0.2061 -0.0129 -0.561904 0.777168 0.283326 0 
0.1154 0.2067 -0.0144 -0.500156 0.789635 0.355416 0 
0.1156 0.2066 -0.0141 -0.498027 0.795883 0.344295 0 
0.1156 0.2069 -0.0144 -0.459677 0.812785 0.35788 0 
0.1156 0.2069 -0.0141 -0.47432 0.806504 0.352946 0 
0.1156 0.2066 -0.0138 -0.543654 0.779609 0.310887 0 
0.1159 0.2067 -0.0138 -0.498007 0.803494 0.326171 0 
0.1156 0.2073 -0.0144 -0.427684 0.828539 0.361401 0 
0.1165 0.2075 -0.0142 -0.455143 0.819893 0.347305 0 
0.1165 0.2076 -0.0142 -0.457653 0.818708 0.346803 0 
0.1165 0.2073 -0.0139 -0.481018 0.803827 0.349976 0 
0.1168 0.2073 -0.0138 -0.486264 0.805126 0.339588 0 
0.1165 0.2073 -0.0136 -0.493826 0.805047 0.328688 0 
0.1154 0.2066 -0.0135 -0.551618 0.780531 0.29409 0 
0.1159 0.2067 -0.0135 -0.492818 0.809742 0.318509 0 
0.1154 0.2067 -0.0132 -0.538096 0.78889 0.296826 0 
0.1168 0.2072 -0.0136 -0.499367 0.806913 0.315473 0 
0.1165 0.2072 -0.0133 -0.518047 0.800042 0.30259 0 
0.1168 0.207 -0.0132 -0.520855 0.799488 0.299214 0 
0.1168 0.207 -0.0129 -0.534202 0.795787 0.285223 0 
0.1165 0.207 -0.013 -0.507138 0.807313 0.301755 0 
0.1171 0.2076 -0.0142 -0.495306 0.80109 0.336044 0 
0.1168 0.2073 -0.0142 -0.462026 0.8145 0.350886 0 
0.1171 0.2076 -0.0141 -0.471714 0.811603 0.344653 0 
0.1177 0.2076 -0.0138 -0.516302 0.791237 0.327684 0 
0.1177 0.2079 -0.0138 -0.519403 0.787895 0.33082 0 
0.1183 0.2079 -0.0138 -0.560463 0.771236 0.301788 0 
0.1184 0.2079 -0.0132 -0.601806 0.751067 0.271527 0 
0.1162 0.2081 -0.0156 -0.46185 0.817363 0.344403 0 
0.1165 0.2081 -0.0159 -0.45307 0.825629 0.33625 0 
0.1168 0.2081 -0.0157 -0.444721 0.824554 0.349763 0 
0.1178 0.2082 -0.0144 -0.509955 0.79131 0.337306 0 
0.118 0.2082 -0.0135 -0.5613 0.769189 0.305437 0 
0.1184 0.2082 -0.0138 -0.585691 0.760288 0.280941 0 
0.1184 0.2081 -0.0135 -0.587995 0.756904 0.285233 0 
0.1186 0.2081 -0.0132 -0.619677 0.742667 0.253863 0 
0.1186 0.2081 -0.0129 -0.620637 0.746336 0.240399 0 
0.1188 0.2082 -0.013 -0.62519 0.759705 0.178844 0 
0.1192 0.2082 -0.0129 -0.60817 0.786958 0.104048 0 
0.1189 0.2091 -0.0136 -0.595903 0.788033 0.154605 0 
0.1189 0.2091 -0.0133 -0.594187 0.799478 0.0881883 0 
0.1189 0.209 -0.013 -0.590511 0.803152 0.0790221 0 
0.1151 0.2058 -0.0126 -0.330852 0.883784 0.330852 0 
0.1151 0.2055 -0.0118 -0.497548 0.834349 0.237292 0 
0.1151 0.2055 -0.0114 -0.475526 0.849263 0.229407 0 
0.1151 0.2058 -0.0117 -0.505609 0.828338 0.241278 0 
0.1151 0.2061 -0.0118 -0.519473 0.817202 0.249657 0 
0.1151 0.2058 -0.0114 -0.491236 0.841033 0.226607 0 
0.115 0.2052 -0.0111 -0.397797 0.896137 0.196713 0 
0.1151 0.2055 -0.0112 -0.415898 0.886172 0.204275 0 
0.115 0.2055 -0.0109 -0.400246 0.895096 0.196484 0 
0.1151 0.2055 -0.0106 -0.361353 0.90701 0.216231 0 
0.115 0.2058 -0.0112 -0.4274 0.882707 0.195341 0 
0.1151 0.2058 -0.0109 -0.400777 0.891104 0.212867 0 
0.1148 0.2059 -0.0106 -0.367851 0.907366 0.2034 0 
0.1148 0.2056 -0.01 -0.333574 0.921233 0.200145 0 
0.1135 0.2061 -0.0087 0.543228 0.828828 0.133967 0 
0.1145 0.2055 -0.009 -0.408426 0.843454 0.348961 0 
0.1144 0.2058 -0.0088 -0.260233 0.911542 0.318386 0 
0.1153 0.2055 -0.012 -0.515007 0.816855 0.259838 0 
0.1153 0.2061 -0.0126 -0.543591 0.787653 0.290021 0 
0.1153 0.2058 -0.0123 -0.568104 0.773824 0.280096 0 
0.1153 0.2061 -0.0123 -0.556533 0.778511 0.290158 0 
0.1156 0.2063 -0.0123 -0.555289 0.783099 0.280017 0 
0.1153 0.2061 -0.012 -0.568104 0.773824 0.280096 0 
0.1159 0.2063 -0.012 -0.562779 0.780323 0.272719 0 
0.1153 0.2052 -0.0117 -0.485014 0.843833 0.229583 0 
0.1153 0.2052 -0.0114 -0.473728 0.852105 0.222486 0 
0.1153 0.2058 -0.012 -0.545014 0.793176 0.271722 0 
0.1153 0.2061 -0.0114 -0.502852 0.832992 0.230792 0 
0.1165 0.2064 -0.0114 -0.541826 0.801028 0.254518 0 
0.1171 0.2061 -0.0114 -0.531122 0.808365 0.25388 0 
0.1168 0.2064 -0.0115 -0.544221 0.804703 0.237225 0 
0.1168 0.2064 -0.0112 -0.499608 0.823342 0.269259 0 
0.1153 0.2064 -0.0127 -0.558352 0.779795 0.28313 0 
0.1153 0.2064 -0.0124 -0.554338 0.779885 0.29067 0 
0.1165 0.207 -0.0126 -0.508965 0.812778 0.283454 0 
0.1165 0.2067 -0.0124 -0.515791 0.810529 0.277493 0 
0.1168 0.2067 -0.0123 -0.533353 0.807027 0.253459 0 
0.1165 0.2066 -0.012 -0.535178 0.803548 0.260568 0 
0.1165 0.2064 -0.0118 -0.552489 0.793519 0.255115 0 
0.1168 0.2069 -0.0126 -0.539651 0.799309 0.264351 0 
0.1168 0.2064 -0.012 -0.542164 0.803149 0.247003 0 
0.1153 0.2052 -0.0108 -0.374312 0.901552 0.217013 0 
0.1156 0.2049 -0.0106 -0.357656 0.907896 0.218648 0 
0.1156 0.2058 -0.0109 -0.392063 0.894256 0.215855 0 
0.1153 0.2061 -0.0112 -0.434367 0.876146 0.20903 0 
0.1166 0.2064 -0.0111 -0.482179 0.836495 0.260346 0 
0.1153 0.205 -0.0102 -0.359971 0.896224 0.259238 0 
0.1153 0.2053 -0.0103 -0.350053 0.907814 0.230948 0 
0.1153 0.205 -0.01 -0.365258 0.877528 0.310696 0 
0.1156 0.2049 -0.0097 -0.352994 0.872551 0.337712 0 
0.1168 0.2064 -0.0109 -0.470637 0.840974 0.266951 0 
0.1171 0.2061 -0.0108 -0.474747 0.832753 0.284848 0 
0.1169 0.2064 -0.0106 -0.453756 0.847525 0.27533 0 
0.1168 0.2064 -0.0103 -0.410426 0.865099 0.288366 0 
0.1172 0.2063 -0.0102 -0.439966 0.844175 0.306266 0 
0.1162 0.2067 -0.0106 -0.448064 0.858156 0.250612 0 
0.1165 0.2064 -0.0108 -0.448064 0.858156 0.250612 0 
0.1165 0.2064 -0.0105 -0.427206 0.865054 0.263013 0 
0.1191 0.2081 -0.0127 -0.641309 0.742811 0.192239 0 
0.1192 0.2087 -0.0124 -0.652703 0.75401 0.073809 0 
0.1194 0.2088 -0.012 0.336038 0.612011 -0.715906 0 
0.1195 0.2091 -0.0121 0.336038 0.612011 -0.715906 0 
0.1198 0.2096 -0.0121 -0.796368 0.587191 0.14493 0 
0.1198 0.209 -0.012 -0.752337 0.648872 0.113811 0 
0.1198 0.209 -0.0117 -0.796368 0.587191 0.14493 0 
0.1198 0.21 -0.0118 -0.816045 0.551544 0.172827 0 
0.1201 0.2099 -0.0118 -0.841191 0.508313 0.184432 0 
0.1201 0.2097 -0.0114 -0.862318 0.461796 0.207733 0 
0.1198 0.2099 -0.0106 -0.900429 0.375057 0.220364 0 
0.1154 0.2049 -0.0094 -0.36748 0.854352 0.36748 0 
0.1169 0.2055 -0.0084 -0.430666 0.778448 0.456668 0 
0.1169 0.2055 -0.0081 -0.454211 0.762485 0.46077 0 
0.1169 0.2058 -0.0087 -0.388588 0.826344 0.407621 0 
0.1172 0.2061 -0.0085 -0.381171 0.830352 0.406477 0 
0.1172 0.2058 -0.0082 -0.403613 0.799185 0.445421 0 
0.1162 0.2049 -0.0079 -0.472438 0.731036 0.49233 0 
0.1169 0.2052 -0.0078 -0.519636 0.722178 0.456549 0 
0.1172 0.2052 -0.0076 -0.407277 0.783724 0.468937 0 
0.1174 0.2049 -0.0073 -0.603881 0.708619 0.364947 0 
0.1177 0.2052 -0.0077 -0.489625 0.746802 0.45006 0 
0.118 0.2053 -0.0077 -0.392916 0.784216 0.480231 0 
0.1177 0.2049 -0.0073 -0.615656 0.70384 0.354369 0 
0.118 0.2052 -0.0073 -0.616063 0.685432 0.388136 0 
0.1174 0.2056 -0.0079 -0.246323 0.846065 0.472756 0 
0.1177 0.2056 -0.0079 -0.33816 0.814443 0.471519 0 
0.1177 0.2049 -0.007 -0.641228 0.702605 0.3085 0 
0.118 0.205 -0.007 -0.652843 0.688482 0.315892 0 
0.118 0.2049 -0.0067 -0.656391 0.694908 0.293691 0 
0.1183 0.2052 -0.0067 -0.639774 0.704235 0.307801 0 
0.118 0.2049 -0.0064 -0.637173 0.717019 0.282656 0 
0.1183 0.2049 -0.0064 -0.611474 0.733447 0.29691 0 
0.1168 0.2008 0.001 -0.420852 0.794943 0.436977 0 
0.1169 0.201 0.001 -0.412902 0.801705 0.432182 0 
0.1174 0.2011 0.001 -0.403246 0.804885 0.435377 0 
0.1172 0.2008 0.0013 -0.375592 0.807122 0.455505 0 
0.1175 0.201 0.0013 -0.364464 0.813279 0.45359 0 
0.1175 0.2013 0.0013 -0.383153 0.806385 0.450485 0 
0.1177 0.201 0.0016 -0.163524 0.855921 0.490571 0 
0.1178 0.2011 0.0014 -0.205535 0.853647 0.478583 0 
0.1172 0.1998 0.0019 -0.514923 0.74195 0.429377 0 
0.1172 0.1998 0.0022 -0.553651 0.734368 0.392649 0 
0.1171 0.1995 0.0026 -0.439927 0.811065 0.385536 0 
0.1171 0.1998 0.0028 -0.457183 0.793205 0.402256 0 
0.1172 0.1998 0.0024 -0.540824 0.746697 0.387237 0 
0.1171 0.1995 0.0029 -0.357511 0.847723 0.391857 0 
0.1171 0.1999 0.003 -0.431647 0.807132 0.402764 0 
0.1174 0.2001 0.0017 -0.167335 0.848522 0.502005 0 
0.1174 0.2007 0.0016 -0.173414 0.852247 0.493562 0 
0.1174 0.2004 0.0019 -0.180327 0.850967 0.493293 0 
0.1174 0.2001 0.002 -0.280614 0.838742 0.466657 0 
0.1174 0.2001 0.0023 -0.38833 0.813416 0.433076 0 
0.1174 0.2004 0.0022 -0.288645 0.825367 0.485235 0 
0.1174 0.2007 0.0022 -0.180327 0.850967 0.493293 0 
0.1172 0.2008 0.0019 -0.39313 0.787878 0.474021 0 
0.1175 0.201 0.0018 -0.173414 0.852247 0.493562 0 
0.118 0.201 0.0017 -0.166809 0.854712 0.49157 0 
0.118 0.2014 0.0016 -0.186631 0.852529 0.488226 0 
0.1177 0.201 0.0022 -0.199635 0.848074 0.490832 0 
0.1181 0.201 0.0023 -0.328908 0.829352 0.451658 0 
0.1177 0.2013 0.002 -0.19942 0.850157 0.487303 0 
0.1174 0.2004 0.0025 -0.38833 0.813416 0.433076 0 
0.1174 0.2001 0.0026 -0.503061 0.770057 0.392355 0 
0.1175 0.2007 0.0025 -0.301582 0.832866 0.464092 0 
0.1174 0.2001 0.0029 -0.444851 0.801374 0.399884 0 
0.1174 0.2004 0.0028 -0.484541 0.779478 0.397032 0 
0.1175 0.2004 0.0031 -0.431647 0.807132 0.402764 0 
0.1177 0.2004 0.0031 -0.431647 0.807132 0.402764 0 
0.118 0.2007 0.0031 -0.431647 0.807132 0.402764 0 
0.1183 0.2007 0.0031 -0.431647 0.807132 0.402764 0 
0.1177 0.201 0.0024 -0.260346 0.836495 0.482179 0 
0.118 0.201 0.0025 -0.403956 0.812702 0.419923 0 
0.1178 0.2008 0.0028 -0.441231 0.790337 0.425069 0 
0.1181 0.201 0.0026 -0.403956 0.812702 0.419923 0 
0.1183 0.2011 0.0028 -0.435399 0.791487 0.428924 0 
0.1183 0.2016 0.0025 -0.411401 0.808395 0.421006 0 
0.118 0.2008 0.0028 -0.412468 0.807282 0.422098 0 
0.1183 0.2008 0.0028 -0.412468 0.807282 0.422098 0 
0.1186 0.2007 0.0031 -0.434253 0.806012 0.402205 0 
0.1184 0.201 0.0025 -0.404459 0.810518 0.423643 0 
0.1186 0.201 0.0028 -0.41671 0.80285 0.426363 0 
0.1189 0.201 0.0028 -0.420949 0.798351 0.430626 0 
0.1189 0.2008 0.0031 -0.46091 0.790824 0.40269 0 
0.1192 0.2011 0.0026 -0.43004 0.797265 0.423597 0 
0.1192 0.201 0.0029 -0.438536 0.801573 0.406409 0 
0.1162 0.2019 0.0001 -0.407707 0.813815 0.414102 0 
0.1162 0.2022 0.0001 -0.39178 0.826386 0.404469 0 
0.1178 0.202 0.0001 -0.428456 0.803956 0.412409 0 
0.1183 0.2022 0.0002 -0.37477 0.830186 0.412721 0 
0.1181 0.2028 0.0005 -0.348042 0.844353 0.40735 0 
0.1183 0.2026 0.0022 -0.212177 0.856234 0.471004 0 
0.1184 0.202 0.0001 -0.392805 0.819006 0.41825 0 
0.1189 0.202 0.0001 -0.352651 0.838526 0.415345 0 
0.1168 0.1998 0.0032 -0.353412 0.848499 0.39389 0 
0.1171 0.1993 0.0034 -0.533898 0.761088 0.368373 0 
0.1183 0.1998 0.0046 -0.541936 0.770289 0.336097 0 
0.1168 0.2001 0.0034 -0.350682 0.84943 0.394323 0 
0.1171 0.2004 0.0035 -0.431647 0.807132 0.402764 0 
0.1174 0.2001 0.0032 -0.431647 0.807132 0.402764 0 
0.1177 0.2002 0.0034 -0.454843 0.798789 0.393769 0 
0.1183 0.2004 0.0035 -0.585562 0.72006 0.372332 0 
0.1183 0.2001 0.0038 -0.591294 0.724864 0.353473 0 
0.1181 0.201 0.0032 -0.449148 0.800096 0.397633 0 
0.1171 0.2004 0.0043 -0.544778 0.764629 0.344325 0 
0.1183 0.2001 0.0041 -0.547045 0.763282 0.343719 0 
0.1175 0.1993 0.0053 -0.401125 0.853359 0.332981 0 
0.1177 0.1995 0.0052 -0.424249 0.84067 0.336581 0 
0.1183 0.1998 0.0048 -0.529509 0.777365 0.339594 0 
0.118 0.1995 0.0052 -0.435309 0.834474 0.337875 0 
0.118 0.1993 0.0055 -0.35834 0.86586 0.349112 0 
0.1183 0.1995 0.0052 -0.476098 0.807297 0.348714 0 
0.1183 0.1995 0.0055 -0.341487 0.868266 0.359863 0 
0.1177 0.199 0.0056 -0.328035 0.881309 0.340128 0 
0.1177 0.199 0.0059 -0.102962 0.915674 0.388509 0 
0.1177 0.199 0.0064 -0.111038 0.892521 0.437124 0 
0.118 0.1992 0.0063 -0.107552 0.900927 0.420432 0 
0.118 0.1993 0.0058 -0.2899 0.884721 0.365004 0 
0.1183 0.1993 0.0058 -0.264043 0.887602 0.377417 0 
0.1183 0.1993 0.0063 -0.0198048 0.901778 0.431745 0 
0.1186 0.2004 0.0035 -0.585562 0.72006 0.372332 0 
0.1186 0.2002 0.0038 -0.592692 0.723313 0.354309 0 
0.1186 0.1995 0.0055 -0.371561 0.853503 0.365343 0 
0.1186 0.1993 0.0058 -0.247912 0.889218 0.384487 0 
0.1186 0.1993 0.0063 0.0118426 0.901357 0.432915 0 
0.1171 0.1974 0.0076 -0.552966 0.791071 0.261602 0 
0.1168 0.198 0.0076 -0.546398 0.803345 0.236824 0 
0.1168 0.198 0.0078 -0.519892 0.819176 0.242205 0 
0.1169 0.1983 0.0079 -0.524382 0.815189 0.245949 0 
0.1175 0.1983 0.0076 -0.201734 0.884977 0.419665 0 
0.1177 0.1983 0.0079 -0.132552 0.887956 0.440415 0 
0.1174 0.1968 0.0082 -0.454158 0.828171 0.32844 0 
0.1171 0.1968 0.0091 -0.265236 0.88262 0.388113 0 
0.1168 0.1975 0.0082 -0.448859 0.846816 0.285357 0 
0.1168 0.1972 0.0085 -0.403476 0.854875 0.326182 0 
0.1168 0.1974 0.0084 -0.459235 0.835963 0.300449 0 
0.1168 0.1974 0.0088 -0.396823 0.856952 0.328884 0 
0.1169 0.1978 0.0081 -0.465847 0.840381 0.277032 0 
0.1171 0.1978 0.0084 -0.434831 0.849545 0.298656 0 
0.1168 0.1983 0.0082 -0.479809 0.837737 0.260732 0 
0.1171 0.1978 0.0087 -0.438753 0.83847 0.323209 0 
0.1171 0.1981 0.0085 -0.444631 0.844334 0.299003 0 
0.1171 0.1983 0.0085 -0.445041 0.845114 0.296177 0 
0.1177 0.1981 0.0084 -0.446863 0.839231 0.309846 0 
0.118 0.1981 0.0082 -0.548034 0.783133 0.293873 0 
0.1177 0.1978 0.0087 -0.421888 0.83907 0.34347 0 
0.118 0.1981 0.0085 -0.443583 0.835441 0.324458 0 
0.1183 0.1981 0.0085 -0.501148 0.800247 0.329326 0 
0.1169 0.1971 0.0088 -0.346901 0.8726 0.343844 0 
0.1168 0.1974 0.009 -0.342732 0.87587 0.339685 0 
0.1174 0.1975 0.0096 -0.222351 0.890875 0.396108 0 
0.1177 0.1975 0.009 -0.337342 0.86107 0.380473 0 
0.1171 0.1978 0.009 -0.371934 0.859614 0.350327 0 
0.1172 0.1981 0.0088 -0.445825 0.836899 0.317552 0 
0.1172 0.1977 0.0093 -0.296961 0.881838 0.366302 0 
0.1177 0.1978 0.0091 -0.350327 0.859614 0.371934 0 
0.118 0.198 0.009 -0.40124 0.844633 0.354403 0 
0.118 0.1978 0.0093 -0.30368 0.868312 0.39219 0 
0.118 0.1978 0.0096 -0.212249 0.894374 0.393759 0 
0.1183 0.1981 0.0096 -0.250035 0.88186 0.399757 0 
0.1184 0.1983 0.0082 -0.540586 0.782973 0.307767 0 
0.1186 0.1983 0.0082 -0.0529386 0.894526 0.44387 0 
0.1186 0.198 0.0085 -0.486447 0.802239 0.346095 0 
0.1184 0.198 0.009 -0.433868 0.818468 0.376654 0 
0.1186 0.198 0.009 -0.448708 0.809591 0.378448 0 
0.1184 0.198 0.0093 -0.356567 0.848598 0.390822 0 
0.1188 0.198 0.0096 -0.284811 0.866618 0.409702 0 
0.1183 0.1969 0.0096 -0.190381 0.896678 0.399654 0 
0.1177 0.1978 0.0096 -0.231867 0.890545 0.391367 0 
0.118 0.198 0.01 -0.1929 0.897781 0.395952 0 
0.1183 0.1978 0.01 -0.186332 0.89988 0.39433 0 
0.1177 0.198 0.01 -0.1962 0.896709 0.396761 0 
0.118 0.1978 0.0102 -0.182525 0.904002 0.386608 0 
0.1181 0.1975 0.0109 -0.180397 0.940544 0.287809 0 
0.118 0.1977 0.0106 -0.191264 0.922319 0.335775 0 
0.1177 0.1954 0.0117 -0.141022 0.958157 0.249094 0 
0.1181 0.1968 0.0117 -0.172398 0.955538 0.239219 0 
0.1181 0.1963 0.0123 -0.102125 0.97819 0.180873 0 
0.1181 0.1965 0.012 -0.125699 0.971311 0.20188 0 
0.118 0.1963 0.0127 -0.110749 0.982136 0.152128 0 
0.1166 0.1972 0.0123 0.0074571 0.996055 0.0884199 0 
0.1172 0.1969 0.0118 -0.130018 0.966767 0.220129 0 
0.1181 0.1971 0.0114 -0.164284 0.946331 0.278333 0 
0.1168 0.1971 0.012 -0.101782 0.971324 0.214872 0 
0.1188 0.1966 0.01 -0.248195 0.890231 0.381952 0 
0.1186 0.1975 0.0102 -0.195554 0.902445 0.383865 0 
0.1186 0.1978 0.01 -0.199743 0.896655 0.395111 0 
0.1184 0.1978 0.0102 -0.189265 0.90298 0.385753 0 
0.1186 0.1975 0.0106 -0.209237 0.920929 0.328801 0 
0.1191 0.1974 0.0106 -0.263321 0.901764 0.342759 0 
0.1192 0.1972 0.0109 -0.277611 0.906277 0.318739 0 
0.1184 0.1975 0.0109 -0.189843 0.938128 0.289614 0 
0.1186 0.1975 0.0109 -0.211711 0.932369 0.29303 0 
0.1184 0.1978 0.0106 -0.184652 0.923262 0.336885 0 
0.1184 0.1966 0.0117 -0.179092 0.944678 0.27479 0 
0.1188 0.1966 0.0117 -0.210346 0.937501 0.277211 0 
0.1191 0.1968 0.0117 -0.251847 0.926284 0.280304 0 
0.1192 0.1966 0.012 -0.247145 0.930677 0.269741 0 
0.1184 0.1963 0.012 -0.15846 0.954752 0.251671 0 
0.1184 0.1963 0.0123 -0.115259 0.977844 0.174748 0 
0.1188 0.1965 0.012 -0.178711 0.952679 0.245896 0 
0.1188 0.1966 0.0123 -0.189342 0.96499 0.181507 0 
0.1191 0.1965 0.0123 -0.131011 0.976966 0.168442 0 
0.1186 0.1963 0.0126 -0.109594 0.983938 0.140907 0 
0.1188 0.1963 0.0126 -0.107213 0.984195 0.140943 0 
0.1192 0.1965 0.0126 -0.133704 0.98411 0.11684 0 
0.1188 0.1969 0.0114 -0.228192 0.928359 0.29339 0 
0.1184 0.1972 0.0114 -0.176311 0.944424 0.27745 0 
0.1191 0.1971 0.0112 -0.248544 0.920906 0.300264 0 
0.1166 0.1984 0.0076 -0.571995 0.790926 0.217389 0 
0.1177 0.1989 0.0066 -0.115376 0.878854 0.46293 0 
0.118 0.1992 0.0066 -0.0789644 0.888003 0.453006 0 
0.1183 0.1992 0.0066 -0.053132 0.892345 0.448216 0 
0.1177 0.1987 0.007 -0.227662 0.879399 0.418124 0 
0.118 0.199 0.0069 -0.105741 0.883991 0.455389 0 
0.1183 0.1992 0.0069 -0.0587781 0.892607 0.446987 0 
0.1168 0.1986 0.0079 -0.528346 0.813436 0.243256 0 
0.118 0.1987 0.0076 -0.160012 0.889434 0.428139 0 
0.1183 0.1987 0.0076 -0.160423 0.888829 0.42924 0 
0.118 0.1989 0.0072 -0.201209 0.885613 0.418574 0 
0.1183 0.1989 0.0072 -0.163667 0.884958 0.435961 0 
0.118 0.1984 0.0079 -0.0760247 0.891562 0.446472 0 
0.1169 0.1986 0.0082 -0.500636 0.830286 0.244927 0 
0.1186 0.1993 0.0066 0.0279893 0.89699 0.441164 0 
0.1186 0.1993 0.0069 -0.0417463 0.895525 0.443049 0 
0.1186 0.1987 0.0076 -0.169497 0.888049 0.427364 0 
0.1186 0.1989 0.0072 -0.119316 0.899781 0.419711 0 
0.1186 0.1986 0.0078 -0.078672 0.895757 0.437527 0 
0.1184 0.1986 0.0079 -0.081517 0.893924 0.440744 0 
0.1178 0.1912 0.0195 -0.633968 0.695899 0.337356 0 
0.1189 0.1918 0.0195 -0.362311 0.869853 0.334794 0 
0.1191 0.1919 0.0215 -0.44921 0.783279 0.429749 0 
0.1198 0.1912 0.0224 -0.680546 0.597349 0.424301 0 
0.1191 0.1919 0.0218 0.788276 0.587014 -0.18449 0 
0.1163 0.1906 0.0255 -0.120102 0.6272 -0.769543 0 
0.1191 0.1895 0.0237 -0.953174 0.276302 0.122948 0 
0.1201 0.1919 0.0228 -0.447408 0.80341 0.392885 0 
0.1201 0.1906 0.0239 -0.909239 0.382763 0.163635 0 
0.1201 0.1909 0.0237 -0.83894 0.499116 0.216941 0 
0.1204 0.1919 0.0234 -0.483469 0.80259 0.349438 0 
0.1204 0.1918 0.0237 -0.350311 0.878052 0.326047 0 
0.1204 0.1901 0.0252 -0.846575 0.526096 -0.0808288 0 
0.12 0.191 0.0248 -0.700268 0.706165 0.104672 0 
0.1198 0.1907 0.0254 -0.593365 0.804587 0.0236234 0 
0.1195 0.1913 0.025 -0.372261 0.911397 0.175433 0 
0.1195 0.1918 0.0251 -0.337662 0.918954 0.203737 0 
0.1197 0.1912 0.0254 -0.409462 0.906368 0.104101 0 
0.1195 0.1916 0.0255 -0.340768 0.932698 0.118115 0 
0.1198 0.1918 0.0254 -0.485745 0.862089 0.144411 0 
0.1201 0.1913 0.0242 -0.625978 0.739506 0.247553 0 
0.1204 0.1919 0.024 -0.529743 0.790637 0.307028 0 
0.1207 0.1919 0.0242 -0.560133 0.78103 0.276122 0 
0.1204 0.1919 0.0245 -0.532509 0.804229 0.263912 0 
0.1213 0.1919 0.024 -0.459379 0.842968 0.279958 0 
0.1209 0.1918 0.0245 -0.518159 0.818228 0.249026 0 
0.1212 0.1919 0.0245 -0.480897 0.844241 0.236632 0 
0.1212 0.1918 0.0248 -0.497512 0.847115 0.186754 0 
0.1175 0.1945 0.0159 0.126232 0.779667 0.613338 0 
0.1175 0.195 0.0159 0.318509 0.809742 0.492818 0 
0.1181 0.1951 0.0159 0.198397 0.825391 0.528553 0 
0.116 0.1963 0.013 0.142973 0.989726 -0.00110832 0 
0.1171 0.1966 0.0132 0.167684 0.983508 -0.0677871 0 
0.1175 0.1966 0.0132 0.0526659 0.998586 -0.00722865 0 
0.1177 0.1965 0.013 -0.0843605 0.990369 0.109784 0 
0.118 0.1966 0.0132 -0.045357 0.994535 0.0940328 0 
0.1183 0.1966 0.0133 -0.112345 0.990261 0.0822322 0 
0.1162 0.1969 0.0132 0.157512 0.97856 -0.132707 0 
0.1168 0.1969 0.013 0.149391 0.982581 -0.110525 0 
0.1166 0.1962 0.0154 0.66677 0.673259 0.319595 0 
0.1171 0.1956 0.0159 0.495399 0.816228 0.297239 0 
0.1183 0.1954 0.0156 0.00132744 0.874782 0.484515 0 
0.1175 0.1974 0.0148 -0.757706 -0.610852 -0.229655 0 
0.1177 0.1972 0.0147 -0.765902 -0.60808 -0.208882 0 
0.1184 0.1963 0.013 -0.108261 0.986243 0.124916 0 
0.1192 0.1965 0.013 -0.127054 0.986747 0.100931 0 
0.1189 0.1966 0.013 -0.192709 0.97362 0.122175 0 
0.1184 0.1968 0.0133 0.0361605 0.999063 -0.0237626 0 
0.1189 0.1966 0.0133 -0.258172 0.950233 0.174367 0 
0.1192 0.1968 0.0132 -0.0928697 0.991757 0.0882835 0 
0.1195 0.1965 0.0132 0.0792627 0.991358 0.104535 0 
0.1192 0.1966 0.0136 -0.938526 0.223856 0.262787 0 
0.1195 0.1969 0.0135 -0.952269 0.193155 0.236379 0 
0.1186 0.1971 0.0136 -0.959933 0.178746 0.215819 0 
0.1188 0.1975 0.0136 -0.975963 -0.052003 0.21164 0 
0.1184 0.1975 0.0139 -0.886939 -0.389061 0.248939 0 
0.1188 0.1975 0.0139 -0.913206 -0.334311 0.233005 0 
0.1195 0.1971 0.0138 -0.968892 -0.121271 0.215735 0 
0.1195 0.196 0.0148 -0.593356 0.726658 0.34626 0 
0.1197 0.1957 0.0151 -0.331779 0.831807 0.444993 0 
0.1198 0.1962 0.0147 -0.725979 0.627054 0.282414 0 
0.1192 0.1966 0.015 -0.963331 0.243734 0.112195 0 
0.1192 0.1959 0.0157 -0.151203 0.800924 0.57936 0 
0.1198 0.196 0.0153 -0.456564 0.767485 0.450018 0 
0.1184 0.1968 0.0153 -0.755593 -0.509738 -0.411396 0 
0.1189 0.196 0.0157 -0.127351 0.829974 0.54307 0 
0.1195 0.1963 0.0159 -0.383288 0.715581 0.58398 0 
0.1203 0.1956 0.0159 -0.136489 0.745441 0.652448 0 
0.1198 0.1974 0.015 -0.942562 0.156414 0.295146 0 
0.1198 0.1972 0.0159 -0.899893 0.282232 0.332473 0 
0.1178 0.1944 0.0163 0.538419 0.639689 0.548546 0 
0.1178 0.1942 0.0166 -0.26561 0.644145 0.717307 0 
0.1177 0.1948 0.0162 0.332991 0.773761 0.538898 0 
0.1183 0.195 0.0162 0.41954 0.704761 0.5721 0 
0.1178 0.1948 0.0165 0.411396 0.755593 0.509738 0 
0.1178 0.1948 0.0168 0.501575 0.704872 0.501575 0 
0.118 0.1951 0.0168 0.51685 0.687461 0.51016 0 
0.1181 0.1948 0.0165 0.552846 0.65703 0.512517 0 
0.1175 0.1945 0.0168 0.546432 0.693485 0.469564 0 
0.1174 0.1947 0.0171 0.515267 0.708701 0.481916 0 
0.1175 0.195 0.0169 0.47541 0.705609 0.525453 0 
0.1169 0.1945 0.0172 0.559893 0.742716 0.367277 0 
0.1183 0.1933 0.0189 -0.227473 0.860179 0.456452 0 
0.1181 0.1934 0.0191 -0.181992 0.862612 0.471995 0 
0.1183 0.1936 0.0189 -0.192236 0.856867 0.478355 0 
