0.0550233 0.266804 0.0333657 -0.264728 0.40995 0.872846 1 
0.056056 0.268725 0.0328525 -0.161328 0.504706 0.848083 1 
0.0560006 0.268477 0.032692 -0.203874 0.505909 0.838148 1 
0.0553852 0.268396 0.033216 -0.145535 0.518927 0.842338 1 
0.0556601 0.269055 0.0326673 -0.252995 0.476858 0.841784 1 
0.0551661 0.268959 0.0327976 -0.227895 0.503205 0.833576 1 
0.0554462 0.268657 0.0327936 -0.224038 0.567048 0.792631 1 
0.0555803 0.268615 0.0328111 -0.193741 0.575121 0.794796 1 
0.0556712 0.268203 0.0328543 -0.208841 0.535059 0.818595 1 
0.0553243 0.268575 0.0329621 -0.265224 0.544573 0.795673 1 
0.0553298 0.268149 0.0330556 -0.315473 0.499367 0.806913 1 
0.0553113 0.268067 0.0330021 -0.315473 0.499367 0.806913 1 
0.0553664 0.268217 0.0329374 -0.31749 0.524896 0.789737 1 
0.0551348 0.268369 0.0327841 -0.288105 0.524257 0.801342 1 
0.0551226 0.268492 0.0325981 -0.274422 0.531594 0.801312 1 
0.0550011 0.268507 0.0329918 -0.288354 0.527862 0.798883 1 
0.0555138 0.269219 0.0324637 -0.237895 0.453062 0.859151 1 
0.0549346 0.269111 0.0326443 -0.293006 0.487299 0.82261 1 
0.0550506 0.269522 0.0321571 -0.44214 0.299414 0.845496 1 
0.0552028 0.269467 0.032003 -0.341324 0.353569 0.870912 1 
0.0549224 0.269234 0.0324583 -0.36463 0.424612 0.828704 1 
0.0548855 0.269069 0.0323513 -0.384076 0.435074 0.814369 1 
0.0551648 0.268135 0.0325733 -0.30911 0.518354 0.797346 1 
0.0549697 0.267916 0.0329783 -0.339588 0.486264 0.805126 1 
0.0546952 0.267793 0.0330758 -0.321887 0.460063 0.827485 1 
0.0545978 0.267903 0.03294 -0.35166 0.46941 0.809932 1 
0.0545489 0.267958 0.0328722 -0.346632 0.484006 0.803483 1 
0.05458 0.268891 0.0319841 -0.469104 0.391726 0.791512 1 
0.0543597 0.26819 0.0320178 -0.387088 0.52755 0.75621 1 
0.0541036 0.26815 0.0321688 -0.399176 0.506709 0.764137 1 
0.0544958 0.269605 0.0320335 -0.544118 0.268139 0.795008 1 
0.0544945 0.268781 0.0318093 -0.5213 0.378389 0.764898 1 
0.0543002 0.268412 0.0335661 -0.375601 0.521939 0.765835 1 
0.0543239 0.267972 0.0334879 -0.356726 0.442341 0.822849 1 
0.0539694 0.267752 0.0328277 -0.385653 0.559607 0.733561 1 
0.0537983 0.267629 0.0327032 -0.401683 0.351668 0.845565 1 
0.0540545 0.267669 0.0325522 -0.387742 0.548075 0.741128 1 
0.0536277 0.267602 0.0328038 -0.0128336 0.978851 0.20417 1 
0.0542165 0.273482 0.034193 -0.377174 -0.690113 -0.617643 1 
0.0539176 0.273605 0.0339184 -0.333779 -0.562749 -0.756244 1 
0.0539661 0.273454 0.0337611 -0.341214 -0.648144 -0.680796 1 
0.0541184 0.273399 0.033607 -0.380766 -0.690653 -0.61483 1 
0.0537104 0.27351 0.0341373 -0.286742 -0.559226 -0.777847 1 
0.0540573 0.273138 0.0340294 -0.282193 -0.747731 -0.601054 1 
0.053393 0.273112 0.0344856 -0.210985 -0.571354 -0.79312 1 
0.0532836 0.273442 0.0343889 -0.186131 -0.54326 -0.818672 1 
0.0532345 0.272962 0.0347723 -0.170901 -0.579249 -0.797034 1 
0.0530886 0.273223 0.0347938 -0.195171 -0.531046 -0.824559 1 
0.0525508 0.272125 0.0351759 0.134478 -0.568947 -0.811304 1 
0.0526187 0.272784 0.0350712 0.100787 -0.612027 -0.784388 1 
0.0523933 0.273142 0.0347853 0.0376521 -0.573149 -0.818586 1 
0.0524842 0.272729 0.0348285 0.112659 -0.580855 -0.806174 1 
0.0522283 0.272689 0.0349795 0.151037 -0.584709 -0.797059 1 
0.0519534 0.272469 0.0348518 0.227253 -0.659817 -0.716238 1 
0.0520148 0.272826 0.0346545 0.151037 -0.584709 -0.797059 1 
0.0543118 0.276859 0.0328797 -0.616534 0.653292 -0.439427 1 
0.0541901 0.276873 0.0332735 -0.619641 0.629717 -0.468509 1 
0.0540373 0.276736 0.0329773 -0.725428 0.533743 -0.434596 1 
0.0539819 0.276488 0.0328168 -0.730907 0.498873 -0.465725 1 
0.0538966 0.276475 0.0328672 -0.783479 0.489472 -0.382855 1 
0.0536228 0.276545 0.033415 -0.766192 0.509168 -0.392043 1 
0.0532748 0.276188 0.0335238 -0.825926 0.450074 -0.33953 1 
0.0538053 0.276352 0.0332752 -0.768686 0.491241 -0.409639 1 
0.053689 0.276283 0.0328609 -0.768686 0.491241 -0.409639 1 
0.0536406 0.276434 0.0330182 -0.768686 0.491241 -0.409639 1 
0.053811 0.276365 0.0326923 -0.780313 0.5089 -0.3635 1 
0.0533912 0.276696 0.0332617 -0.766192 0.509168 -0.392043 1 
0.0536103 0.276572 0.0330038 -0.768795 0.505487 -0.391712 1 
0.0532615 0.275584 0.0333386 -0.127871 -0.264971 -0.95574 1 
0.0531826 0.275776 0.0332563 -0.0950386 -0.236963 -0.966859 1 
0.0536036 0.276269 0.0329112 -0.768686 0.491241 -0.409639 1 
0.0535299 0.275939 0.0326972 -0.806203 0.453589 -0.379861 1 
0.0534452 0.276119 0.0331979 -0.81705 0.464846 -0.341098 1 
0.0533476 0.276229 0.0330622 -0.81705 0.464846 -0.341098 1 
0.0532738 0.275899 0.0328483 0.0241944 -0.337448 -0.941033 1 
0.0531271 0.275528 0.0330959 -0.121841 -0.260714 -0.957697 1 
0.0531087 0.275446 0.0330424 -0.127871 -0.264971 -0.95574 1 
0.0532369 0.275734 0.0327413 -0.03853 -0.274681 -0.960763 1 
0.053475 0.275446 0.0336635 -0.846769 0.212824 -0.487533 1 
0.0527738 0.275255 0.0340127 0.890092 -0.40912 -0.200894 1 
0.0531518 0.275378 0.0336932 0.00380001 -0.358467 -0.933535 1 
0.0529745 0.275049 0.0337012 0.645787 -0.442206 -0.622425 1 
0.0529076 0.275118 0.0338051 0.645787 -0.442206 -0.622425 1 
0.0528356 0.276147 0.0333641 0.00622479 -0.319954 -0.947413 1 
0.0530672 0.275996 0.0335174 0.00622479 -0.319954 -0.947413 1 
0.052902 0.275543 0.0337116 -0.306941 -0.179165 -0.934712 1 
0.0529147 0.275955 0.0334465 -0.0585653 -0.252952 -0.965705 1 
0.053054 0.275392 0.0333323 -0.842729 0.246242 -0.478719 1 
0.0529081 0.275653 0.0333538 -0.127871 -0.264971 -0.95574 1 
0.0530174 0.275323 0.0334505 -0.909821 0.341001 -0.236524 1 
0.0528467 0.275296 0.0335511 -0.0825885 -0.315934 -0.94518 1 
0.0527429 0.2752 0.033548 -0.309706 -0.249205 -0.917594 1 
0.052652 0.275612 0.0335049 -0.174944 -0.211774 -0.961533 1 
0.0525966 0.275365 0.0333444 -0.181665 -0.218793 -0.958711 1 
0.0534545 0.273908 0.0336119 -0.0659726 -0.399875 -0.914192 1 
0.0532169 0.27395 0.0338163 -0.0635658 -0.415207 -0.907504 1 
0.0529796 0.274088 0.034246 -0.0689923 -0.401779 -0.913134 1 
0.0524066 0.274185 0.0342941 0.15139 -0.442636 -0.88383 1 
0.0530705 0.273676 0.0342892 -0.163215 -0.477882 -0.863128 1 
0.0526683 0.2738 0.0342365 -0.0920142 -0.488383 -0.867765 1 
0.0526564 0.27402 0.0342756 -0.0311505 -0.480801 -0.876276 1 
0.0523514 0.273937 0.0341336 0.123332 -0.509287 -0.851714 1 
0.0524304 0.273745 0.0342158 -0.03154 -0.51424 -0.857066 1 
0.0529313 0.274678 0.0337268 0.251283 -0.354147 -0.900798 1 
0.0530898 0.274828 0.0334401 -0.00634827 -0.359312 -0.933196 1 
0.0527969 0.274623 0.0334842 0.209581 -0.359901 -0.909147 1 
0.0530407 0.274348 0.0338235 0.0944632 -0.390174 -0.915883 1 
0.052845 0.273936 0.0337781 -0.0910794 -0.458199 -0.884171 1 
0.0527847 0.274308 0.0339745 0.242046 -0.422452 -0.873469 1 
0.0524312 0.274377 0.0339898 0.269721 -0.431249 -0.860973 1 
0.052468 0.274542 0.0340968 0.37228 -0.400554 -0.837236 1 
0.0525778 0.274747 0.0337422 0.33481 -0.415787 -0.84559 1 
0.0525778 0.274747 0.0337422 0.33481 -0.415787 -0.84559 1 
0.0523702 0.274555 0.0337358 0.490102 -0.386582 -0.781252 1 
0.0526687 0.274335 0.0337853 0.248997 -0.42405 -0.870736 1 
0.052327 0.274184 0.0337615 0.311513 -0.4231 -0.85085 1 
0.0522173 0.273979 0.0341161 0.136208 -0.517005 -0.845076 1 
0.0522361 0.274596 0.0337183 0.660074 -0.414001 -0.626821 1 
0.0522295 0.274294 0.0336257 0.349256 -0.389615 -0.852186 1 
0.0521808 0.274349 0.0335579 0.408225 -0.398695 -0.821215 1 
0.0539176 0.273605 0.0339184 -0.333779 -0.562749 -0.756244 1 
0.0536126 0.273523 0.0337764 -0.227315 -0.501924 -0.834506 1 
0.0534601 0.273482 0.0337053 -0.208092 -0.520988 -0.82781 1 
0.0533081 0.273634 0.0340847 -0.183782 -0.503533 -0.844203 1 
0.0533691 0.273894 0.0336622 -0.0630476 -0.395724 -0.916203 1 
0.0529055 0.273662 0.0338069 -0.129155 -0.497755 -0.857647 1 
0.0531127 0.273318 0.0342644 -0.140535 -0.5577 -0.818059 1 
0.0530034 0.273648 0.0341678 -0.151358 -0.498157 -0.853774 1 
0.0525885 0.273361 0.0343804 -0.133527 -0.538508 -0.831973 1 
0.0525032 0.273347 0.0344307 -0.0872523 -0.54497 -0.833904 1 
0.0525642 0.273607 0.0340082 -0.101836 -0.520652 -0.847674 1 
0.0523381 0.273333 0.0339485 -0.0489487 -0.552421 -0.832127 1 
0.0525036 0.273882 0.0339794 -0.0512262 -0.508108 -0.859769 1 
0.0521988 0.273896 0.0340626 0.0686847 -0.511631 -0.856456 1 
0.0520156 0.273896 0.033752 0.248702 -0.505129 -0.826433 1 
0.0521379 0.274075 0.0338087 0.354515 -0.498888 -0.790841 1 
0.0519181 0.274006 0.0336163 0.349791 -0.487151 -0.800206 1 
0.0520886 0.273156 0.0348685 0.14792 -0.578231 -0.802352 1 
0.0518317 0.272826 0.0343439 0.194583 -0.586814 -0.785994 1 
0.0520822 0.273292 0.0340994 -0.0491378 -0.560171 -0.826919 1 
0.0520215 0.273567 0.0340707 0.0347382 -0.565538 -0.82399 1 
0.0518449 0.273869 0.0338527 0.192597 -0.547461 -0.814367 1 
0.052962 0.275076 0.0332901 -0.209412 -0.273206 -0.938885 1 
0.0529011 0.275254 0.0330361 -0.890604 0.291879 -0.348757 1 
0.0528827 0.275172 0.0329826 -0.82928 0.204667 -0.520006 1 
0.052169 0.275008 0.0329205 -0.477679 -0.0536873 -0.876892 1 
0.0524316 0.274912 0.0335385 0.706355 -0.437109 -0.556774 1 
0.0521752 0.274775 0.0334644 0.657236 -0.427619 -0.620631 1 
0.0521568 0.274692 0.0334109 0.614387 -0.450327 -0.647869 1 
0.052193 0.274664 0.0330675 0.535904 -0.48248 -0.692835 1 
0.0600923 0.266965 0.0360432 -0.30042 -0.734181 -0.608872 1 
0.0584477 0.26734 0.0375281 -0.368373 -0.761088 -0.533898 1 
0.0580395 0.267354 0.0378333 -0.230014 -0.810453 -0.538758 1 
0.0576737 0.267108 0.0383389 -0.0823815 -0.948041 -0.307296 1 
0.0603673 0.266842 0.0370725 -0.360706 -0.77479 -0.519222 1 
0.0601534 0.266444 0.0371987 -0.339729 -0.799082 -0.496037 1 
0.0599705 0.26654 0.0371134 -0.397023 -0.753201 -0.524463 1 
0.0595803 0.266102 0.0379233 -0.351243 -0.830067 -0.433147 1 
0.0595069 0.266308 0.0372581 -0.466891 -0.712799 -0.523384 1 
0.0599707 0.266979 0.036437 -0.38032 -0.703015 -0.600938 1 
0.0598363 0.266924 0.0361942 -0.38032 -0.703015 -0.600938 1 
0.0597147 0.266938 0.0365879 -0.412295 -0.707028 -0.574564 1 
0.058819 0.26716 0.037116 -0.394557 -0.751459 -0.528804 1 
0.0593976 0.266637 0.0371614 -0.452342 -0.720765 -0.525247 1 
0.0593607 0.266472 0.0370545 -0.452342 -0.720765 -0.525247 1 
0.0594827 0.266554 0.036886 -0.453129 -0.722019 -0.522841 1 
0.0590559 0.266487 0.0371376 -0.430001 -0.736439 -0.522262 1 
0.0593363 0.266719 0.0366823 -0.452342 -0.720765 -0.525247 1 
0.0588491 0.266926 0.0369052 -0.401136 -0.75479 -0.51902 1 
0.0589585 0.266596 0.0370019 -0.411724 -0.752913 -0.513425 1 
0.0602566 0.266347 0.0367516 -0.262251 -0.789894 -0.554339 1 
0.0601897 0.266416 0.0368554 -0.320329 -0.795245 -0.514758 1 
0.0601165 0.266279 0.0370918 -0.333004 -0.798254 -0.501896 1 
0.0599336 0.266375 0.0370064 -0.389566 -0.757941 -0.523224 1 
0.0599518 0.266361 0.0368347 -0.336931 -0.768976 -0.543281 1 
0.059763 0.266348 0.037107 -0.41538 -0.743744 -0.52374 1 
0.0600734 0.266347 0.036441 -0.309854 -0.756173 -0.576361 1 
0.0598055 0.266526 0.0366311 -0.385553 -0.723528 -0.572588 1 
0.0596167 0.266513 0.0369035 -0.453129 -0.722019 -0.522841 1 
0.0593309 0.266364 0.0381668 -0.445675 -0.727329 -0.521887 1 
0.0590325 0.266584 0.0381174 -0.496854 -0.722848 -0.480237 1 
0.0588311 0.266598 0.0379785 -0.427003 -0.740248 -0.519328 1 
0.0592755 0.266116 0.0380064 -0.460984 -0.756275 -0.464265 1 
0.0588308 0.266501 0.0377533 -0.421249 -0.752347 -0.506482 1 
0.0589831 0.266446 0.0375992 -0.41997 -0.732889 -0.535256 1 
0.0585748 0.266461 0.0379043 -0.392355 -0.770057 -0.503061 1 
0.0588364 0.266076 0.0378468 -0.466723 -0.747086 -0.47332 1 
0.0584477 0.26734 0.0375281 -0.368373 -0.761088 -0.533898 1 
0.0585386 0.266927 0.0375713 -0.36157 -0.766917 -0.530194 1 
0.0585084 0.267065 0.0375568 -0.364384 -0.766015 -0.529571 1 
0.0587149 0.266529 0.0375641 -0.420905 -0.755009 -0.502793 1 
0.0587393 0.266721 0.0372598 -0.408303 -0.752654 -0.516527 1 
0.0585808 0.26657 0.0375466 -0.39053 -0.756549 -0.524519 1 
0.0588856 0.266556 0.0374634 -0.391383 -0.748377 -0.535491 1 
0.0586905 0.266776 0.0371919 -0.401136 -0.75479 -0.51902 1 
0.0575211 0.267067 0.0382678 -0.0183655 -0.96113 -0.275483 1 
0.0576428 0.267053 0.0378742 -0.137649 -0.865015 -0.482496 1 
0.0591411 0.266061 0.0377636 -0.479871 -0.725618 -0.493155 1 
0.0589949 0.266226 0.0375601 -0.453129 -0.722019 -0.522841 1 
0.0596415 0.26724 0.036148 -0.390384 -0.700056 -0.597931 1 
0.0589654 0.267434 0.0366432 -0.426173 -0.711394 -0.558834 1 
0.0587766 0.267421 0.0369155 -0.427421 -0.727771 -0.536339 1 
0.0586728 0.267325 0.0369124 -0.429674 -0.711699 -0.555756 1 
0.0593124 0.267062 0.0365354 -0.45166 -0.68499 -0.571658 1 
0.0592333 0.267255 0.0364531 -0.45166 -0.68499 -0.571658 1 
0.0588188 0.267064 0.0368908 -0.405477 -0.746931 -0.526956 1 
0.0589832 0.267324 0.0362464 -0.513492 -0.63471 -0.577468 1 
0.058399 0.267395 0.0374603 -0.368373 -0.761088 -0.533898 1 
0.0585022 0.267298 0.037013 -0.404053 -0.723998 -0.559078 1 
0.0582646 0.26734 0.0372175 -0.340626 -0.766813 -0.544033 1 
0.0580999 0.267422 0.0369605 -0.206975 -0.868103 -0.451175 1 
0.0581605 0.267147 0.0369892 -0.245173 -0.828038 -0.504225 1 
0.0579354 0.267162 0.037605 -0.184247 -0.843341 -0.504806 1 
0.0572771 0.267245 0.0377033 0.0603538 -0.97182 -0.227867 1 
0.0574781 0.267135 0.0376171 -0.0840569 -0.932631 -0.350904 1 
0.0576972 0.267011 0.0373591 -0.195343 -0.822256 -0.534542 1 
0.0576485 0.267066 0.0372912 -0.140882 -0.897943 -0.416953 1 
0.0573679 0.266833 0.0377465 -0.0748874 -0.942004 -0.327139 1 
0.057118 0.266902 0.0375397 0.0912754 -0.96032 -0.263542 1 
0.0575325 0.267093 0.037102 -0.0954409 -0.931557 -0.350846 1 
0.0573623 0.26682 0.0383294 0.03088 -0.962222 -0.270509 1 
0.0571976 0.266903 0.0380723 0.104467 -0.960841 -0.256654 1 
0.0568747 0.266931 0.0383272 0.291285 -0.944307 -0.153094 1 
0.05696 0.266944 0.0382768 0.293883 -0.943946 -0.150327 1 
0.0571489 0.266957 0.0380045 0.104917 -0.959797 -0.26035 1 
0.0570758 0.267259 0.0375645 0.203499 -0.971993 -0.117549 1 
0.0565637 0.267178 0.0378664 0.303632 -0.935852 -0.178852 1 
0.0570145 0.266902 0.0377618 0.207376 -0.956605 -0.2047 1 
0.0568497 0.266985 0.0375047 0.255294 -0.960268 -0.112744 1 
0.0565937 0.266944 0.0376557 0.302211 -0.936992 -0.175255 1 
0.0567275 0.266806 0.0374481 0.315978 -0.9426 -0.107992 1 
0.0567456 0.266792 0.0372764 0.255294 -0.960268 -0.112744 1 
0.0564715 0.266766 0.037599 0.295789 -0.939646 -0.17197 1 
0.0566481 0.266902 0.0371406 0.188776 -0.97995 -0.0637268 1 
0.0697579 0.276509 0.0679152 0.258186 -0.887982 -0.380564 0 
0.070533 0.276249 0.069358 0.920772 -0.386644 -0.0518183 0 
0.0702031 0.275879 0.069295 0.613976 -0.773881 -0.15538 0 
0.0698493 0.275851 0.0690851 0.709201 -0.67506 -0.203294 0 
0.0699771 0.275604 0.0692353 0.666523 -0.745103 0.0238545 0 
0.0700015 0.275796 0.068931 0.744719 -0.643792 -0.175858 0 
0.0697574 0.275536 0.0690429 0.74148 -0.646693 -0.178873 0 
0.0697389 0.275453 0.0689894 0.74148 -0.646693 -0.178873 0 
0.0695813 0.275592 0.0699516 0.391813 -0.893686 0.218652 0 
0.0693188 0.275688 0.0693336 0.644617 -0.764352 -0.0153149 0 
0.0693982 0.275592 0.069641 0.41555 -0.848219 0.328393 0 
0.0699594 0.276153 0.0689557 0.555689 -0.785521 -0.272335 0 
0.0698671 0.275741 0.0686882 0.701151 -0.643124 -0.307862 0 
0.0699041 0.275906 0.0687952 0.706861 -0.65261 -0.272852 0 
0.0698184 0.275796 0.0686204 0.695378 -0.626658 -0.351779 0 
0.06966 0.276084 0.0682307 0.644256 -0.590428 -0.486136 0 
0.0695018 0.27603 0.0687427 0.660886 -0.614274 -0.431157 0 
0.0694895 0.275715 0.069233 0.774383 -0.625069 -0.0980788 0 
0.0690807 0.275537 0.0690877 0.596525 -0.773158 -0.215369 0 
0.0688431 0.275578 0.0692922 0.52037 -0.853625 0.0232186 0 
0.0697635 0.276084 0.0680087 0.713035 -0.473695 -0.516909 0 
0.0696112 0.276139 0.0681629 0.653536 -0.566174 -0.502332 0 
0.0696648 0.275027 0.0685503 0.709808 -0.65922 -0.248196 0 
0.0695241 0.274766 0.0684402 0.602308 -0.791896 -0.100628 0 
0.0698118 0.275494 0.0685278 0.701151 -0.643124 -0.307862 0 
0.0693366 0.275577 0.0689368 0.702704 -0.644815 -0.300699 0 
0.0692326 0.275385 0.0687085 0.679583 -0.596504 -0.427024 0 
0.068995 0.275427 0.0689129 0.668345 -0.625226 -0.402997 0 
0.0688612 0.275564 0.0691206 0.715181 0.368228 -0.594075 0 
0.069031 0.275302 0.0683444 0.678337 -0.537645 -0.500797 0 
0.0687934 0.275344 0.0685489 0.687461 -0.51685 -0.51016 0 
0.0687868 0.275042 0.0684563 0.704238 -0.531092 -0.471157 0 
0.0695928 0.276057 0.0681094 0.653536 -0.566174 -0.502332 0 
0.0695559 0.275892 0.0680024 0.645738 -0.595421 -0.478014 0 
0.0695803 0.276084 0.0676981 0.710481 -0.487519 -0.507486 0 
0.0696172 0.276248 0.0678051 0.678337 -0.537645 -0.500797 0 
0.0693122 0.276166 0.067663 0.663631 -0.566187 -0.488903 0 
0.0692083 0.27607 0.0676599 0.703181 -0.50609 -0.499409 0 
0.0691596 0.276125 0.067592 0.684422 -0.527122 -0.503695 0 
0.0691043 0.275878 0.0674316 0.733763 -0.472059 -0.488623 0 
0.0687514 0.27614 0.0678972 0.546432 -0.693485 -0.469564 0 
0.0696458 0.274752 0.0680464 0.765117 -0.54189 -0.34778 0 
0.0692434 0.274876 0.0679939 0.717557 -0.562499 -0.41074 0 
0.0689696 0.274945 0.0685417 0.65468 -0.699499 -0.286523 0 
0.0690427 0.275082 0.0683053 0.692881 -0.555975 -0.459138 0 
0.0688411 0.275 0.0679412 0.638504 -0.537422 -0.550899 0 
0.0688601 0.275617 0.0675435 0.512565 -0.69622 -0.502548 0 
0.0682808 0.275509 0.0677241 0.470142 -0.722656 -0.50669 0 
0.0687618 0.275096 0.0676338 0.599625 -0.5726 -0.559087 0 
0.0688237 0.276426 0.0663089 -0.754668 -0.574449 0.316993 0 
0.0689099 0.27629 0.0676104 0.579627 -0.656911 -0.482183 0 
0.0687451 0.276373 0.0673534 0.238698 -0.912839 -0.331284 0 
0.0687757 0.276332 0.067593 0.520487 -0.684499 -0.510445 0 
0.0689765 0.276125 0.0672815 0.4636 -0.77592 -0.427813 0 
0.0690067 0.275988 0.0672958 0.522968 -0.700075 -0.48621 0 
0.0688971 0.276221 0.0669741 0.254815 -0.919926 -0.298004 0 
0.0688602 0.276056 0.0668671 0.360516 -0.87467 -0.324008 0 
0.0687996 0.276331 0.0668383 0.202888 -0.949078 -0.241014 0 
0.0688302 0.27629 0.0670779 0.254815 -0.919926 -0.298004 0 
0.0686419 0.27647 0.0678005 0.495607 -0.73098 -0.469087 0 
0.068349 0.276264 0.0678446 0.468434 -0.751138 -0.465147 0 
0.0684891 0.276332 0.0675044 0.455151 -0.78882 -0.413037 0 
0.0687753 0.276578 0.0664661 0.153148 -0.977407 -0.145677 0 
0.0689215 0.276413 0.0666698 0.300624 -0.919133 -0.254596 0 
0.068629 0.276743 0.0662626 -0.838387 -0.379083 0.391667 0 
0.0689333 0.276193 0.0666307 0.20353 -0.94662 -0.249973 0 
0.0688846 0.276248 0.0665628 0.232944 -0.944179 -0.232944 0 
0.0687199 0.27633 0.0663057 0.348121 -0.915429 -0.201996 0 
0.0685921 0.276578 0.0661556 0.328775 -0.930836 -0.159532 0 
0.0684761 0.276605 0.0659663 0.617548 -0.7382 -0.271467 0 
0.0685368 0.27633 0.0659951 0.275066 -0.958253 -0.0780419 0 
0.0686276 0.275918 0.0660383 0.437939 -0.877353 -0.196114 0 
0.0684814 0.276083 0.0658347 0.4195 -0.901717 -0.104527 0 
0.0683839 0.276193 0.065699 0.573776 -0.794106 -0.200439 0 
0.0674517 0.275907 0.0670216 0.562128 0.309091 -0.767121 0 
0.0676339 0.275618 0.0666567 0.40479 -0.892875 -0.19728 0 
0.0673475 0.275715 0.0667933 0.590602 -0.791978 -0.154789 0 
0.0670853 0.275907 0.0664005 0.747203 -0.655829 0.107586 0 
0.0683905 0.276495 0.0657915 0.565939 -0.792315 -0.227926 0 
0.0682198 0.276468 0.0658922 0.330537 -0.943486 -0.0240621 0 
0.0678663 0.276537 0.0659075 0.411795 -0.910215 -0.0439782 0 
0.0677322 0.276579 0.0658899 0.294861 -0.954847 0.0363871 0 
0.0682013 0.276385 0.0658387 0.509103 -0.851405 -0.126188 0 
0.0681645 0.276221 0.0657318 0.402571 -0.914695 -0.0356375 0 
0.0680182 0.276385 0.0655282 0.54531 -0.830325 -0.114879 0 
0.0679698 0.276537 0.0656854 0.35319 -0.93551 0.00886139 0 
0.0675033 0.275436 0.0638036 0.451387 -0.887402 0.0936314 0 
0.0674323 0.275535 0.0662926 0.662216 -0.749018 -0.0210005 0 
0.0677792 0.275164 0.0661848 0.610012 -0.785555 -0.103863 0 
0.0672847 0.274876 0.0658648 0.712567 -0.701368 0.0181992 0 
0.0671209 0.275247 0.0662832 0.856003 -0.46209 0.231802 0 
0.0681091 0.275973 0.0655714 0.466555 -0.881887 -0.0678374 0 
0.0679629 0.276138 0.0653677 0.443049 -0.895525 -0.0417463 0 
0.0679444 0.276055 0.0653143 0.443049 -0.895525 -0.0417463 0 
0.0678654 0.276248 0.0652319 0.442311 -0.896577 -0.0225805 0 
0.0677128 0.276207 0.065161 0.491293 -0.870868 -0.0148061 0 
0.0678469 0.276165 0.0651785 0.501579 -0.8636 -0.0511251 0 
0.0677247 0.275987 0.0651219 0.371596 -0.928352 -0.00893874 0 
0.0677483 0.275547 0.0650437 0.405475 -0.913949 0.0169491 0 
0.0679807 0.276028 0.0649709 0.670674 -0.725176 -0.155936 0 
0.0677428 0.275973 0.0649502 0.51259 -0.857094 -0.0513979 0 
0.0674802 0.27563 0.0650086 0.406724 -0.913506 0.00909607 0 
0.0670297 0.275563 0.0660148 0.711237 -0.702918 -0.00693213 0 
0.0677857 0.276247 0.0646994 0.861962 -0.334608 -0.380867 0 
0.0675596 0.275973 0.0646396 0.634695 -0.768315 -0.0827863 0 
0.0674437 0.276 0.0644504 0.547233 -0.835545 -0.0489851 0 
0.0673457 0.275136 0.0654423 0.624584 -0.777485 -0.0735654 0 
0.0674558 0.275877 0.0646365 0.563738 -0.825621 -0.0234317 0 
0.067419 0.275712 0.0645295 0.583578 -0.806583 -0.0941255 0 
0.0674068 0.275835 0.0643434 0.466672 -0.884429 -0.00132202 0 
0.0672727 0.275877 0.0643259 0.466672 -0.884429 -0.00132202 0 
0.0675103 0.275835 0.0641214 -0.566951 -0.600799 0.563566 0 
0.0674128 0.275945 0.0639857 0.349193 -0.925152 0.148859 0 
0.067108 0.275959 0.0640688 0.340014 -0.933345 0.115144 0 
0.0673574 0.275697 0.0638252 0.344874 -0.92201 0.175956 0 
0.0664064 0.275233 0.0648692 0.149021 -0.987699 0.0473633 0 
0.0669813 0.275715 0.0661722 0.700124 -0.713988 0.00693192 0 
0.0660404 0.275329 0.0644732 0.221859 -0.920358 0.322054 0 
0.0667531 0.275204 0.0638598 -0.0412624 -0.911766 0.408631 0 
0.0667287 0.275012 0.0641641 -0.207483 -0.864265 0.458254 0 
0.0664104 0.275545 0.0615825 0.923715 -0.324932 -0.202905 0 
0.0671564 0.275808 0.0639115 0.329969 -0.93192 0.150488 0 
0.067138 0.275725 0.063858 0.326283 -0.935162 0.137885 0 
0.0667597 0.275506 0.0639524 -0.138098 -0.859118 0.492793 0 
0.0666988 0.275684 0.0636984 -0.0755538 -0.89703 0.435465 0 
0.0669483 0.275423 0.0634548 -0.0911199 -0.920719 0.379439 0 
0.0668142 0.275464 0.0634373 -0.0167177 -0.92719 0.374219 0 
0.0668998 0.275574 0.0636121 0.520802 -0.847918 -0.0989955 0 
0.0666435 0.275437 0.063538 0.016852 -0.921675 0.387596 0 
0.0665159 0.275781 0.063613 0.0167097 -0.929319 0.3689 0 
0.0664607 0.275533 0.0634526 0.109161 -0.936631 0.332875 0 
0.0671005 0.275367 0.0633007 0.249983 -0.930729 0.266931 0 
0.0668075 0.275162 0.0633447 0.117452 -0.938269 0.325356 0 
0.0667588 0.275217 0.0632769 0.065224 -0.925116 0.37404 0 
0.0667404 0.275134 0.0632233 0.0841354 -0.933502 0.348561 0 
0.0666184 0.275052 0.0633919 0.0919609 -0.936934 0.33719 0 
0.0666125 0.275382 0.0630733 0.28334 -0.931778 0.226954 0 
0.0666794 0.275313 0.0629695 0.277772 -0.936607 0.213563 0 
0.0665275 0.275464 0.0633487 0.117452 -0.938269 0.325356 0 
0.0659611 0.275425 0.0641658 0.250506 -0.913696 0.320011 0 
0.0661927 0.275712 0.0636427 0.106914 -0.932455 0.345103 0 
0.0656926 0.275411 0.0639056 0.235943 -0.931056 0.278328 0 
0.0660277 0.27526 0.0638368 0.14862 -0.926443 0.345854 0 
0.0656738 0.275232 0.063627 0.192618 -0.946697 0.25819 0 
0.066685 0.274887 0.0630629 0.104792 -0.926797 0.360648 0 
0.0664597 0.275244 0.062777 0.242587 -0.950019 0.196509 0 
0.0665388 0.275052 0.0628593 0.242587 -0.950019 0.196509 0 
0.0665506 0.274832 0.0628202 0.248537 -0.9525 0.175991 0 
0.066349 0.274749 0.0624561 0.550542 -0.830819 -0.0815089 0 
0.0654356 0.275081 0.0633811 0.0600334 -0.921846 0.382879 0 
0.0663135 0.275409 0.0625735 0.555648 -0.829973 -0.0489866 0 
0.0664412 0.275162 0.0627236 0.270176 -0.950321 0.154578 0 
0.0663619 0.275257 0.0624162 -0.132254 -0.959823 0.247485 0 
0.0662278 0.275299 0.0623986 0.571487 -0.816204 -0.0849313 0 
0.0664043 0.274997 0.0626166 0.635273 -0.758423 -0.145677 0 
0.0662396 0.275079 0.0623595 0.507781 -0.861485 0.00133979 0 
0.0662762 0.275147 0.0622414 -0.286051 -0.9214 0.263052 0 
0.0656548 0.274957 0.0631231 0.0567611 -0.927978 0.368287 0 
0.0653987 0.274917 0.0632741 0.144817 -0.930969 0.335149 0 
0.065313 0.274806 0.0630992 0.0689923 -0.913134 0.401779 0 
0.0652152 0.27482 0.0627384 0.165231 -0.931683 0.32352 0 
0.065705 0.275384 0.0643168 0.278744 -0.924857 0.258731 0 
0.0655219 0.275384 0.0640062 0.22003 -0.947086 0.233697 0 
0.0654178 0.275192 0.0637779 0.157367 -0.940095 0.302418 0 
0.0653624 0.274944 0.0636175 0.155184 -0.921316 0.356503 0 
0.0662206 0.275242 0.0611793 0.741074 -0.670495 -0.0352892 0 
0.0661408 0.274803 0.0613231 0.464371 -0.88327 0.0647639 0 
0.0658956 0.274596 0.059858 0.277665 -0.959999 0.0361089 0 
0.0653345 0.274473 0.0598669 0.293988 -0.95577 -0.00861054 0 
0.0654867 0.274417 0.0597127 0.231601 -0.972723 -0.0130647 0 
0.0661111 0.274695 0.0624355 0.291899 -0.941478 0.168562 0 
0.0660986 0.274722 0.0620243 0.240571 -0.944413 0.224075 0 
0.0661355 0.274887 0.0621313 0.280694 -0.943405 0.176632 0 
0.0660011 0.274832 0.0618885 0.277772 -0.936607 0.213563 0 
0.0650993 0.274847 0.0625491 0.200604 -0.939378 0.278078 0 
0.0649283 0.274724 0.0624247 0.0298681 -0.92851 0.370105 0 
0.065014 0.274834 0.0625995 0.0962725 -0.926115 0.364751 0 
0.0648063 0.274642 0.0625932 0.469762 -0.871588 -0.140206 0 
0.0647326 0.274312 0.0623792 0.283019 -0.948315 0.143522 0 
0.0661109 0.275037 0.0615339 0.107535 -0.946577 0.30402 0 
0.0659883 0.274762 0.0612521 0.362818 -0.921642 0.137621 0 
0.064757 0.274504 0.062075 0.427589 -0.903857 -0.0144722 0 
0.0649273 0.274435 0.0617491 0.0191563 -0.936105 0.351199 0 
0.0659515 0.274597 0.0611451 0.401115 -0.909103 0.112423 0 
0.0652312 0.274131 0.0609905 0.403487 -0.890605 0.209813 0 
0.0654263 0.27435 0.0605856 0.373693 -0.921227 0.108138 0 
0.0647136 0.274475 0.061199 0.367451 -0.891106 0.26629 0 
0.0646407 0.274435 0.0616606 0.175867 -0.934725 0.308805 0 
0.0649387 0.27446 0.0605833 0.486286 -0.873136 0.0340537 0 
0.0643234 0.274476 0.0613325 0.115989 -0.929278 0.350697 0 
0.0646339 0.274475 0.0606664 0.50617 -0.857795 0.0893241 0 
0.0641707 0.274339 0.0610363 0.502432 -0.827081 0.251989 0 
0.0643173 0.274709 0.0607887 0.637258 -0.750345 0.175743 0 
0.0645007 0.274367 0.0620008 0.34571 -0.926058 0.151335 0 
0.0646713 0.274394 0.0619001 -0.224249 -0.880661 0.417311 0 
0.0642384 0.274559 0.061608 0.246358 -0.9395 0.238007 0 
0.0641462 0.274147 0.0613406 0.0545451 -0.919284 0.389798 0 
0.0641343 0.274367 0.0613796 0.152933 -0.918999 0.36339 0 
0.0646029 0.273981 0.0608781 0.479591 -0.841199 0.249755 0 
0.0652368 0.274144 0.0604076 0.42343 -0.905852 -0.0117984 0 
0.0641153 0.274091 0.0608758 0.388799 -0.856597 0.339231 0 
0.0640784 0.273926 0.0607688 0.388799 -0.856597 0.339231 0 
0.0641021 0.273487 0.0606907 0.378093 -0.815214 0.438716 0 
0.0643211 0.273362 0.0604327 0.336238 -0.804741 0.489219 0 
0.0639677 0.273432 0.060448 0.326379 -0.868812 0.372348 0 
0.0640589 0.273555 0.0600399 0.467796 -0.862824 0.191574 0 
0.0640908 0.273899 0.0611801 0.502432 -0.827081 0.251989 0 
0.0640355 0.273652 0.0610197 0.417862 -0.849704 0.321551 0 
0.0635835 0.273542 0.0602237 0.821714 -0.563584 -0.0846093 0 
0.0636379 0.2735 0.0597086 0.902596 -0.311698 -0.296926 0 
0.0636498 0.27328 0.0596695 0.905628 -0.283284 -0.315575 0 
0.0637231 0.273856 0.0587567 -0.349047 -0.151578 0.924765 0 
0.0639473 0.27277 0.0590434 0.333079 -0.919184 0.21014 0 
0.0646434 0.273922 0.0581495 0.272618 -0.639298 0.719011 0 
0.0648371 0.273317 0.0575204 0.51603 -0.798655 0.309618 0 
0.0647334 0.273221 0.0575172 0.529277 -0.811764 0.246789 0 
0.0636465 0.272658 0.0565163 0.682292 -0.723554 0.104628 0 
0.0635247 0.273015 0.0560084 0.732462 -0.666285 0.139875 0 
0.0633217 0.272108 0.0554201 0.557665 -0.821128 0.121486 0 
0.0633951 0.272341 0.0554089 0.569754 -0.820165 0.0520516 0 
0.0642288 0.273731 0.0585873 0.56555 -0.755678 0.330307 0 
0.0639662 0.273388 0.0586457 0.335625 -0.782054 0.525116 0 
0.0637468 0.273416 0.0586785 -0.25652 -0.816199 0.517703 0 
0.0634542 0.273307 0.0589477 -0.452127 -0.675688 0.58226 0 
0.0639049 0.273031 0.058843 0.221499 -0.910609 0.348898 0 
0.0637523 0.27299 0.0587719 -0.265376 -0.851352 0.452521 0 
0.0636914 0.273169 0.0585181 -0.0881745 -0.880346 0.466065 0 
0.0636545 0.273004 0.0584111 -0.0351414 -0.927993 0.370937 0 
0.0636183 0.27347 0.0580781 -0.512714 -0.785947 -0.34556 0 
0.0636677 0.273608 0.0585963 -0.453787 -0.654727 0.604492 0 
0.0633998 0.273787 0.0587864 -0.506322 -0.576971 0.640892 0 
0.0634177 0.273677 0.0583895 -0.671049 -0.737719 0.0739169 0 
0.0635271 0.273347 0.0584861 -0.543819 -0.804108 0.240148 0 
0.0635086 0.273265 0.0584327 -0.515092 -0.80493 0.294563 0 
0.0632522 0.273128 0.0583585 -0.643128 -0.646451 0.410472 0 
0.0632525 0.273224 0.0585837 -0.618152 -0.654808 0.434873 0 
0.0636726 0.272551 0.0589158 -0.119422 -0.797624 0.591215 0 
0.0637089 0.272523 0.0585724 0.204238 -0.88895 0.409945 0 
0.0634897 0.272647 0.0588304 -0.240827 -0.681557 0.691001 0 
0.0635995 0.272853 0.0584758 -0.0452538 -0.870792 0.489564 0 
0.0632512 0.2724 0.0583594 -0.363515 -0.773883 0.518615 0 
0.0632393 0.27262 0.0583985 -0.256987 -0.811457 0.524877 0 
0.0639284 0.272934 0.0578632 0.388621 -0.864797 0.317963 0 
0.0635621 0.272934 0.0572421 -0.00127513 -0.924466 0.381263 0 
0.0634532 0.273017 0.0582722 -0.364132 -0.818899 0.443636 0 
0.0632338 0.273045 0.058305 -0.642977 -0.592613 0.485171 0 
0.0635017 0.272866 0.0581149 -0.0292187 -0.81395 0.5802 0 
0.0632701 0.273017 0.0579617 -0.611489 -0.700016 0.368861 0 
0.0628924 0.272991 0.0585063 -0.511522 -0.704801 0.491528 0 
0.0630509 0.273142 0.0582196 -0.631693 -0.658221 0.409523 0 
0.0633979 0.27277 0.0581118 -0.17414 -0.798013 0.576932 0 
0.0632516 0.272935 0.0579082 -0.575202 -0.681906 0.451825 0 
0.0633425 0.272523 0.0579513 0.0600466 -0.954358 0.292567 0 
0.0629158 0.272455 0.058203 -0.295041 -0.806235 0.512772 0 
0.0632535 0.273513 0.0592592 -0.488342 -0.711679 0.505009 0 
0.0631982 0.273266 0.0590987 -0.496765 -0.737721 0.457156 0 
0.0631428 0.273019 0.0589383 -0.44505 -0.732927 0.514538 0 
0.0628314 0.272731 0.0589288 -0.272608 -0.78946 0.549943 0 
0.0632758 0.272249 0.0589567 -0.180891 -0.785889 0.591317 0 
0.0635252 0.272769 0.0571351 0.585814 -0.778496 0.225313 0 
0.0634698 0.272521 0.0569747 0.62601 -0.764788 0.152354 0 
0.063391 0.272371 0.057794 0.0108142 -0.967267 0.253532 0 
0.0627992 0.27229 0.0575634 0.634737 -0.748467 0.192112 0 
0.0623904 0.272111 0.0574182 0.475794 -0.799397 0.366858 0 
0.0634755 0.272534 0.0563918 0.478583 -0.853647 0.205535 0 
0.0633661 0.272864 0.0562951 0.642962 -0.694787 0.322291 0 
0.0623663 0.272455 0.0572712 0.480024 -0.77292 0.414936 0 
0.0620979 0.272441 0.057011 0.431046 -0.734925 0.523531 0 
0.0634201 0.272287 0.0562313 0.511834 -0.825389 0.238241 0 
0.0634016 0.272205 0.0561778 0.551293 -0.799764 0.2376 0 
0.0628896 0.272123 0.0564798 0.548882 -0.781163 0.29751 0 
0.0631035 0.272521 0.0563536 0.483424 -0.835566 0.261018 0 
0.0628774 0.272247 0.0562937 0.56143 -0.784743 0.26263 0 
0.0629381 0.271972 0.0563225 0.56143 -0.784743 0.26263 0 
0.063029 0.27156 0.0563657 0.54765 -0.764126 0.340868 0 
0.0630112 0.272109 0.0560861 0.648872 -0.752337 0.113811 0 
0.0623654 0.272165 0.0565958 0.535256 -0.732889 0.41997 0 
0.0620425 0.272194 0.0568506 0.407805 -0.708292 0.57621 0 
0.062371 0.27174 0.0566892 0.457307 -0.803898 0.380287 0 
0.0620725 0.27196 0.0566398 0.395494 -0.824342 0.405024 0 
0.0618718 0.272166 0.0569512 0.440765 -0.690254 0.573826 0 
0.0619627 0.271754 0.0569944 0.437861 -0.779685 0.447627 0 
0.0626319 0.271943 0.0546034 0.56715 -0.818255 -0.0938035 0 
0.0619739 0.271342 0.0565049 0.444246 -0.8067 0.389718 0 
0.0621694 0.271657 0.0563252 0.44746 -0.813708 0.371025 0 
0.0619987 0.27163 0.0564259 0.412461 -0.820144 0.396536 0 
0.0621324 0.271492 0.0562182 0.445098 -0.838658 0.313911 0 
0.0623147 0.271203 0.0558533 0.599006 -0.791279 0.122759 0 
0.0617724 0.271259 0.0561409 0.319791 -0.85741 0.403214 0 
0.0620099 0.271217 0.0559364 0.706855 -0.706855 -0.0267003 0 
0.0626018 0.272177 0.0548142 0.594973 -0.79954 -0.0821149 0 
0.062644 0.271819 0.0547895 0.543982 -0.816731 -0.192439 0 
0.0624973 0.271449 0.0550371 0.508496 -0.857822 -0.0746545 0 
0.0621859 0.271161 0.0550277 0.655001 -0.705999 -0.269331 0 
0.0626071 0.271654 0.0546825 0.543205 -0.832914 -0.105744 0 
0.0616561 0.27119 0.0557265 0.183708 -0.960831 0.207497 0 
0.0615402 0.271217 0.0555373 0.281043 -0.948017 0.149262 0 
0.0616621 0.271299 0.0553688 0.154734 -0.974952 0.159766 0 
0.0614117 0.271272 0.0549369 0.538763 -0.833696 -0.121185 0 
0.0619658 0.271777 0.0530321 0.508754 -0.67666 0.532261 0 
0.0619104 0.27153 0.0528717 0.40177 -0.851628 0.336618 0 
0.061892 0.271447 0.0528182 0.422899 -0.844238 0.329269 0 
0.0619035 0.271131 0.0525539 0.554075 -0.827515 0.0906668 0 
0.0623271 0.271957 0.0546865 0.543205 -0.832914 -0.105744 0 
0.0612285 0.271272 0.0546262 0.472016 -0.881541 0.00930737 0 
0.0619469 0.271159 0.0534299 0.52416 -0.845836 0.0990877 0 
0.0618915 0.270912 0.0532695 0.558805 -0.819875 0.124668 0 
0.0611732 0.271024 0.0544658 0.418544 -0.90433 0.0837089 0 
0.0612098 0.271093 0.0543476 0.184031 -0.964529 0.189251 0 
0.0611544 0.270845 0.0541872 -0.0716091 -0.987267 0.142044 0 
0.0611178 0.270777 0.0543053 -0.0400144 -0.988927 0.142908 0 
0.06116 0.27042 0.0542806 -0.0387383 -0.982544 0.181953 0 
0.061575 0.271146 0.0533917 0.578087 -0.805773 0.128628 0 
0.0608619 0.271175 0.05378 0.575766 -0.808428 0.122221 0 
0.0607766 0.271161 0.0538303 0.575766 -0.808428 0.122221 0 
0.0607212 0.270914 0.0536698 0.53642 -0.833288 0.133738 0 
0.0606119 0.271244 0.0535732 0.575766 -0.808428 0.122221 0 
0.0608246 0.270475 0.0541242 0.524002 -0.842198 0.126986 0 
0.0607568 0.270255 0.0535526 0.522781 -0.848633 0.0807548 0 
0.0617269 0.270994 0.0530124 0.56322 -0.817766 0.118496 0 
0.0616294 0.271104 0.0528766 0.519836 -0.833244 0.188346 0 
0.06169 0.270829 0.0529054 0.616638 -0.774904 0.138856 0 
0.0612821 0.27094 0.0534357 0.578087 -0.805773 0.128628 0 
0.0613365 0.270899 0.0529206 0.68035 -0.729462 0.0707795 0 
0.0613546 0.270885 0.052749 0.558188 -0.825085 0.0875307 0 
0.0614884 0.270747 0.0525413 0.460052 -0.851325 0.252188 0 
0.0607697 0.270763 0.0535125 0.573736 -0.813636 0.0939366 0 
0.0606843 0.270749 0.0535629 0.536335 -0.835753 0.117732 0 
0.0606958 0.270433 0.0532986 0.484062 -0.865532 0.128602 0 
0.060769 0.27057 0.0530622 0.595304 -0.80261 0.0378193 0 
0.06058 0.27046 0.0531094 0.4468 -0.877485 0.174325 0 
0.0605741 0.27079 0.0527908 0.293463 -0.895286 0.335174 0 
0.0617391 0.270368 0.0463081 -0.953437 -0.111782 -0.280113 0 
0.0617207 0.270285 0.0462546 -0.964564 -0.130766 -0.229165 0 
0.0617625 0.269832 0.0460047 -0.995622 0.0693085 -0.0627077 0 
0.0614212 0.270216 0.0455296 -0.975744 0.169096 0.139034 0 
0.061866 0.269831 0.0457827 -0.998159 -0.0496439 -0.0348563 0 
0.0616162 0.269996 0.0458011 -0.888194 -0.453104 -0.0762101 0 
0.0616518 0.269337 0.0456838 0.514619 -0.76787 -0.3815 0 
0.0616832 0.270366 0.0450209 0.231523 -0.892176 -0.387839 0 
0.0613113 0.270353 0.0449826 0.289446 -0.886334 -0.361432 0 
0.0600782 0.269677 0.0522464 0.300684 -0.855794 0.420958 0 
0.0596215 0.269843 0.0527089 0.248065 -0.928471 0.276415 0 
0.0610002 0.270664 0.0520887 0.53829 -0.839391 0.0752754 0 
0.0607738 0.270294 0.0518037 0.677527 -0.734343 -0.0411914 0 
0.0608594 0.270404 0.0519786 0.551599 -0.832311 0.0547388 0 
0.0605177 0.270253 0.0519547 0.328598 -0.937114 0.117646 0 
0.0600911 0.270185 0.0522064 0.38199 -0.917051 0.114459 0 
0.0600545 0.270117 0.0523246 0.300049 -0.920245 0.251237 0 
0.0608041 0.270156 0.0518182 0.676639 -0.735722 -0.0295414 0 
0.0604993 0.27017 0.0519013 0.579506 -0.814628 0.0235122 0 
0.0603531 0.270335 0.0516977 0.322186 -0.946656 0.00621981 0 
0.0596943 0.269884 0.0522473 0.142734 -0.984742 0.0995537 0 
0.0598041 0.270089 0.0518927 0.0656882 -0.997835 -0.00312801 0 
0.0596334 0.270062 0.0519933 0.0462931 -0.998902 -0.00720115 0 
0.0594506 0.270158 0.0519079 -0.0505045 -0.993255 -0.104376 0 
0.0598746 0.269797 0.0489534 -0.806229 0.527571 -0.267699 0 
0.060222 0.26996 0.0483943 -0.820252 0.548329 -0.162855 0 
0.0601241 0.269974 0.0480333 -0.966216 -0.222577 -0.129944 0 
0.0601306 0.269837 0.0488024 -0.80499 0.566363 -0.176705 0 
0.0609474 0.270685 0.0468393 0.534504 -0.778481 0.329049 0 
0.0608226 0.268516 0.0472357 -0.720129 -0.490619 -0.490619 0 
0.061512 0.269365 0.0462492 -0.749938 -0.178702 -0.636913 0 
0.0614567 0.269118 0.0460888 0.672175 -0.632538 -0.384808 0 
0.0615542 0.269008 0.0462245 0.931229 -0.359583 0.059272 0 
0.060878 0.268763 0.0473961 -0.740329 -0.453431 -0.4963 0 
0.0607195 0.269051 0.0470065 -0.743183 -0.408505 -0.529908 0 
0.0610602 0.268474 0.0470312 -0.789251 -0.340995 -0.510692 0 
0.0601785 0.269493 0.0481947 -0.231108 0.966566 -0.111085 0 
0.0606296 0.269753 0.0476388 -0.909643 -0.251789 -0.330382 0 
0.0602882 0.269699 0.0478401 -0.949528 -0.132213 -0.284458 0 
0.0600688 0.269727 0.0478729 -0.931403 0.0841871 -0.35412 0 
0.0605864 0.269382 0.0476644 -0.911545 -0.272734 -0.307737 0 
0.0604401 0.269547 0.0474608 -0.902281 -0.250878 -0.350642 0 
0.0602328 0.269451 0.0476796 -0.861339 -0.346693 -0.371347 0 
0.0599281 0.269466 0.0477628 -0.854634 -0.0659569 -0.515025 0 
0.0598305 0.269575 0.0476271 -0.814841 0.0581017 -0.576766 0 
0.0605306 0.2686 0.0479552 -0.866407 -0.31436 -0.387966 0 
0.060859 0.268146 0.0477939 -0.792567 -0.177305 -0.583439 0 
0.0607797 0.268242 0.0474864 -0.858731 -0.283182 -0.42707 0 
0.0597928 0.26834 0.0484226 -0.31356 0.787878 -0.530027 0 
0.0602133 0.268202 0.0483035 -0.67639 0.0353022 -0.735697 0 
0.06155 0.270258 0.0463552 -0.953437 -0.111782 -0.280113 0 
0.0612271 0.270286 0.04661 -0.75274 0.12968 -0.645419 0 
0.0616653 0.270038 0.0460941 -0.99904 -0.0437908 0.00101839 0 
0.0614578 0.269846 0.0460878 0.645484 -0.678167 -0.35134 0 
0.0606601 0.270493 0.0463004 0.246158 -0.962722 -0.112124 0 
0.0614027 0.269695 0.0461526 -0.561269 -0.534301 -0.63206 0 
0.061238 0.269777 0.0458954 0.0395603 -0.945619 -0.322863 0 
0.0609516 0.269874 0.0460321 0.0341593 -0.950134 -0.309964 0 
0.061091 0.269311 0.0459179 0.158578 -0.837351 -0.523159 0 
0.0606158 0.269394 0.0463269 -0.692772 -0.337421 -0.63735 0 
0.0609636 0.270093 0.0453166 -0.514483 -0.811601 -0.276789 0 
0.0610548 0.269777 0.0455849 -0.919632 -0.390347 0.043666 0 
0.0602924 0.269668 0.0454549 -0.100886 -0.934881 -0.340323 0 
0.0601292 0.269794 0.0470001 0.229557 -0.96966 -0.0840455 0 
0.0598178 0.269506 0.0469907 -0.886805 -0.39364 -0.242126 0 
0.0598057 0.269629 0.0468046 -0.962182 -0.0158534 -0.271947 0 
0.0600554 0.269464 0.0467862 -0.418929 -0.829954 -0.368341 0 
0.0606759 0.268146 0.0474833 -0.745524 -0.253762 -0.616279 0 
0.0594468 0.269001 0.049206 -0.162774 0.927948 -0.335286 0 
0.0593981 0.269056 0.049138 -0.00622946 0.945632 -0.325178 0 
0.05913 0.269139 0.049103 -0.0572334 0.922389 -0.381999 0 
0.0591781 0.268891 0.0487205 -0.72612 0.686332 0.0412084 0 
0.0586413 0.26896 0.0484252 -0.630724 0.770562 -0.0917682 0 
0.0595434 0.268602 0.0486662 -0.689995 0.723585 0.0181946 0 
0.0589949 0.268891 0.04841 -0.579888 0.805971 -0.118914 0 
0.0586898 0.268809 0.048268 -0.467753 0.830691 -0.301927 0 
0.058616 0.268479 0.048054 0.311419 0.701902 -0.640587 0 
0.0585976 0.268396 0.0480005 0.297647 0.709525 -0.638734 0 
0.0584034 0.268905 0.0484046 0.326325 0.628297 -0.706226 0 
0.0583481 0.268658 0.0482441 0.333364 0.619569 -0.710635 0 
0.05864 0.268136 0.048201 0.149061 0.766383 -0.624851 0 
0.0585237 0.268067 0.0477866 0.33456 0.745082 -0.576994 0 
0.0583343 0.267861 0.0476086 0.890628 0.203949 -0.406432 0 
0.0582605 0.267531 0.0473947 0.883632 0.284509 -0.371818 0 
0.0585288 0.267887 0.0467533 0.902119 0.214235 -0.374547 0 
0.0582181 0.267792 0.0471942 0.902869 0.204341 -0.378249 0 
0.0581262 0.267914 0.0464755 0.852148 0.13547 -0.505462 0 
0.0579071 0.268039 0.0467335 0.894982 0.227787 -0.383564 0 
0.0580774 0.267531 0.0470841 0.902119 0.214235 -0.374547 0 
0.0583694 0.267447 0.0463645 0.852148 0.13547 -0.505462 0 
0.0576874 0.26797 0.0465411 0.852148 0.13547 -0.505462 0 
0.0624841 0.273562 0.0418748 -0.515989 -0.0204217 -0.856352 0 
0.062112 0.27311 0.042513 -0.528261 -0.478268 -0.70157 0 
0.062289 0.273343 0.0422797 -0.598161 -0.161217 -0.784992 0 
0.0634898 0.273642 0.0412173 -0.0953802 -0.34525 -0.933652 0 
0.0626852 0.27389 0.0411121 -0.278736 0.0809235 -0.956952 0 
0.0630313 0.272448 0.0419067 -0.208939 -0.626816 -0.750631 0 
0.0633246 0.273189 0.0414115 -0.11699 -0.232694 -0.965488 0 
0.0630746 0.273258 0.0412047 -0.135932 -0.226553 -0.964467 0 
0.0633302 0.272763 0.041505 -0.184225 -0.455404 -0.871016 0 
0.0631595 0.272736 0.0416056 -0.24553 -0.570818 -0.783506 0 
0.062885 0.272613 0.0417031 -0.137992 -0.58016 -0.802728 0 
0.0625802 0.272627 0.0417863 -0.249545 -0.582273 -0.773748 0 
0.0625926 0.272943 0.0412959 -0.249235 -0.336686 -0.908033 0 
0.0626527 0.272133 0.0417759 -0.205966 -0.648869 -0.732494 0 
0.0623787 0.272545 0.0414222 -0.293447 -0.500586 -0.814434 0 
0.0623417 0.27238 0.0413153 -0.173776 -0.566662 -0.805416 0 
0.0617629 0.271587 0.043299 -0.00692256 -0.743483 -0.668719 0 
0.0617747 0.271367 0.04326 -0.00415271 -0.746103 -0.665817 0 
0.061701 0.271037 0.043046 0.0350388 -0.791877 -0.609675 0 
0.0617745 0.270489 0.0446128 0.102941 -0.881346 -0.46112 0 
0.0616401 0.270434 0.0443701 0.112013 -0.883345 -0.455142 0 
0.0615 0.270366 0.0447103 0.313897 -0.868192 -0.384332 0 
0.0613472 0.270229 0.0444141 0.281097 -0.855581 -0.434702 0 
0.0609574 0.270326 0.0447727 0.284358 -0.871321 -0.399926 0 
0.061201 0.270393 0.0442105 0.346338 -0.874237 -0.340235 0 
0.0606889 0.270312 0.0445125 0.404719 -0.83621 -0.370074 0 
0.0616765 0.270845 0.0433502 0.0608417 -0.81924 -0.570214 0 
0.0612989 0.270819 0.043895 0.253919 -0.875945 -0.410177 0 
0.0611645 0.270764 0.0436523 0.293416 -0.871128 -0.393756 0 
0.0613718 0.270859 0.0434335 0.200992 -0.867987 -0.454093 0 
0.0610364 0.270914 0.043277 0.327712 -0.835745 -0.440608 0 
0.0611282 0.270792 0.0439956 0.319178 -0.872014 -0.371102 0 
0.0609938 0.270737 0.0437529 0.365621 -0.862372 -0.350194 0 
0.0617143 0.27208 0.0425548 -0.182585 -0.679708 -0.710394 0 
0.0616843 0.272314 0.0427656 -0.901197 0.278766 0.331865 0 
0.0620567 0.272862 0.0423525 -0.439092 -0.531881 -0.724087 0 
0.062148 0.272985 0.0419445 -0.436898 -0.440147 -0.784468 0 
0.0620013 0.272615 0.0421921 -0.473517 -0.503423 -0.722736 0 
0.0620926 0.272738 0.041784 -0.436898 -0.440147 -0.784468 0 
0.0613739 0.272754 0.0427552 -0.987433 -0.00112081 -0.158034 0 
0.0615694 0.273069 0.0425755 -0.908688 0.341667 -0.239894 0 
0.0618794 0.272533 0.0423606 -0.615627 -0.442117 -0.652331 0 
0.0617024 0.2723 0.0425939 -0.406811 -0.652558 -0.639275 0 
0.0617756 0.272437 0.0423575 0.286373 -0.708733 -0.644739 0 
0.0619334 0.271956 0.0422968 -0.248345 -0.691252 -0.678598 0 
0.0617139 0.271545 0.043006 -0.0267445 -0.724916 -0.688318 0 
0.0618665 0.272025 0.0424007 -0.248345 -0.691252 -0.678598 0 
0.0617198 0.271654 0.0426482 -0.092217 -0.709924 -0.698214 0 
0.0616401 0.271215 0.0427921 -0.0125224 -0.724908 -0.688732 0 
0.0622873 0.272422 0.0418303 -0.309484 -0.569259 -0.761685 0 
0.0624883 0.272312 0.0417441 -0.254552 -0.624523 -0.73836 0 
0.061946 0.272368 0.0420316 -0.532073 -0.449196 -0.717719 0 
0.0620067 0.272532 0.041384 -0.436898 -0.440147 -0.784468 0 
0.060908 0.270188 0.0442546 0.376603 -0.865418 -0.330488 0 
0.0606032 0.270202 0.0443377 0.410913 -0.835995 -0.363681 0 
0.0614446 0.2709 0.0429718 0.141189 -0.809977 -0.569213 0 
0.0609569 0.270572 0.043646 0.374992 -0.859548 -0.347214 0 
0.0626908 0.273464 0.0412056 -0.369613 -0.178385 -0.911902 0 
0.0628736 0.273368 0.041291 -0.444383 -0.142375 -0.884451 0 
0.0623984 0.273452 0.0417 -0.513935 0.101642 -0.851786 0 
0.0624769 0.273067 0.0413318 -0.477607 -0.0564319 -0.876759 0 
0.0622087 0.273149 0.0412968 -0.477607 -0.0564319 -0.876759 0 
0.0622508 0.272792 0.0412721 -0.456319 -0.241046 -0.856545 0 
0.0621543 0.273191 0.0418118 -0.598202 -0.0821627 -0.797122 0 
0.0620989 0.272944 0.0416514 -0.449309 -0.423356 -0.786696 0 
0.062068 0.272888 0.0411867 -0.484294 -0.20971 -0.8494 0 
0.0616904 0.272862 0.0417314 -0.749918 0.00138106 -0.66153 0 
0.0619764 0.272669 0.0413696 -0.598161 -0.161217 -0.784992 0 
0.0614828 0.27267 0.0417251 -0.839282 0.0961229 -0.535132 0 
0.061409 0.27234 0.0415112 -0.876755 0.088377 -0.472747 0 
0.0614762 0.272368 0.0416325 -0.722984 -0.318631 -0.613 0 
0.0608418 0.27045 0.0448087 0.295089 -0.888263 -0.35201 0 
0.0607865 0.270202 0.0446482 0.399149 -0.83143 -0.386528 0 
0.0605607 0.270024 0.0448136 0.179744 -0.904472 -0.386809 0 
0.0585146 0.267774 0.0443146 -0.818047 0.563413 0.115609 0 
0.0584592 0.267526 0.0441542 -0.944172 0.235698 0.230185 0 
0.0583129 0.267691 0.0439506 -0.940101 0.326702 0.0973438 0 
0.0583432 0.267554 0.043965 -0.940101 0.326702 0.0973438 0 
0.0582576 0.267444 0.0437902 -0.900868 0.434043 0.00655654 0 
0.0581114 0.267609 0.0435865 -0.900868 0.434043 0.00655654 0 
0.0582926 0.26703 0.0425461 -0.861463 0.492058 0.12554 0 
0.0579156 0.267197 0.0435412 -0.900868 0.434043 0.00655654 0 
0.0579765 0.267018 0.0437951 -0.940101 0.326702 0.0973438 0 
0.0577934 0.267018 0.0434845 -0.900868 0.434043 0.00655654 0 
0.058025 0.266867 0.0436378 -0.940101 0.326702 0.0973438 0 
0.0580731 0.266619 0.0432554 -0.916712 0.399192 -0.0169039 0 
0.0576648 0.266634 0.0435604 -0.95532 0.28492 0.0786431 0 
0.0581591 0.267264 0.0429789 -0.900868 0.434043 0.00655654 0 
0.0580254 0.267402 0.0431865 -0.900868 0.434043 0.00655654 0 
0.0579401 0.267389 0.0432369 -0.900868 0.434043 0.00655654 0 
0.0581407 0.267182 0.0429254 -0.891952 0.446663 0.0700918 0 
0.0582013 0.266907 0.0429542 -0.916712 0.399192 -0.0169039 0 
0.0578544 0.267279 0.0430621 -0.900868 0.434043 0.00655654 0 
0.0577384 0.267306 0.0428728 -0.889982 0.445689 0.096403 0 
0.057799 0.267031 0.0429016 -0.889982 0.445689 0.096403 0 
0.0581215 0.266468 0.043098 -0.916712 0.399192 -0.0169039 0 
0.0583787 0.267675 0.0422697 -0.945322 0.3107 0.0991596 0 
0.0583787 0.267675 0.0422697 -0.945322 0.3107 0.0991596 0 
0.0576457 0.26714 0.0414787 -0.924519 0.187727 0.331698 0 
0.0576087 0.266975 0.0413717 -0.92201 0.175956 0.344874 0 
0.057535 0.266645 0.0411578 -0.852148 -0.13547 0.505462 0 
0.0573832 0.267235 0.0408606 -0.897943 -0.140882 0.416953 0 
0.0577224 0.265834 0.0406611 -0.897943 -0.140882 0.416953 0 
0.0573883 0.266275 0.0414054 -0.852148 -0.13547 0.505462 0 
0.0572855 0.266907 0.0414014 -0.852148 -0.13547 0.505462 0 
0.0571511 0.266851 0.0411587 -0.897943 -0.140882 0.416953 0 
0.0570349 0.266783 0.0407442 -0.818899 -0.364132 0.443636 0 
0.0571314 0.265945 0.0408809 -0.867274 -0.153048 0.473721 0 
0.0568749 0.266589 0.0392287 0.294833 -0.952039 -0.081826 0 
0.0569912 0.266658 0.0396431 0.0651844 -0.995443 -0.0696037 0 
0.0568567 0.266603 0.0394004 0.313529 -0.948266 -0.0499087 0 
0.0566677 0.266493 0.0394476 0.302484 -0.952638 -0.0313781 0 
0.0566133 0.266535 0.0399627 -0.123215 -0.982062 0.142734 0 
0.0564182 0.266755 0.0396912 0.358444 -0.93299 -0.0323506 0 
0.0561622 0.266714 0.0398422 0.446919 -0.855705 -0.26083 0 
0.0557046 0.266591 0.0396292 0.445421 -0.799185 -0.403613 0 
0.0568749 0.266589 0.0392287 0.294833 -0.952039 -0.081826 0 
0.0566552 0.26652 0.0390363 0.309691 -0.945022 -0.105002 0 
0.0566552 0.26652 0.0390363 0.309691 -0.945022 -0.105002 0 
0.0563504 0.266534 0.0391195 0.322473 -0.940658 -0.105707 0 
0.0563438 0.266232 0.0390269 0.327347 -0.939287 -0.102881 0 
0.0564536 0.266437 0.0386723 0.331297 -0.937558 -0.105961 0 
0.0560328 0.266479 0.0385662 0.352494 -0.931496 -0.0897989 0 
0.0564116 0.266452 0.0395986 0.144808 -0.984933 -0.0945439 0 
0.0561069 0.266467 0.0396817 0.446919 -0.855705 -0.26083 0 
0.0563075 0.26626 0.0393702 0.268442 -0.963234 -0.010932 0 
0.0559237 0.266466 0.0393711 0.268442 -0.963234 -0.010932 0 
0.0559415 0.266356 0.0389743 0.409462 -0.906368 -0.104101 0 
0.0556855 0.266315 0.0391253 0.15746 -0.978235 0.135143 0 
0.0555574 0.266466 0.03875 0.382109 -0.917337 -0.111736 0 
0.0555199 0.266108 0.0381927 0.324061 -0.933571 -0.153067 0 
0.0551939 0.264391 0.0377738 -0.852148 -0.13547 0.505462 0 
0.0554438 0.264665 0.037079 -0.45051 -0.850279 -0.272151 0 
0.0545423 0.265216 0.0372884 -0.917159 0.0275541 0.397567 0 
0.0551575 0.264762 0.0372156 -0.917159 0.0275541 0.397567 0 
