0.0588757 0.26305 0.0574076 -0.595612 0.317982 0.737654 1 
0.0585161 0.263061 0.0573834 -0.556889 0.301582 0.773901 1 
0.0583024 0.263092 0.0572678 -0.479809 0.260732 0.837737 1 
0.0586214 0.262244 0.0579237 -0.596504 0.427024 0.679583 1 
0.0585447 0.262058 0.0573242 -0.517988 0.524693 0.675563 1 
0.0585601 0.262291 0.057617 -0.60048 0.482739 0.637485 1 
0.0579801 0.262336 0.0575769 -0.568891 0.525 0.633039 1 
0.0578837 0.262162 0.0572764 -0.56346 0.433814 0.703078 1 
0.0580175 0.26157 0.0579102 -0.524749 0.639485 0.56187 1 
0.0576832 0.261933 0.0576733 -0.624429 0.421281 0.657732 1 
0.0575154 0.261685 0.0575716 -0.58632 0.576182 0.569423 1 
0.0574573 0.261604 0.0575709 -0.58632 0.576182 0.569423 1 
0.0577029 0.261922 0.0573742 -0.60429 0.386943 0.696498 1 
0.0575286 0.261677 0.0573722 -0.58632 0.576182 0.569423 1 
0.0577095 0.261918 0.0572745 -0.60429 0.386943 0.696498 1 
0.0575484 0.261666 0.0570731 -0.590266 0.539527 0.600414 1 
0.0580853 0.262999 0.057558 -0.558538 0.366388 0.744174 1 
0.0582212 0.26315 0.0572602 -0.470248 0.269814 0.840278 1 
0.0571307 0.261595 0.0570482 -0.520382 0.811045 0.267223 1 
0.0573116 0.261836 0.0569505 -0.634049 0.499503 0.590321 1 
0.0570594 0.261522 0.057247 -0.520382 0.811045 0.267223 1 
0.0570792 0.26151 0.0569479 -0.656013 0.656013 0.373221 1 
0.0616277 0.277264 0.0470045 -0.100763 0.0961301 -0.990255 1 
0.0615247 0.277094 0.0468038 0.00308533 0.0524506 -0.998619 1 
0.0620849 0.277311 0.0464311 -0.353197 0.113187 -0.928677 1 
0.0621243 0.277037 0.0465448 -0.428796 0.135334 -0.893207 1 
0.0620092 0.277733 0.0465099 -0.301971 -0.0186402 -0.953135 1 
0.0617626 0.276556 0.0467402 -0.160756 0.163287 -0.973394 1 
0.0629626 0.279756 0.0464939 -0.163387 -0.26871 -0.949263 1 
0.0627884 0.279512 0.0464919 -0.206028 -0.241504 -0.948277 1 
0.0626261 0.279628 0.0464767 -0.206028 -0.241504 -0.948277 1 
0.0622458 0.278791 0.0467851 -0.300763 -0.109971 -0.947337 1 
0.062112 0.279131 0.0468633 -0.280054 -0.083887 -0.956312 1 
0.0619563 0.279243 0.0467483 -0.264584 -0.110787 -0.957978 1 
0.0619377 0.278887 0.0468613 -0.23811 -0.168939 -0.956433 1 
0.0625209 0.278965 0.0464956 -0.273796 -0.113973 -0.955011 1 
0.0626141 0.279268 0.04649 -0.236891 -0.220459 -0.946193 1 
0.0624377 0.278532 0.0467076 -0.334225 -0.0779418 -0.939265 1 
0.0622644 0.279147 0.0466721 -0.275089 -0.117143 -0.954256 1 
0.0622776 0.279139 0.0464727 -0.273796 -0.113973 -0.955011 1 
0.0621832 0.279205 0.0466645 -0.271969 -0.116933 -0.955175 1 
0.0620342 0.279313 0.0464499 -0.273796 -0.113973 -0.955011 1 
0.0624584 0.27938 0.046375 -0.236891 -0.220459 -0.946193 1 
0.0621964 0.279197 0.0464651 -0.273796 -0.113973 -0.955011 1 
0.0618972 0.278302 0.0467812 -0.219719 -0.0650564 -0.973392 1 
0.0618325 0.278225 0.0468803 -0.21449 -0.0674111 -0.974397 1 
0.0618961 0.27867 0.0469673 -0.296167 -0.087415 -0.951128 1 
0.0616592 0.27884 0.0468447 -0.121708 -0.15859 -0.979814 1 
0.0616473 0.27848 0.046858 -0.140292 -0.081346 -0.986763 1 
0.061759 0.279139 0.0467394 -0.273314 -0.0808392 -0.958522 1 
0.0615901 0.279258 0.0468238 -0.192736 -0.184869 -0.963679 1 
0.0614444 0.279239 0.0469152 -0.181659 -0.0534291 -0.981909 1 
0.0613533 0.279428 0.0467012 -0.163028 -0.0702093 -0.98412 1 
0.0618949 0.27929 0.0464415 -0.271969 -0.116933 -0.955175 1 
0.0616033 0.279251 0.0466244 -0.220303 -0.0809022 -0.972071 1 
0.0615342 0.279669 0.0466035 -0.239108 -0.174989 -0.955095 1 
0.0615715 0.278902 0.0469368 -0.117235 -0.169066 -0.978607 1 
0.061235 0.278774 0.0469196 -0.119167 -0.102649 -0.987554 1 
0.0613907 0.278662 0.0470346 -0.0862846 -0.135928 -0.986954 1 
0.0611703 0.278697 0.0470186 -0.0997411 -0.0813979 -0.991678 1 
0.0611593 0.279196 0.0469984 -0.146442 -0.0449704 -0.988197 1 
0.0610847 0.27925 0.046891 -0.145172 -0.0354357 -0.988772 1 
0.0617328 0.277675 0.0476975 -0.241252 0.0581479 -0.968719 1 
0.0613415 0.277589 0.0472738 -0.0296056 0.0153132 -0.999444 1 
0.0610652 0.278034 0.0470376 0.0652098 -0.0310014 -0.99739 1 
0.0608909 0.27779 0.0470356 0.0952326 0.0295549 -0.995016 1 
0.060948 0.277012 0.0470698 0.132728 0.039705 -0.990357 1 
0.0602069 0.278033 0.0469809 0.019065 0.137941 -0.990257 1 
0.0605193 0.277441 0.0470247 0.167344 0.0629025 -0.98389 1 
0.0602869 0.277115 0.047022 0.19512 0.100667 -0.975599 1 
0.0615717 0.277675 0.0467842 -0.0293681 0.00911423 -0.999527 1 
0.061484 0.277737 0.0468763 -0.0333485 -0.00101056 -0.999443 1 
0.0615531 0.277319 0.0468972 -0.0526102 0.0483155 -0.997446 1 
0.0613667 0.277942 0.0470611 -0.0473399 -0.0326119 -0.998346 1 
0.0611289 0.277252 0.0469721 0.0852568 0.0226632 -0.996101 1 
0.0612746 0.277272 0.0468806 0.0384601 0.0259865 -0.998922 1 
0.0608438 0.277209 0.0470552 0.122787 0.0188053 -0.992255 1 
0.0611583 0.278336 0.0470319 -0.0558753 -0.0712136 -0.995895 1 
0.0610421 0.278174 0.0470306 0.0457948 -0.0457948 -0.997901 1 
0.0608218 0.278208 0.0470147 0.0576075 -0.0178059 -0.998181 1 
0.0606936 0.277685 0.0470266 0.0751285 0.0424639 -0.996269 1 
0.0605511 0.277789 0.0467123 0.131629 0.0492177 -0.990076 1 
0.0605083 0.278192 0.0462926 0.0623334 0.0601463 -0.996241 1 
0.0603703 0.277549 0.04681 0.147497 0.0947341 -0.984515 1 
0.0603516 0.277193 0.046923 0.181653 0.107509 -0.977468 1 
0.0603001 0.277108 0.0468226 0.200867 0.101057 -0.974392 1 
0.0603187 0.277464 0.0467096 0.188589 0.0949109 -0.977459 1 
0.0603134 0.2771 0.0466232 0.227986 0.0784868 -0.970496 1 
0.0606575 0.276605 0.0470665 0.266793 0.0158371 -0.963624 1 
0.0601468 0.276232 0.0470473 0.483602 0.00399671 -0.875279 1 
0.0600777 0.276651 0.0470264 0.397537 0.0301761 -0.91709 1 
0.0601599 0.276225 0.0468479 0.488806 0.0013319 -0.872392 1 
0.0600908 0.276643 0.0468269 0.397537 0.0301761 -0.91709 1 
0.0600612 0.276786 0.0469197 0.397537 0.0301761 -0.91709 1 
0.0601839 0.276945 0.0468213 0.243065 0.0530548 -0.968558 1 
0.0600097 0.276701 0.0468194 0.397537 0.0301761 -0.91709 1 
0.060081 0.276774 0.0466206 0.40386 0.00387086 -0.914813 1 
0.0602254 0.278389 0.0468679 -0.00319474 0.0926474 -0.995694 1 
0.0602386 0.278381 0.0466685 0.0206631 0.0967902 -0.99509 1 
0.0598331 0.27938 0.0349685 -0.299079 0.860426 0.412575 1 
0.0580463 0.278936 0.0348678 -0.276152 0.497697 0.822215 1 
0.0579071 0.278912 0.0348595 -0.355737 0.473784 0.805593 1 
0.0575398 0.279295 0.0351211 -0.0737436 0.741773 0.666584 1 
0.0574927 0.278714 0.0351408 -0.353034 -0.0349155 0.934959 1 
0.0574544 0.278621 0.034841 -0.685789 0.358443 0.633413 1 
0.0606883 0.279509 0.0347191 -0.324327 0.862311 0.388885 1 
0.0603286 0.27952 0.0346949 -0.317196 0.87874 0.356656 1 
0.060708 0.279497 0.03442 -0.324327 0.862311 0.388885 1 
0.0598978 0.279457 0.0348695 -0.302665 0.858831 0.413284 1 
0.059911 0.279449 0.0346701 -0.301404 0.864433 0.402382 1 
0.0601544 0.279276 0.034693 -0.320271 0.852509 0.413103 1 
0.0600918 0.27969 0.0345723 -0.297877 0.878511 0.373481 1 
0.059946 0.27967 0.0346638 -0.310679 0.854753 0.415784 1 
0.0601741 0.279264 0.0343938 -0.309436 0.857493 0.411042 1 
0.0601116 0.279678 0.0342733 -0.294334 0.879983 0.372823 1 
0.0599657 0.279658 0.0343647 -0.310679 0.854753 0.415784 1 
0.0597071 0.2796 0.0340489 -0.274312 0.853585 0.442883 1 
0.0597137 0.279596 0.0339493 -0.281097 0.855581 0.434702 1 
0.0600963 0.279194 0.0346923 -0.310679 0.854753 0.415784 1 
0.0599801 0.279031 0.034691 -0.301404 0.864433 0.402382 1 
0.0595044 0.27888 0.0346654 -0.285206 0.864769 0.41332 1 
0.0594934 0.279379 0.0346452 -0.235829 0.850504 0.470136 1 
0.0593059 0.279143 0.0348427 -0.226629 0.865993 0.445754 1 
0.0591448 0.278891 0.0346413 -0.236241 0.81063 0.535788 1 
0.059319 0.279135 0.0346433 -0.226629 0.865993 0.445754 1 
0.059319 0.279135 0.0346433 -0.226629 0.865993 0.445754 1 
0.0596358 0.279526 0.0342477 -0.249009 0.867758 0.430106 1 
0.0596753 0.279252 0.0343613 -0.284738 0.829318 0.480787 1 
0.059455 0.279286 0.0343454 -0.248555 0.822857 0.511005 1 
0.0595197 0.279364 0.0342464 -0.273574 0.776445 0.567706 1 
0.0593805 0.27934 0.0342381 -0.240527 0.79917 0.550884 1 
0.0593388 0.279123 0.0343441 -0.234034 0.795095 0.559511 1 
0.0590241 0.279224 0.03452 -0.187827 0.910461 0.368486 1 
0.0590954 0.279297 0.0343213 -0.203246 0.495318 0.844601 1 
0.0588466 0.279107 0.0342119 -0.246884 0.621141 0.743796 1 
0.059102 0.279293 0.0342215 -0.19625 0.489875 0.849417 1 
0.0588718 0.279459 0.0339992 -0.0643176 -0.601726 0.796108 1 
0.0586844 0.279223 0.0341967 -0.261452 0.720974 0.641746 1 
0.0589014 0.279065 0.0346184 -0.192658 0.713607 0.673534 1 
0.058714 0.278828 0.0348158 -0.182491 0.746831 0.639484 1 
0.058646 0.278878 0.0346088 -0.235402 0.771681 0.590842 1 
0.0587271 0.27882 0.0346164 -0.210012 0.720263 0.661148 1 
0.0586526 0.278875 0.034509 -0.246465 0.755093 0.607528 1 
0.0584904 0.27899 0.0344938 -0.258284 0.796766 0.546309 1 
0.0584257 0.278913 0.0345928 -0.279527 0.688436 0.669268 1 
0.0580528 0.278932 0.0347681 -0.336321 0.599529 0.726259 1 
0.058066 0.278924 0.0345687 -0.325581 0.604187 0.727293 1 
0.0581822 0.279087 0.03457 -0.29085 0.67008 0.682935 1 
0.0581889 0.279083 0.0344703 -0.303959 0.628826 0.715672 1 
0.0589212 0.279053 0.0343192 -0.218204 0.580329 0.784605 1 
0.0586263 0.279142 0.034196 -0.264974 0.791786 0.55033 1 
0.0585101 0.278979 0.0341947 -0.279322 0.707084 0.649624 1 
0.0582601 0.279157 0.0342715 -0.293773 0.666205 0.685469 1 
0.0585232 0.278971 0.0339953 -0.279322 0.707084 0.649624 1 
0.0582086 0.279071 0.0341711 -0.333364 0.619569 0.710635 1 
0.0595328 0.279356 0.0340469 -0.283881 0.769176 0.572521 1 
0.0593937 0.279332 0.0340386 -0.101928 -0.434241 0.895011 1 
0.0591152 0.279285 0.0340221 -0.19948 0.360212 0.911293 1 
0.059135 0.279274 0.033723 -0.217998 0.0250161 0.975629 1 
0.0582798 0.279145 0.0339724 -0.318904 0.671803 0.668566 1 
0.0586483 0.278143 0.0342365 -0.360467 0.930877 0.0594177 1 
0.0584181 0.278309 0.0340142 -0.379744 0.715102 0.586877 1 
0.057813 0.278002 0.0341868 -0.611999 0.691179 0.384355 1 
0.0574085 0.277924 0.0339625 -0.750308 0.660551 -0.0266464 1 
0.0582438 0.278065 0.0340122 -0.453063 0.872183 0.184472 1 
0.0577571 0.278412 0.0339665 -0.591349 0.431435 0.681301 1 
0.0579137 0.278908 0.0347598 -0.393022 0.510439 0.764843 1 
0.0579454 0.279257 0.0344474 -0.340377 0.610724 0.714954 1 
0.0578227 0.279098 0.0345458 -0.406839 0.545197 0.732969 1 
0.0580233 0.279327 0.0341489 -0.326542 0.638463 0.696948 1 
0.0581856 0.279211 0.0341642 -0.297096 0.643977 0.705002 1 
0.0580365 0.279319 0.0339495 -0.351403 0.612913 0.70771 1 
0.0581274 0.279129 0.0341635 -0.333364 0.619569 0.710635 1 
0.0577679 0.27914 0.0341393 -0.445754 0.535236 0.717514 1 
0.0579092 0.279655 0.033928 -0.275879 0.890269 0.362371 1 
0.0577799 0.2795 0.0341261 -0.399143 0.730941 0.553544 1 
0.0575366 0.279674 0.0341032 -0.42153 0.847727 0.321981 1 
0.0575245 0.279314 0.0341165 -0.576182 0.569423 0.58632 1 
0.0576188 0.279248 0.0339247 -0.462168 0.562277 0.685744 1 
0.0575475 0.279175 0.0341234 -0.486916 0.49024 0.722896 1 
0.0578863 0.279795 0.033921 -0.251283 0.900798 0.354147 1 
0.0577305 0.279907 0.033806 -0.248979 0.926202 0.283125 1 
0.058156 0.279605 0.033545 -0.276411 0.785007 0.554401 1 
0.0582054 0.279199 0.0338651 -0.318904 0.671803 0.668566 1 
0.0581527 0.279482 0.0339508 -0.26583 0.788052 0.555255 1 
0.0580562 0.279307 0.0336504 -0.289705 0.313234 0.904409 1 
0.0577119 0.279551 0.033919 -0.420499 0.764098 0.489219 1 
0.0576484 0.278854 0.0345438 -0.486938 0.437753 0.75582 1 
0.0574511 0.278749 0.0345349 -0.616874 0.379994 0.689254 1 
0.0574741 0.27861 0.0345418 -0.616874 0.379994 0.689254 1 
0.0576682 0.278842 0.0342447 -0.462129 0.465418 0.754866 1 
0.057587 0.2789 0.034237 -0.509507 0.463037 0.725259 1 
0.0571256 0.278121 0.0345379 -0.88118 0.470054 0.0507055 1 
0.0575717 0.278668 0.0339442 -0.591349 0.431435 0.681301 1 
0.0575915 0.278656 0.0336452 -0.575802 0.397617 0.71439 1 
0.0575082 0.278222 0.0338572 -0.7125 0.460052 0.529808 1 
0.0574172 0.278412 0.0336432 -0.78908 0.361595 0.49659 1 
0.0572781 0.278388 0.0336349 -0.893929 0.399415 0.203365 1 
0.0577735 0.278528 0.0333613 -0.546374 0.2724 0.792006 1 
0.0575532 0.278563 0.0333454 -0.620637 0.240399 0.746336 1 
0.0574709 0.278989 0.0335239 -0.680546 0.424301 0.597349 1 
0.0571717 0.278094 0.03384 -0.892599 0.442829 0.0846789 1 
0.0571914 0.278082 0.0335408 -0.859562 0.480822 -0.173096 1 
0.0492357 0.279008 0.0439109 -0.421447 0.0441516 -0.905777 1 
0.0492784 0.280084 0.0437714 -0.331962 0.00626343 -0.943272 1 
0.0488454 0.27953 0.0441656 -0.570011 0.234528 -0.787454 1 
0.0492082 0.279643 0.043784 -0.22791 0.0325585 -0.973138 1 
0.0490887 0.279356 0.0441885 -0.637726 0.0676594 -0.767286 1 
0.0491534 0.279434 0.0440895 -0.570011 0.234528 -0.787454 1 
0.0488914 0.279251 0.0441795 -0.620167 0.135988 -0.772593 1 
0.0492017 0.279647 0.0438837 -0.22791 0.0325585 -0.973138 1 
0.0490723 0.279492 0.0440818 -0.570011 0.234528 -0.787454 1 
0.0490153 0.28027 0.0440476 -0.152126 0.0146491 -0.988253 1 
0.0497041 0.277076 0.0439171 -0.768784 -0.00137528 -0.639507 1 
0.0494487 0.27689 0.0439075 -0.178538 -0.300331 -0.936977 1 
0.0492851 0.278601 0.044231 -0.461946 0.191611 -0.865963 1 
0.049204 0.278659 0.0442233 -0.599149 0.253184 -0.759551 1 
0.049409 0.278392 0.0439464 -0.46971 0.0766589 -0.879486 1 
0.0493267 0.278818 0.044125 -0.421447 0.0441516 -0.905777 1 
0.049421 0.278752 0.0439331 -0.510613 0.158364 -0.845101 1 
0.0492533 0.278504 0.0438315 -0.366165 0.137834 -0.920285 1 
0.0492336 0.278516 0.0441306 -0.388722 0.126787 -0.91259 1 
0.0492481 0.276661 0.0443043 -0.578126 -0.815937 -0.00410019 1 
0.0492864 0.277006 0.0438922 -0.204589 -0.109198 -0.972738 1 
0.0486561 0.276347 0.0442775 -0.578126 -0.815937 -0.00410019 1 
0.04796 0.27623 0.0442361 -0.578126 -0.815937 -0.00410019 1 
0.0483982 0.278124 0.0447928 -0.487636 0.435096 -0.756903 1 
0.0481087 0.278577 0.044756 -0.463374 0.358279 -0.810506 1 
0.048239 0.27934 0.0452362 -0.722374 0.300855 -0.622625 1 
0.048113 0.279308 0.0450285 -0.566643 0.414657 -0.712021 1 
0.0479507 0.279425 0.0450133 -0.540417 0.358655 -0.761128 1 
0.0479573 0.279421 0.0449136 -0.544047 0.358909 -0.758418 1 
0.0489606 0.278833 0.0442005 -0.585341 0.235697 -0.775772 1 
0.0485857 0.278612 0.0438834 -0.581536 0.317348 -0.74907 1 
0.0488597 0.279154 0.04378 -0.544074 0.156514 -0.82431 1 
0.0485231 0.279026 0.0437628 -0.574768 0.273925 -0.771107 1 
0.0484004 0.278867 0.0438612 -0.574768 0.273925 -0.771107 1 
0.0477998 0.278065 0.0441538 -0.45984 0.379728 -0.802717 1 
0.048201 0.278271 0.0440719 -0.511588 0.384909 -0.768194 1 
0.0482898 0.277841 0.0437938 -0.438818 0.199463 -0.876158 1 
0.0483171 0.278433 0.0440733 -0.526749 0.349555 -0.77482 1 
0.0478293 0.27767 0.0447729 -0.497518 0.163871 -0.851834 1 
0.0477196 0.277504 0.0446719 -0.442343 0.0962828 -0.891663 1 
0.0479225 0.277972 0.0447673 -0.456668 0.430666 -0.778448 1 
0.0476308 0.277933 0.0449501 -0.333352 0.459742 -0.823112 1 
0.0472329 0.277851 0.0446261 -0.40405 0.158479 -0.900904 1 
0.0469138 0.278447 0.044682 -0.321766 0.321766 -0.890468 1 
0.0479335 0.277724 0.0440757 -0.400751 0.00128859 -0.916186 1 
0.0480574 0.277515 0.0437911 -0.428883 -0.0470561 -0.902134 1 
0.0471135 0.277816 0.0443187 -0.40405 0.158479 -0.900904 1 
0.047165 0.277901 0.0444191 -0.40405 0.158479 -0.900904 1 
0.0467829 0.281115 0.0453715 0.105188 0.0097597 -0.994404 1 
0.046806 0.280976 0.0453785 0.08147 -0.0336743 -0.996107 1 
0.0468422 0.280577 0.0458979 0.0344148 -0.107685 -0.993589 1 
0.046908 0.280287 0.0456127 -0.278036 0.0284214 -0.96015 1 
0.0466065 0.280379 0.0455892 0.00505337 -0.0293096 -0.999558 1 
0.0464574 0.280487 0.0453745 0.0344148 -0.107685 -0.993589 1 
0.0463829 0.280541 0.0452672 0.0344148 -0.107685 -0.993589 1 
0.0462831 0.280243 0.0453725 0.00505337 -0.0293096 -0.999558 1 
0.0462897 0.280239 0.0452728 -0.349356 0.139466 -0.926553 1 
0.0463095 0.279976 0.0456856 -0.25546 0.159161 -0.953629 1 
0.0463292 0.279964 0.0453865 -0.25546 0.159161 -0.953629 1 
0.0460837 0.279647 0.0455832 -0.252291 0.195014 -0.947797 1 
0.0458962 0.27941 0.0457807 -0.267648 0.234017 -0.934666 1 
0.0460728 0.278919 0.0454104 -0.370471 0.277478 -0.88643 1 
0.0457824 0.278512 0.0454071 -0.372043 0.419538 -0.827993 1 
0.0449491 0.278611 0.0458496 0.578126 0.815937 0.00410019 1 
0.0454644 0.27874 0.0452769 -0.395304 0.430514 -0.811414 1 
0.0451159 0.278251 0.0452729 0.578126 0.815937 0.00410019 1 
0.045128 0.278611 0.0452597 0.578126 0.815937 0.00410019 1 
0.0460024 0.280932 0.0457282 0.0344148 -0.107685 -0.993589 1 
0.0460781 0.28051 0.0456494 0.0344148 -0.107685 -0.993589 1 
0.0460398 0.280417 0.0453496 0.00505337 -0.0293096 -0.999558 1 
0.0461318 0.281087 0.0455301 0.08147 -0.0336743 -0.996107 1 
0.0467735 0.278792 0.0448599 -0.207454 0.311887 -0.927194 1 
0.0452968 0.278492 0.0451752 0.578126 0.815937 0.00410019 1 
0.0496151 0.278985 0.043636 -0.419377 0.107282 -0.901451 1 
0.0493354 0.279306 0.0438056 -0.208833 0.0346066 -0.977339 1 
0.0493841 0.277064 0.0432946 -0.16605 -0.181497 -0.969271 1 
0.0496647 0.277602 0.0430915 -0.273271 0.108524 -0.955796 1 
0.0493937 0.27816 0.0436537 -0.288286 0.120894 -0.949882 1 
0.0493246 0.278578 0.0436328 -0.412304 0.128053 -0.902002 1 
0.0494474 0.278737 0.0435343 -0.294563 0.202425 -0.933947 1 
0.0485694 0.27752 0.0436241 -0.396072 -0.0142846 -0.918108 1 
0.0429678 0.275375 0.0436387 -0.578126 -0.815937 -0.00410019 1 
0.0464891 0.276072 0.0416377 -0.0125197 -0.655197 -0.755354 1 
0.0457392 0.276605 0.0418681 0.10129 -0.632695 -0.767748 1 
0.0465868 0.27613 0.0410401 0.0380421 -0.632626 -0.773523 1 
0.046487 0.275832 0.0411454 0.124668 -0.558805 -0.819875 1 
0.046465 0.276831 0.041105 -0.222219 -0.972052 -0.0757281 1 
0.0462216 0.277005 0.0410821 -0.271133 -0.953594 -0.130937 1 
0.0461054 0.276842 0.0410807 -0.274272 -0.952664 -0.131173 1 
0.0465308 0.27654 0.0408198 -0.222219 -0.972052 -0.0757281 1 
0.0464913 0.276815 0.0407062 -0.222219 -0.972052 -0.0757281 1 
0.0464617 0.276958 0.0407989 -0.270131 -0.961162 -0.056539 1 
0.0458764 0.27664 0.0406723 -0.303096 -0.94865 -0.090535 1 
0.0456572 0.276307 0.0404702 0.193687 -0.502985 -0.842313 1 
0.0453798 0.275389 0.0416913 -0.133738 -0.53642 -0.833288 1 
0.0451858 0.275156 0.0419885 0.0682102 -0.982466 0.173517 1 
0.0450356 0.275632 0.04196 -0.287878 -0.432587 -0.854397 1 
0.0449391 0.275458 0.0416595 -0.31404 -0.490786 -0.812716 1 
0.0452055 0.275145 0.0416894 0.110014 -0.990128 0.0868533 1 
0.0435247 0.27572 0.0429599 -0.325661 -0.913298 -0.244607 1 
0.0439853 0.275639 0.0426926 -0.27042 -0.947148 -0.172579 1 
0.0438888 0.275465 0.0423922 -0.295164 -0.940406 -0.168861 1 
0.044563 0.275353 0.0422405 -0.293917 -0.946171 -0.135551 1 
0.0444819 0.275411 0.0422329 -0.293917 -0.946171 -0.135551 1 
0.044732 0.275233 0.0421561 -0.293917 -0.946171 -0.135551 1 
0.0445696 0.275349 0.0421408 -0.293917 -0.946171 -0.135551 1 
0.0444885 0.275407 0.0421332 -0.293917 -0.946171 -0.135551 1 
0.0441673 0.275511 0.0424088 -0.293917 -0.946171 -0.135551 1 
0.0441804 0.275504 0.0422094 -0.293917 -0.946171 -0.135551 1 
0.043902 0.275457 0.0421928 -0.293917 -0.946171 -0.135551 1 
0.0440248 0.275616 0.0420945 -0.293917 -0.946171 -0.135551 1 
0.0437814 0.275538 0.0427834 -0.259794 -0.948045 -0.183624 1 
0.043561 0.275573 0.0427675 -0.318643 -0.921636 -0.221479 1 
0.0438077 0.275522 0.0423846 -0.270638 -0.949253 -0.160229 1 
0.0435808 0.275561 0.0424684 -0.258505 -0.952318 -0.162068 1 
0.0435775 0.275689 0.0421623 -0.281186 -0.950168 -0.134596 1 
0.0439371 0.275678 0.0421865 -0.293917 -0.946171 -0.135551 1 
0.0438209 0.275515 0.0421852 -0.31393 -0.939071 -0.139977 1 
0.0436455 0.275638 0.0423693 -0.251777 -0.955152 -0.155862 1 
0.0437517 0.275933 0.0421643 -0.281265 -0.952077 -0.120165 1 
0.0458368 0.276663 0.0412706 0.101177 -0.640785 -0.761024 1 
0.0456878 0.276771 0.0410559 0.326524 -0.245256 -0.912815 1 
0.0459728 0.276814 0.0409727 -0.303096 -0.94865 -0.090535 1 
0.0456943 0.276768 0.0409562 -0.303096 -0.94865 -0.090535 1 
0.0456297 0.27669 0.0410552 0.128807 -0.596659 -0.79209 1 
0.0456362 0.276686 0.0409555 0.128807 -0.596659 -0.79209 1 
0.0452701 0.276701 0.0410311 0.106957 -0.596324 -0.795587 1 
0.045189 0.276759 0.0410234 0.145713 -0.620406 -0.770626 1 
0.0455749 0.276732 0.0406487 -0.303096 -0.94865 -0.090535 1 
0.0452899 0.276689 0.0407319 0.13397 -0.552076 -0.822961 1 
0.0450465 0.276863 0.040709 -0.169001 -0.984865 0.0384622 1 
0.0452285 0.276736 0.0404252 -0.169001 -0.984865 0.0384622 1 
0.0451353 0.276434 0.0404308 0.21724 -0.568523 -0.793466 1 
0.0452208 0.277108 0.0407111 -0.169001 -0.984865 0.0384622 1 
0.0449259 0.277196 0.0405878 -0.372645 -0.714099 0.59262 1 
0.0450662 0.276852 0.0404099 -0.282323 -0.796499 0.53468 1 
0.044939 0.277188 0.0403883 -0.464392 -0.658867 0.591806 1 
0.0447417 0.277084 0.0403794 -0.503086 -0.70031 0.506429 1 
0.0445663 0.277207 0.0405636 -0.542496 -0.711715 0.446273 1 
0.0447057 0.2755 0.041843 0.416599 -0.834771 0.360005 1 
0.0447637 0.275582 0.0418437 0.416599 -0.834771 0.360005 1 
0.0447769 0.275574 0.0416443 -0.352946 -0.47432 -0.806504 1 
0.0449074 0.275361 0.0412601 -0.375808 -0.535241 -0.756496 1 
0.0447451 0.275225 0.0419567 -0.295146 -0.942562 -0.156414 1 
0.0446026 0.27533 0.0416423 -0.295146 -0.942562 -0.156414 1 
0.0442583 0.275573 0.0419109 -0.293917 -0.946171 -0.135551 1 
0.0443461 0.275512 0.0418188 -0.293917 -0.946171 -0.135551 1 
0.0442649 0.275569 0.0418112 -0.293917 -0.946171 -0.135551 1 
0.0441026 0.275685 0.041796 -0.293917 -0.946171 -0.135551 1 
0.0443592 0.275504 0.0416194 -0.295146 -0.942562 -0.156414 1 
0.0441158 0.275678 0.0415965 -0.293917 -0.946171 -0.135551 1 
0.0446092 0.275326 0.0415426 -0.300996 -0.941124 -0.153903 1 
0.0445413 0.275376 0.0413356 -0.182457 -0.861852 -0.473203 1 
0.0442781 0.275562 0.0416118 -0.293917 -0.946171 -0.135551 1 
0.0438527 0.275863 0.0418728 -0.31393 -0.939071 -0.139977 1 
0.0455531 0.276504 0.0404557 0.227973 -0.421675 -0.877621 1 
0.0522964 0.283749 0.0382111 -0.578126 -0.815937 -0.00410019 1 
0.0522309 0.283064 0.0376318 -0.402628 -0.550532 0.731304 1 
0.0520268 0.28419 0.0378752 -0.578126 -0.815937 -0.00410019 1 
0.0517934 0.283005 0.0379061 0.0966099 -0.376915 0.921196 1 
0.0523066 0.282642 0.037553 -0.232151 -0.596736 0.768122 1 
0.0518692 0.282583 0.0378273 -0.257905 -0.640808 0.723084 1 
0.0515524 0.282443 0.0375109 -0.342741 -0.739085 0.579898 1 
0.0513757 0.282935 0.0378812 0.198558 -0.381173 0.90293 1 
0.0513955 0.282923 0.0375821 0.526882 -0.38986 0.755252 1 
0.0541287 0.282079 0.0374949 0.0263011 -0.574471 0.818102 1 
0.0541353 0.282075 0.0373951 0.0262078 -0.550365 0.834513 1 
0.053961 0.281831 0.0373932 -0.0203358 -0.508396 0.860883 1 
0.0537902 0.280483 0.0368328 0.201961 -0.468251 0.860205 1 
0.0534537 0.280355 0.0368155 -0.0968213 -0.565032 0.819368 1 
0.0532837 0.280843 0.0370862 -0.33846 -0.514908 0.787601 1 
0.0532968 0.280835 0.0368867 -0.333125 -0.55199 0.764418 1 
0.0533615 0.280912 0.0367877 -0.297059 -0.541696 0.786334 1 
0.0541554 0.27986 0.0360789 -0.724334 -0.607663 0.325707 1 
0.0537947 0.280239 0.0362409 0.112283 -0.461922 0.879784 1 
0.0535623 0.279913 0.0362383 0.302045 -0.304992 0.903188 1 
0.0541585 0.28096 0.0365376 -0.11812 -0.541019 0.832674 1 
0.0537528 0.28125 0.0364995 0.0149879 -0.532753 0.846138 1 
0.0537342 0.280893 0.0366125 0.197167 -0.498185 0.844356 1 
0.0534909 0.281067 0.0365896 -0.331376 -0.526679 0.782815 1 
0.05356 0.280649 0.0366105 -0.332657 -0.544786 0.769771 1 
0.0536872 0.280313 0.0366321 -0.029009 -0.556696 0.830209 1 
0.05356 0.280649 0.0366105 -0.332657 -0.544786 0.769771 1 
0.0534504 0.280483 0.0365095 -0.15748 -0.571429 0.8054 1 
0.0534537 0.280355 0.0368155 -0.0968213 -0.565032 0.819368 1 
0.0533845 0.280773 0.0367946 -0.322545 -0.556832 0.765443 1 
0.0533166 0.280823 0.0365876 -0.276676 -0.570743 0.773112 1 
0.0533746 0.280905 0.0365883 -0.309672 -0.572814 0.758938 1 
0.0537069 0.280301 0.036333 -0.00134944 -0.533028 0.846097 1 
0.0536687 0.280208 0.0360331 -0.218321 -0.596125 0.772639 1 
0.0534241 0.28075 0.0361965 -0.268347 -0.54768 0.792488 1 
0.0539767 0.280111 0.035957 -0.116911 -0.62599 0.771018 1 
0.053912 0.280034 0.036056 0.111251 -0.527358 0.842328 1 
0.0536642 0.280703 0.0359132 -0.25048 -0.606508 0.754591 1 
0.0536752 0.280204 0.0359335 -0.211734 -0.604292 0.768115 1 
0.0536595 0.281924 0.0373696 -0.164284 -0.498772 0.851021 1 
0.0536792 0.281912 0.0370705 -0.204391 -0.507192 0.837246 1 
0.053289 0.281207 0.0371726 -0.160125 -0.480374 0.862323 1 
0.0531311 0.282054 0.0374299 -0.237225 -0.544221 0.804703 1 
0.052766 0.281702 0.0373193 -0.225303 -0.51651 0.826109 1 
0.0531388 0.281683 0.0371441 -0.257947 -0.453316 0.85321 1 
0.053278 0.281706 0.0371523 -0.236081 -0.437577 0.867636 1 
0.0535412 0.28152 0.0368761 -0.22645 -0.481777 0.846529 1 
0.0531037 0.281462 0.0371504 -0.285474 -0.48203 0.828343 1 
0.0533088 0.281195 0.0368735 -0.30728 -0.533362 0.788102 1 
0.0533154 0.281191 0.0367737 -0.30728 -0.533362 0.788102 1 
0.0532858 0.281334 0.0368665 -0.323418 -0.508228 0.798189 1 
0.0529843 0.281427 0.036843 -0.294485 -0.505506 0.811014 1 
0.0528801 0.281624 0.0368284 -0.286671 -0.496583 0.819283 1 
0.052855 0.281272 0.0370411 -0.297829 -0.502685 0.811545 1 
0.0528877 0.282228 0.037407 -0.207238 -0.56338 0.799785 1 
0.0524646 0.281794 0.0372957 -0.279169 -0.540989 0.793345 1 
0.0522847 0.282413 0.0373599 -0.326239 -0.709286 0.624886 1 
0.0524075 0.282572 0.0372615 -0.255255 -0.661126 0.705519 1 
0.0523604 0.281991 0.0372811 -0.314738 -0.605265 0.73116 1 
0.0523736 0.281984 0.0370817 -0.339858 -0.596784 0.726874 1 
0.0530621 0.281496 0.0365445 -0.312485 -0.515521 0.797867 1 
0.0530732 0.280997 0.0365647 -0.322668 -0.547412 0.772156 1 
0.0529055 0.280749 0.0364631 -0.290931 -0.570734 0.767868 1 
0.0527433 0.280865 0.0364478 -0.326634 -0.564771 0.757855 1 
0.0526621 0.280923 0.0364401 -0.329446 -0.55122 0.766565 1 
0.0520984 0.28206 0.0366594 -0.40225 -0.633999 0.660485 1 
0.0522071 0.281619 0.036082 -0.393022 -0.510439 0.764843 1 
0.0520328 0.281375 0.0360801 -0.393873 -0.531157 0.750157 1 
0.0517344 0.282316 0.0372271 -0.413553 -0.726601 0.548658 1 
0.0520305 0.282111 0.0364523 -0.445841 -0.642879 0.622842 1 
0.0524067 0.280485 0.0371424 -0.378721 -0.515255 0.768819 1 
0.0525953 0.280354 0.0367589 -0.317678 -0.588591 0.743398 1 
0.0522292 0.28062 0.0361225 -0.411839 -0.476951 0.77647 1 
0.0521031 0.280589 0.0359148 -0.312386 -0.668475 0.674949 1 
0.0522774 0.280833 0.0359168 -0.405896 -0.490661 0.771039 1 
0.0519869 0.280426 0.0359134 -0.378995 0.285379 0.880296 1 
0.0503373 0.282296 0.0414482 -0.179382 0.00799794 -0.983747 1 
0.0499612 0.282442 0.0413173 -0.223822 0.191656 -0.9556 1 
0.0500326 0.282516 0.0411185 -0.179316 0.0914877 -0.979528 1 
0.0501553 0.282675 0.0410202 -0.18119 0.00341869 -0.983442 1 
0.0498681 0.28214 0.0413229 -0.189327 0.229609 -0.954691 1 
0.0503055 0.282199 0.0410487 -0.0680457 0.007328 -0.997655 1 
0.0498342 0.281552 0.0411431 -0.122199 0.269363 -0.955254 1 
0.0495776 0.281733 0.0413196 -0.116669 0.312459 -0.94274 1 
0.0498222 0.281191 0.0411564 -0.0839715 0.285503 -0.954692 1 
0.0495887 0.281234 0.0413399 -0.131407 0.318358 -0.938818 1 
0.0496635 0.280204 0.0405828 0.17602 0.429141 -0.885921 1 
0.0494222 0.280618 0.0410521 0.172036 0.373929 -0.911362 1 
0.0490099 0.280912 0.0411136 0.0916503 0.392592 -0.915135 1 
0.049273 0.280726 0.0408374 0.165118 0.409205 -0.897378 1 
0.0490988 0.280482 0.0408355 0.201456 0.416146 -0.8867 1 
0.0489212 0.280365 0.0405274 0.319414 0.352718 -0.879525 1 
0.0487809 0.28071 0.0407052 0.201456 0.416146 -0.8867 1 
0.0487055 0.284919 0.043344 -0.91519 0.386291 0.114918 1 
0.0486803 0.284567 0.0435566 -0.913927 0.397891 0.0801214 1 
0.0485378 0.284671 0.0432423 -0.959249 0.28256 -0.0012127 1 
0.0485575 0.28466 0.0429431 -0.956333 0.288538 -0.0466196 1 
0.0484995 0.284578 0.0429425 -0.980251 0.196983 -0.0174837 1 
0.0483515 0.284067 0.0432536 -0.97571 0.219037 -0.00351396 1 
0.0482201 0.283672 0.0429595 -0.991346 0.127153 -0.0326323 1 
0.048562 0.284164 0.0430631 -0.974115 0.224058 -0.0299543 1 
0.0483964 0.284408 0.0427418 -0.974115 0.224058 -0.0299543 1 
0.0483252 0.284334 0.0429405 -0.974115 0.224058 -0.0299543 1 
0.0484316 0.284628 0.0427355 -0.981252 0.192561 0.0080714 1 
0.0480501 0.28416 0.04323 -0.97571 0.219037 -0.00351396 1 
0.0482375 0.284396 0.0430326 -0.976182 0.216799 -0.00820321 1 
0.0484218 0.283532 0.0423765 -0.214448 0.572376 -0.791453 1 
0.048253 0.283652 0.0424609 -0.198657 0.608292 -0.76845 1 
0.0483384 0.284326 0.0427411 -0.974115 0.224058 -0.0299543 1 
0.0483647 0.284311 0.0423423 -0.984528 0.167804 -0.0504585 1 
0.0483264 0.283966 0.0427545 -0.990212 0.137934 -0.0213069 1 
0.0481641 0.284082 0.0427391 -0.990212 0.137934 -0.0213069 1 
0.0481905 0.284066 0.0423403 -0.046544 0.590967 -0.805352 1 
0.0482727 0.283641 0.0421618 -0.211266 0.578283 -0.788007 1 
0.0482794 0.283637 0.0420621 -0.214448 0.572376 -0.791453 1 
0.0482036 0.284059 0.0421409 -0.132552 0.609142 -0.781906 1 
0.0487398 0.283304 0.0425067 -0.942311 0.125014 -0.310519 1 
0.0482816 0.282649 0.0424017 0.910442 0.341234 -0.233782 1 
0.048491 0.283114 0.0423974 -0.0549449 0.567764 -0.821356 1 
0.0484757 0.282882 0.0421046 0.616045 0.551909 -0.562036 1 
0.048411 0.282804 0.0422037 0.616045 0.551909 -0.562036 1 
0.0478156 0.283594 0.0427352 -0.070088 0.596463 -0.799575 1 
0.048117 0.283501 0.0427587 -0.070088 0.596463 -0.799575 1 
0.0482059 0.283071 0.0424805 -0.403878 0.518337 -0.753796 1 
0.0479845 0.283474 0.0426507 -0.161636 0.614821 -0.771925 1 
0.0483189 0.283362 0.0421758 -0.951132 0.134356 -0.278023 1 
0.0480853 0.283404 0.0423592 -0.214448 0.572376 -0.791453 1 
0.0483419 0.283222 0.0421828 -0.99621 -0.040196 -0.077133 1 
0.0482257 0.28306 0.0421814 -0.150556 0.558995 -0.815388 1 
0.0481742 0.282974 0.042081 -0.371138 0.473964 -0.798508 1 
0.047911 0.28316 0.0423573 -0.277857 0.582705 -0.763709 1 
0.0479308 0.283148 0.0420582 -0.280961 0.573034 -0.769866 1 
0.0493583 0.282627 0.0412703 -0.0924001 0.501804 -0.860032 1 
0.0491774 0.282387 0.041368 -0.0831475 0.491839 -0.866707 1 
0.0490064 0.282015 0.0416721 -0.0953535 0.499538 -0.861028 1 
0.0484725 0.281782 0.0416459 0.121295 0.550942 -0.825682 1 
0.0492696 0.28183 0.0413958 -0.135835 0.387901 -0.911637 1 
0.0488519 0.281759 0.041371 -0.0693691 0.414855 -0.907239 1 
0.0487576 0.281825 0.0415628 -0.0199489 0.450845 -0.89238 1 
0.0484924 0.28177 0.0413467 0.131626 0.481663 -0.866415 1 
0.0486612 0.281651 0.0412623 -0.00129867 0.41947 -0.907768 1 
0.0485996 0.282673 0.04182 0.168868 0.646567 -0.743932 1 
0.0486116 0.283033 0.0418068 -0.06367 0.561711 -0.82488 1 
0.0484505 0.282781 0.0416054 0.132722 0.633787 -0.762036 1 
0.0488562 0.282491 0.0416435 0.0434184 0.575644 -0.816547 1 
0.0488475 0.282255 0.041251 -0.0844695 0.441734 -0.893161 1 
0.048682 0.282247 0.0416416 0.1947 0.590233 -0.783401 1 
0.0483454 0.282119 0.0416244 0.225446 0.589269 -0.775845 1 
0.0483322 0.282127 0.0418237 0.308204 0.627704 -0.714841 1 
0.0482631 0.282545 0.0418028 0.281898 0.609982 -0.740578 1 
0.0482631 0.282545 0.0418028 0.281898 0.609982 -0.740578 1 
0.04816 0.282374 0.0416021 0.421393 0.63792 -0.644582 1 
0.0485262 0.282359 0.0415266 0.204384 0.588563 -0.78219 1 
0.048284 0.282165 0.0413176 0.263859 0.601978 -0.753658 1 
0.0483532 0.281747 0.0413385 0.150161 0.479641 -0.864521 1 
0.0480208 0.282351 0.0415938 0.615849 0.575355 -0.538235 1 
0.0481218 0.282281 0.0413023 0.282581 0.633811 -0.720022 1 
0.0480407 0.282339 0.0412947 0.34382 0.630609 -0.695788 1 
0.0499612 0.282442 0.0413173 -0.223822 0.191656 -0.9556 1 
0.049696 0.282388 0.0411013 -0.174669 0.325583 -0.92924 1 
0.0495634 0.28236 0.0409933 -0.146668 0.31938 -0.936208 1 
0.0494504 0.28207 0.0412981 -0.136624 0.351911 -0.926009 1 
0.0493002 0.282546 0.0412696 -0.0925859 0.50851 -0.856064 1 
0.0490229 0.282131 0.0410668 -0.0943268 0.386877 -0.917294 1 
0.0494516 0.281702 0.041112 -0.0719785 0.323249 -0.943573 1 
0.049195 0.281884 0.0412885 -0.114119 0.375356 -0.919829 1 
0.0489989 0.281411 0.0410934 -0.0756049 0.346191 -0.935113 1 
0.0489408 0.28133 0.0410928 -0.0324463 0.364697 -0.930561 1 
0.0487906 0.281806 0.0410642 -0.0599468 0.379663 -0.923181 1 
0.0486941 0.281631 0.0407638 0.00382371 0.375998 -0.926612 1 
0.0486152 0.281929 0.0412484 -0.0223557 0.416868 -0.908692 1 
0.0483598 0.281743 0.0412388 0.0852965 0.462838 -0.882329 1 
0.0481295 0.281909 0.0410164 0.246121 0.518557 -0.818855 1 
0.0481744 0.281998 0.0412166 0.346665 0.536927 -0.769112 1 
0.0479672 0.282025 0.0410012 0.332894 0.548391 -0.767104 1 
0.0487545 0.280725 0.0411041 0.195079 0.423893 -0.884454 1 
0.0485507 0.280876 0.0404829 0.242372 0.426033 -0.871637 1 
0.0485199 0.281387 0.0407618 0.00892599 0.368516 -0.929579 1 
0.0483445 0.281511 0.040946 0.085941 0.399694 -0.912611 1 
0.0480133 0.281746 0.0410151 0.218529 0.465694 -0.85754 1 
0.0483616 0.283211 0.0418836 -0.277747 0.519402 -0.808133 1 
0.0481763 0.283466 0.0418614 -0.98377 0.0338426 -0.176215 1 
0.048183 0.283462 0.0417617 -0.931163 0.15358 -0.33068 1 
0.0476108 0.283136 0.0414357 -0.593587 0.459821 -0.66047 1 
0.0480197 0.282719 0.0417799 0.681427 0.530743 -0.503954 1 
0.0478356 0.282606 0.0415716 0.620426 0.562948 -0.546042 1 
0.0478422 0.282602 0.0414719 0.58616 0.555754 -0.589538 1 
0.0478093 0.282873 0.0412585 0.520309 0.543883 -0.658384 1 
0.0586607 0.280309 0.0387662 -0.0911093 0.0117906 -0.995771 1 
0.057388 0.27863 0.03955 -0.122836 -0.0877403 -0.988541 1 
0.057091 0.278227 0.0396464 0.0197847 -0.048941 -0.998606 1 
0.0569858 0.277565 0.0396654 0.257947 -0.230061 -0.938369 1 
0.0591837 0.279562 0.0393314 -0.106517 -0.101835 -0.989082 1 
0.0591913 0.279191 0.0390456 -0.07294 -0.121567 -0.9899 1 
0.058971 0.279225 0.0390296 -0.148443 -0.102583 -0.983586 1 
0.0589931 0.278226 0.0390702 -0.0562461 -0.190279 -0.980117 1 
0.0586937 0.27881 0.038827 -0.226199 -0.113739 -0.967418 1 
0.0586355 0.279956 0.0389789 -0.172727 -0.0125828 -0.984889 1 
0.0584864 0.280064 0.0387642 -0.172727 -0.0125828 -0.984889 1 
0.0584612 0.279712 0.0389769 -0.192206 -0.048947 -0.980133 1 
0.0576982 0.279026 0.0392542 -0.147812 -0.0973398 -0.984214 1 
0.0584372 0.278992 0.0390035 -0.210933 -0.109887 -0.971304 1 
0.0584504 0.278984 0.0388041 -0.210933 -0.109887 -0.971304 1 
0.0584854 0.279205 0.0387978 -0.211393 -0.112658 -0.970887 1 
0.0581949 0.278798 0.0387945 -0.184884 -0.110434 -0.976536 1 
0.058242 0.279379 0.0387749 -0.210933 -0.109887 -0.971304 1 
0.0577761 0.279096 0.0389557 -0.149391 -0.110525 -0.982581 1 
0.0580327 0.278914 0.0387792 -0.158255 -0.118998 -0.980201 1 
0.0592232 0.279539 0.0387332 -0.0217388 -0.040372 -0.998948 1 
0.0591585 0.279461 0.0388322 -0.0618688 -0.0978651 -0.993275 1 
0.0592046 0.279183 0.0388461 -0.0675929 -0.11571 -0.990981 1 
0.0589842 0.279217 0.0388302 -0.140314 -0.104336 -0.984594 1 
0.0589678 0.279353 0.0387235 -0.0937689 -0.071174 -0.993047 1 
0.058868 0.279054 0.0388289 -0.168033 -0.106707 -0.979989 1 
0.0589929 0.279705 0.0385109 -0.0831046 -0.026982 -0.996175 1 
0.0587243 0.279527 0.0387007 -0.16213 -0.0478225 -0.98561 1 
0.0586246 0.279228 0.0388061 -0.211393 -0.112658 -0.970887 1 
0.0587179 0.278051 0.0393596 -0.202563 -0.114492 -0.972553 1 
0.0583518 0.278067 0.0394352 -0.238217 -0.166352 -0.956859 1 
0.0581379 0.278097 0.0393196 -0.180034 -0.112987 -0.97715 1 
0.0587377 0.27804 0.0390605 -0.188954 -0.178529 -0.965621 1 
0.0581281 0.278229 0.0391132 -0.165263 -0.127986 -0.97791 1 
0.0582509 0.278388 0.0390148 -0.180136 -0.0943569 -0.979106 1 
0.0579538 0.277985 0.0391112 -0.132161 -0.124886 -0.983329 1 
0.0583332 0.277962 0.0388363 -0.202255 -0.170938 -0.964299 1 
0.057388 0.27863 0.03955 -0.122836 -0.0877403 -0.988541 1 
0.0576512 0.278445 0.0392738 -0.113056 -0.0897451 -0.989527 1 
0.0575635 0.278507 0.0393659 -0.115598 -0.0922447 -0.989004 1 
0.0579724 0.278341 0.0389982 -0.162792 -0.130482 -0.977995 1 
0.0578452 0.278677 0.0389766 -0.157587 -0.113609 -0.980948 1 
0.0578332 0.278317 0.03899 -0.142699 -0.101928 -0.984504 1 
0.0580886 0.278504 0.0389996 -0.149204 -0.0895223 -0.984746 1 
0.0577641 0.278735 0.038969 -0.149391 -0.110525 -0.982581 1 
0.0568532 0.277538 0.0395574 0.327196 -0.234947 -0.915283 1 
0.0568784 0.27789 0.0393447 0.135061 -0.0786878 -0.987708 1 
0.0585885 0.278148 0.0388459 -0.225932 -0.150186 -0.962496 1 
0.0583452 0.278322 0.038823 -0.211393 -0.112658 -0.970887 1 
0.0581717 0.280165 0.0389401 -0.181392 -0.0196412 -0.983215 1 
0.0576061 0.279583 0.0392263 -0.198452 -0.0693974 -0.977651 1 
0.0575063 0.279285 0.0393317 -0.188589 -0.0949109 -0.977459 1 
0.0574549 0.2792 0.0392313 -0.201678 -0.0745597 -0.97661 1 
0.0580436 0.279642 0.0389521 -0.236016 -0.0580772 -0.970012 1 
0.0578747 0.279762 0.0390365 -0.236016 -0.0580772 -0.970012 1 
0.0576884 0.279157 0.0390478 -0.158993 -0.103164 -0.981875 1 
0.0575798 0.27985 0.0389133 -0.312654 -0.0553256 -0.948255 1 
0.0573069 0.278688 0.0395424 -0.122836 -0.0877403 -0.988541 1 
0.0573387 0.279037 0.03923 -0.175453 -0.0656456 -0.982297 1 
0.0571578 0.278797 0.0393277 -0.0986877 -0.0714635 -0.992549 1 
0.0569211 0.278967 0.0392052 0.0835739 -0.133012 -0.987585 1 
0.0570965 0.278843 0.039021 0.0205422 -0.0897368 -0.995754 1 
0.0570297 0.278274 0.0393397 0.0816359 -0.0704529 -0.994169 1 
0.0564377 0.277959 0.0393128 0.411428 -0.243865 -0.878212 1 
0.0566416 0.27806 0.0392221 0.241595 -0.190307 -0.951533 1 
0.056829 0.278297 0.0390247 0.0545334 -0.041702 -0.997641 1 
0.0567479 0.278355 0.0390171 0.161608 -0.146574 -0.975909 1 
0.0567008 0.277774 0.0390366 0.257447 -0.210639 -0.943055 1 
0.056406 0.277862 0.0389134 0.425854 -0.198928 -0.882653 1 
0.0565922 0.278467 0.0389021 0.229961 -0.194996 -0.953464 1 
0.0568314 0.277309 0.0393643 0.371566 -0.220025 -0.901958 1 
0.0565946 0.277479 0.0392416 0.438818 -0.199463 -0.876158 1 
0.0563556 0.277158 0.0393388 0.61959 -0.192181 -0.761035 1 
0.0564137 0.277239 0.0393394 0.622559 -0.195222 -0.757831 1 
0.0565134 0.277537 0.0392341 0.438191 -0.193276 -0.877857 1 
0.0562239 0.27799 0.0391973 0.56326 -0.269797 -0.780991 1 
0.0558754 0.277502 0.0391933 0.622565 -0.165109 -0.764952 1 
0.0563644 0.277645 0.0390194 0.538352 -0.192593 -0.820418 1 
0.0561275 0.277815 0.0388968 0.604102 -0.246348 -0.757874 1 
0.0559532 0.277571 0.0388948 0.62039 -0.16837 -0.766008 1 
0.0560826 0.277726 0.0386968 0.650215 -0.216738 -0.728179 1 
0.0560661 0.277862 0.03859 0.604102 -0.246348 -0.757874 1 
0.0559083 0.277482 0.0386948 0.617433 -0.175321 -0.766837 1 
0.0559039 0.277978 0.0385748 0.563983 -0.322965 -0.760011 1 
0.0702438 0.263828 0.0669544 0.517255 -0.00403056 -0.855822 0 
0.0713565 0.262905 0.0677661 0.960772 0.248319 -0.123509 0 
0.0712085 0.262645 0.0673653 0.831185 0.0234331 -0.555502 0 
0.0708622 0.262648 0.0671417 0.862089 0.144411 -0.485745 0 
0.0711122 0.26247 0.0670649 0.905368 -0.0838049 -0.416277 0 
0.0709849 0.262807 0.0670433 0.886308 0.154203 -0.436669 0 
0.070905 0.262497 0.0668496 0.884956 0.151583 -0.440313 0 
0.0709116 0.262493 0.0667499 0.884956 0.151583 -0.440313 0 
0.0709291 0.261738 0.0673822 0.769227 -0.419727 -0.481788 0 
0.0705202 0.262156 0.067038 0.885194 -0.0704289 -0.459859 0 
0.0706989 0.261904 0.06716 0.795418 -0.474037 -0.377623 0 
0.0708029 0.262935 0.0673272 0.757771 0.0829039 -0.647233 0 
0.0708359 0.262915 0.0668286 0.818468 0.238912 -0.522524 0 
0.0708227 0.262923 0.0670281 0.835813 0.207816 -0.508162 0 
0.0707547 0.262973 0.066821 0.797009 0.278246 -0.536056 0 
0.0704072 0.263344 0.0667835 0.707708 0.379305 -0.596051 0 
0.0704051 0.262853 0.0670032 0.743046 0.331862 -0.581163 0 
0.0706364 0.262319 0.0670394 0.922542 0.113776 -0.368743 0 
0.0703196 0.262179 0.066723 0.802073 0.0612596 -0.594076 0 
0.0701388 0.261938 0.0668207 0.82274 -0.192427 -0.534856 0 
0.0704488 0.263561 0.0666775 0.711632 0.484976 -0.508309 0 
0.070326 0.263402 0.0667759 0.700175 0.405539 -0.587617 0 
0.070928 0.262609 0.0661446 0.846268 0.187228 -0.498774 0 
0.0708897 0.262516 0.0658449 0.840991 -0.0345234 -0.539947 0 
0.0708557 0.262903 0.0665295 0.818468 0.238912 -0.522524 0 
0.0704939 0.262423 0.066725 0.822984 0.232282 -0.518403 0 
0.0704326 0.262469 0.0664182 0.752349 0.344625 -0.561431 0 
0.0702517 0.262229 0.0665159 0.761043 0.306019 -0.571984 0 
0.0701223 0.262074 0.066714 0.341087 0.934282 0.103809 0 
0.070209 0.262631 0.0660962 0.710387 0.428881 -0.558043 0 
0.0700281 0.262391 0.066194 0.709014 0.449983 -0.542968 0 
0.070129 0.262321 0.0659025 0.738484 0.419406 -0.527958 0 
0.0703326 0.263398 0.0666762 0.700175 0.405539 -0.587617 0 
0.0703459 0.263391 0.0664767 0.713576 0.369091 -0.595467 0 
0.0702186 0.263727 0.0664552 0.717009 0.470797 -0.514051 0 
0.0702055 0.263735 0.0666546 0.710387 0.428881 -0.558043 0 
0.0699402 0.26368 0.0664386 0.713451 0.400389 -0.575045 0 
0.0698886 0.263595 0.0663383 0.720765 0.452342 -0.525247 0 
0.0698076 0.263653 0.0663307 0.71123 0.439338 -0.548758 0 
0.0698274 0.263641 0.0660315 0.735286 0.470914 -0.487437 0 
0.0695105 0.26325 0.0664271 0.668389 0.27597 -0.690722 0 
0.070915 0.262868 0.0656321 0.822849 0.342722 -0.453278 0 
0.0704972 0.262798 0.0656073 0.776466 0.363212 -0.514954 0 
0.0703493 0.262287 0.0659184 0.806367 0.177007 -0.564306 0 
0.0703032 0.262566 0.0659044 0.74003 0.392167 -0.546408 0 
0.0700796 0.262728 0.0655824 0.664051 0.449949 -0.597144 0 
0.0697474 0.263331 0.0658378 0.632776 0.286752 -0.719283 0 
0.0693243 0.262897 0.0657265 0.604487 0.260419 -0.752847 0 
0.0699009 0.262979 0.0654605 0.643676 0.424127 -0.637023 0 
0.0690993 0.264655 0.0657433 -0.351679 -0.827945 -0.436839 0 
0.0695225 0.26361 0.0664138 0.678236 0.318884 -0.662049 0 
0.0692857 0.26378 0.0662912 0.519315 -0.0601902 -0.852461 0 
0.0693833 0.263587 0.0664055 0.632829 0.301117 -0.713341 0 
0.0695774 0.263819 0.0661084 0.637947 0.172048 -0.750615 0 
0.069665 0.263757 0.0660163 0.64688 0.276322 -0.710769 0 
0.0693986 0.264071 0.0659864 0.545103 -0.0844123 -0.834108 0 
0.0694119 0.264063 0.0657871 0.61375 0.00137304 -0.789499 0 
0.0692364 0.264186 0.0659712 0.525259 -0.165166 -0.834759 0 
0.069334 0.263993 0.0660854 0.545103 -0.0844123 -0.834108 0 
0.0692539 0.263432 0.0666036 0.639796 0.237369 -0.73097 0 
0.0690928 0.26318 0.0664022 0.625979 0.212802 -0.750243 0 
0.0691114 0.263536 0.0662892 0.641129 0.149345 -0.752761 0 
0.069028 0.264581 0.065942 0.513619 -0.273202 -0.813361 0 
0.0692714 0.264407 0.0659649 0.595967 -0.0976279 -0.797052 0 
0.0687846 0.264755 0.0659191 -0.489784 -0.832787 -0.258025 0 
0.0693657 0.264341 0.0657731 0.522105 -0.1553 -0.838623 0 
0.0692846 0.264399 0.0657655 0.549592 -0.156388 -0.820665 0 
0.0690478 0.264569 0.0656429 0.646935 -0.116952 -0.753524 0 
0.0687978 0.264747 0.0657197 0.645432 -0.165534 -0.745664 0 
0.0686421 0.264859 0.0656047 0.793183 0.13195 -0.594517 0 
0.0688176 0.264736 0.0654206 0.627352 -0.265235 -0.732175 0 
0.0690807 0.26455 0.0651443 0.711226 -0.0678046 -0.699685 0 
0.0688374 0.264724 0.0651214 0.726302 -0.15921 -0.668683 0 
0.0686751 0.26484 0.0651062 0.794343 0.032222 -0.606615 0 
0.0682708 0.263283 0.0654412 0.193664 0.978062 -0.0767347 0 
0.0684714 0.263511 0.0650444 0.688218 -0.0862099 -0.720364 0 
0.0682094 0.263329 0.0651345 0.818133 0.00409749 -0.575015 0 
0.0678103 0.263615 0.0649966 0.957048 -0.0730278 -0.28058 0 
0.0685742 0.264909 0.0653977 0.780041 0.0497294 -0.623749 0 
0.068458 0.264747 0.0653964 0.682709 -0.276601 -0.676314 0 
0.0681215 0.264618 0.0653792 0.735954 -0.213162 -0.642599 0 
0.0679822 0.264595 0.0653709 0.6704 -0.344171 -0.657351 0 
0.0684646 0.264743 0.0652966 0.7774 -0.079622 -0.623947 0 
0.0684778 0.264735 0.0650973 0.730127 -0.223572 -0.645701 0 
0.0682344 0.264909 0.0650744 0.803287 -0.0642059 -0.592121 0 
0.0681631 0.264835 0.0652732 0.706481 -0.289962 -0.645605 0 
0.0677971 0.265605 0.063213 0.792005 -0.292457 -0.535908 0 
0.0682478 0.263674 0.0647224 0.893023 -0.050292 -0.447191 0 
0.0686852 0.263732 0.0644481 0.843601 -0.0260625 -0.536338 0 
0.0683005 0.263642 0.0639247 0.925898 -0.0379788 -0.37586 0 
0.0680932 0.263418 0.0644213 0.998887 -0.0343726 -0.0322894 0 
0.0684975 0.264723 0.0647981 0.765513 -0.158538 -0.623583 0 
0.0682542 0.264897 0.0647752 0.757831 -0.195222 -0.622559 0 
0.0682608 0.264893 0.0646756 0.757831 -0.195222 -0.622559 0 
0.0680919 0.265013 0.06476 0.761729 -0.208587 -0.613401 0 
0.0679593 0.264986 0.064652 0.795893 -0.184136 -0.576756 0 
0.0680985 0.265009 0.0646603 0.793522 -0.147945 -0.590284 0 
0.0680536 0.26492 0.0644603 0.715838 -0.265066 -0.646 0 
0.0682422 0.264788 0.0640766 0.745183 -0.264216 -0.612284 0 
0.0682279 0.265164 0.0644622 0.860374 0.0685501 -0.505032 0 
0.0680371 0.265055 0.0643535 0.798878 -0.141329 -0.584654 0 
0.0679637 0.264742 0.0640601 0.744967 -0.257812 -0.61527 0 
0.0678202 0.263735 0.0644911 0.91991 -0.0195172 -0.391645 0 
0.0679034 0.265396 0.0644317 0.814634 0.503849 -0.287241 0 
0.0678069 0.265222 0.0641312 0.863203 -0.0231094 -0.504328 0 
0.0676512 0.265334 0.0640163 0.822366 -0.118316 -0.556521 0 
0.0681502 0.264118 0.0638962 0.860432 -0.039924 -0.507999 0 
0.0677554 0.265136 0.0640309 0.838757 -0.126908 -0.529511 0 
0.0677686 0.265128 0.0638315 0.832311 -0.0547388 -0.551599 0 
0.0676645 0.265326 0.0638169 0.782822 -0.211532 -0.585187 0 
0.0675252 0.265302 0.0638086 0.782822 -0.211532 -0.585187 0 
0.0677061 0.265543 0.0637109 -0.119609 -0.955558 -0.269449 0 
0.0675438 0.265659 0.0636956 0.730562 -0.395653 -0.556541 0 
0.0672884 0.265472 0.063686 0.716703 -0.378852 -0.585499 0 
0.0675636 0.265647 0.0633965 0.731072 -0.41752 -0.53964 0 
0.0671559 0.264218 0.0634254 0.558043 -0.428881 -0.710387 0 
0.067749 0.263661 0.0646899 0.917827 -0.0409391 -0.394864 0 
0.0667053 0.264418 0.0631872 0.653713 -0.583132 -0.482303 0 
0.067248 0.265139 0.062894 0.438451 -0.757026 -0.484431 0 
0.0673752 0.264802 0.0629155 0.283206 -0.843428 -0.456534 0 
0.0662952 0.266934 0.0617579 0.904113 0.395639 -0.161398 0 
0.0673597 0.265546 0.0634872 0.715583 -0.408196 -0.566848 0 
0.0673663 0.265542 0.0633876 0.711827 -0.401332 -0.576398 0 
0.0671471 0.265209 0.0631855 0.349902 -0.83945 -0.415803 0 
0.0669618 0.265464 0.0631633 0.409557 -0.78512 -0.464597 0 
0.067237 0.265639 0.0628738 0.392993 -0.758264 -0.520185 0 
0.0670977 0.265615 0.0628655 0.458537 -0.726707 -0.511509 0 
0.0671657 0.265565 0.0630725 0.79343 -0.0946293 -0.60126 0 
0.0669815 0.265452 0.0628642 0.490619 -0.720129 -0.490619 0 
0.0667414 0.265498 0.0631473 0.487519 -0.710481 -0.507486 0 
0.0667613 0.265487 0.0628483 0.564691 -0.645602 -0.514122 0 
0.0673597 0.265797 0.0627754 0.67067 -0.532838 -0.516029 0 
0.0671986 0.265545 0.062574 0.570727 -0.63807 -0.516853 0 
0.0671175 0.265603 0.0625664 0.530618 -0.69131 -0.490445 0 
0.0671241 0.2656 0.0624666 0.545435 -0.66627 -0.508513 0 
0.067089 0.265379 0.062473 0.549553 -0.657111 -0.515942 0 
0.0668741 0.265777 0.0625435 0.694183 -0.486764 -0.530255 0 
0.0669388 0.265855 0.0624444 0.686846 -0.482965 -0.543127 0 
0.0668259 0.265564 0.0627492 0.570727 -0.63807 -0.516853 0 
0.0665267 0.26467 0.0630653 0.676971 -0.56665 -0.469701 0 
0.0664926 0.265308 0.063038 0.563884 -0.654779 -0.503288 0 
0.0662384 0.264754 0.0628424 0.66137 -0.546934 -0.513277 0 
0.0665815 0.264879 0.0627598 0.597644 -0.634681 -0.4899 0 
0.0662351 0.264882 0.0625362 0.625737 -0.558272 -0.544779 0 
0.0671439 0.265588 0.0621675 0.561711 -0.66567 -0.491288 0 
0.0667316 0.265882 0.0622291 0.657312 -0.489201 -0.573257 0 
0.0669005 0.265762 0.0621446 0.657312 -0.489201 -0.573257 0 
0.0669947 0.265696 0.0619528 0.659401 -0.47148 -0.585575 0 
0.0667712 0.265858 0.0616308 0.816001 -0.0877885 -0.571345 0 
0.0660345 0.264905 0.0622212 0.526239 -0.699981 -0.482803 0 
0.0664883 0.266055 0.0622063 0.827046 -0.11192 -0.55088 0 
0.0667382 0.265878 0.0621294 0.671925 -0.445171 -0.591894 0 
0.0665595 0.266129 0.0620075 0.344667 -0.690967 -0.635428 0 
0.0664203 0.266106 0.0619992 0.827188 -0.0695236 -0.557607 0 
0.0667514 0.26587 0.06193 0.845947 0.031637 -0.532328 0 
0.0665145 0.26604 0.0618074 0.810194 -0.186269 -0.555778 0 
0.0664916 0.266179 0.0618004 0.19545 -0.74948 -0.632518 0 
0.066222 0.265141 0.0620238 0.52404 -0.691464 -0.497252 0 
0.0660477 0.264897 0.0620218 0.593766 -0.630771 -0.49957 0 
0.0659798 0.264947 0.0618147 0.533884 -0.706855 -0.46403 0 
0.0658076 0.265195 0.0615931 0.611022 -0.611022 -0.503294 0 
