0.0676466 0.267853 0.0420985 0.31504 0.69955 -0.641389 1 
0.0678463 0.26815 0.0420494 0.454161 0.700373 -0.55065 1 
0.0680516 0.267521 0.0415367 0.33847 0.781208 -0.524549 1 
0.0683842 0.267299 0.0415517 0.510439 0.393022 0.764843 1 
0.0683928 0.267513 0.0418585 0.479147 0.832692 -0.277564 1 
0.068031 0.267859 0.04166 0.710796 0.699167 0.0770392 1 
0.0679694 0.267956 0.0417898 0.11051 0.62033 -0.776517 1 
0.0681877 0.267224 0.0421311 0.19268 0.710605 -0.676694 1 
0.0681811 0.267769 0.0423378 0.518539 0.708614 -0.478523 1 
0.0671664 0.267158 0.0424664 0.562167 -0.252114 0.787659 1 
0.0673457 0.266874 0.0423005 0.37205 -0.0879392 0.924038 1 
0.0673368 0.267578 0.0422338 0.726642 0.637988 -0.254879 1 
0.0674847 0.267647 0.042638 0.587711 0.718677 -0.371617 1 
0.067354 0.268006 0.0428475 0.743473 0.649592 -0.158991 1 
0.0676348 0.267488 0.0422885 0.550193 0.703117 -0.45046 1 
0.0670859 0.2692 0.0424459 0.540551 0.766453 -0.346921 1 
0.0668094 0.269332 0.0425246 0.486143 0.728385 -0.482825 1 
0.0673353 0.269034 0.0424571 0.670628 0.719736 -0.17955 1 
0.0663625 0.269044 0.0428361 0.400389 0.713451 -0.575045 1 
0.066425 0.269327 0.0429631 0.419406 0.738484 -0.527958 1 
0.0665018 0.268898 0.0429334 0.436838 0.736855 -0.515963 1 
0.0669078 0.268946 0.0426285 0.452203 0.754768 -0.475224 1 
0.0666314 0.269078 0.0427073 0.431145 0.725182 -0.536866 1 
0.0668268 0.268842 0.0428983 0.460512 0.73781 -0.493524 1 
0.0672544 0.268931 0.0427269 0.609701 0.722908 -0.325066 1 
0.0672274 0.268896 0.0428168 0.611907 0.719032 -0.329489 1 
0.0666335 0.268919 0.0429808 0.44548 0.720385 -0.531595 1 
0.066531 0.268774 0.043117 0.44548 0.720385 -0.531595 1 
0.0674121 0.268606 0.0424275 0.685137 0.697566 -0.209736 1 
0.0677241 0.268723 0.0425657 0.597041 0.749883 -0.284987 1 
0.0680903 0.26799 0.042284 0.549725 0.705841 -0.446756 1 
0.067261 0.268386 0.0425202 0.617726 0.732652 -0.285718 1 
0.0674067 0.268613 0.0426509 0.675703 0.697754 -0.237835 1 
0.0674435 0.268323 0.0428846 0.656231 0.691702 -0.301511 1 
0.0674228 0.268661 0.0430079 0.651246 0.693261 -0.308655 1 
0.0695052 0.266441 0.0413369 0.60126 0.0946293 0.79343 1 
0.0688333 0.267429 0.0415138 0.556835 0.58053 0.59407 1 
0.0691097 0.267297 0.041435 0.51415 0.352975 0.781702 1 
0.069343 0.267083 0.0410893 0.494559 0.50455 0.707702 1 
0.0697102 0.26673 0.0410644 0.606131 0.107137 0.788116 1 
0.0695655 0.266882 0.0411904 0.567569 0.259415 0.78139 1 
0.0691865 0.266869 0.0414054 0.453791 0.499995 0.737617 1 
0.0693528 0.266758 0.0414129 0.494559 0.50455 0.707702 1 
0.0696832 0.266695 0.0411543 0.606131 0.107137 0.788116 1 
0.0685755 0.266533 0.0419829 0.486399 0.278164 0.828276 1 
0.0687418 0.266422 0.0419903 0.489822 0.460136 0.740506 1 
0.069243 0.265862 0.041259 0.646472 -0.0919361 0.757379 1 
0.0690084 0.266614 0.041588 0.451735 0.555084 0.698439 1 
0.0691262 0.266428 0.0415519 0.494559 0.50455 0.707702 1 
0.0687523 0.267326 0.0417835 0.520089 0.460271 0.719485 1 
0.0690288 0.267194 0.0417048 0.351734 0.7602 -0.546241 1 
0.0686422 0.267347 0.0418697 0.526955 0.437752 0.728486 1 
0.0684987 0.266961 0.0420125 0.494929 0.311505 0.811178 1 
0.068368 0.26732 0.042222 0.470333 0.82269 -0.319323 1 
0.0688022 0.266863 0.0418438 0.489185 0.274876 0.827733 1 
0.0682721 0.26663 0.0421515 0.338787 0.0113349 0.940795 1 
0.0665944 0.266304 0.0425238 0.83082 -0.555272 0.0375748 1 
0.0649159 0.268661 0.0425891 -0.0611455 0.326543 -0.943202 1 
0.0647202 0.269814 0.0426381 -0.118797 0.403911 -0.907052 1 
0.0645627 0.269221 0.0426974 -0.167867 0.403169 -0.899597 1 
0.0654038 0.269191 0.0422712 0.163573 0.345322 -0.92412 1 
0.0653974 0.268819 0.0422378 0.143698 0.246527 -0.958423 1 
0.0654891 0.268977 0.0425484 0.211665 0.352774 -0.911454 1 
0.0657158 0.269308 0.0424094 0.273256 0.425913 -0.862513 1 
0.0655431 0.269046 0.0423686 0.191897 0.342572 -0.919685 1 
0.0656348 0.269204 0.0426792 0.350354 0.425767 -0.834251 1 
0.0653165 0.268715 0.0425076 0.154861 0.273363 -0.949363 1 
0.0650962 0.268757 0.04268 0.112374 0.289528 -0.95055 1 
0.0649093 0.269206 0.0427958 0.0415341 0.42472 -0.904372 1 
0.0655107 0.269018 0.0426819 0.278565 0.32573 -0.903494 1 
0.0655622 0.270164 0.0424687 0.185976 0.548855 -0.814967 1 
0.0646586 0.269911 0.0427679 -0.239701 0.239701 -0.940791 1 
0.0647417 0.269855 0.0427716 -0.119031 0.477556 -0.870501 1 
0.064908 0.269745 0.0427791 0.0227657 0.464687 -0.885182 1 
0.0647849 0.269938 0.0430386 -0.133704 0.403928 -0.904967 1 
0.0647849 0.269938 0.0430386 -0.133704 0.403928 -0.904967 1 
0.065234 0.270068 0.0430007 0.157254 0.564617 -0.810234 1 
0.0654187 0.269778 0.0426114 0.160249 0.489569 -0.857113 1 
0.0652816 0.269764 0.0427875 0.151822 0.508532 -0.847553 1 
0.0659801 0.269728 0.0427608 0.301582 0.556889 -0.773901 1 
0.0655872 0.269508 0.0428924 0.321188 0.482574 -0.814838 1 
0.0657414 0.269949 0.04333 0.444317 0.554149 -0.703919 1 
0.065492 0.270116 0.0433188 0.225281 0.598159 -0.769061 1 
0.0660934 0.269928 0.0432049 0.453689 0.706293 -0.54343 1 
0.0661366 0.27001 0.043472 0.485073 0.701773 -0.521746 1 
0.0657408 0.268652 0.0428331 0.311654 0.372465 -0.874152 1 
0.0660903 0.269707 0.0426746 0.326428 0.561198 -0.760593 1 
0.0663051 0.269672 0.0427257 0.38094 0.684372 -0.621707 1 
0.0661756 0.269493 0.0429519 0.395581 0.676957 -0.620681 1 
0.0666767 0.269002 0.0432478 0.458954 0.748474 -0.478694 1 
0.0672921 0.269021 0.0432173 0.595467 0.713576 -0.369091 1 
0.067141 0.2688 0.04331 0.572636 0.702101 -0.423252 1 
0.0663213 0.26972 0.0430826 0.444534 0.700932 -0.557749 1 
0.0663775 0.26963 0.0431763 0.459768 0.71538 -0.526161 1 
0.066386 0.269844 0.0434832 0.556483 0.664081 -0.499322 1 
0.0674444 0.268703 0.0431414 0.578416 0.72261 -0.37851 1 
0.0677078 0.268743 0.043236 0.496238 0.769576 -0.401872 1 
0.0677576 0.268281 0.0432963 0.354481 0.830273 -0.430104 1 
0.0681321 0.26868 0.0435615 0.43516 0.847091 -0.305077 1 
0.0642215 0.269298 0.0434029 0.485539 0.861722 -0.147266 1 
0.0655634 0.269695 0.0435126 0.39983 0.514067 -0.758861 1 
0.0667535 0.268573 0.0432182 0.498944 0.724381 -0.475738 1 
0.0666725 0.26847 0.0434879 0.512499 0.743206 -0.430104 1 
0.066762 0.268787 0.043525 0.513995 0.750465 -0.415465 1 
0.0665688 0.268864 0.0436075 0.490645 0.753197 -0.438134 1 
0.0667144 0.269091 0.0437382 0.546348 0.727914 -0.4143 1 
0.066345 0.269603 0.0434896 0.521387 0.711284 -0.471413 1 
0.0665047 0.270037 0.0437038 0.597445 0.654345 -0.463564 1 
0.0664237 0.269934 0.0439736 0.622683 0.592308 -0.511309 1 
0.0668417 0.269498 0.0442658 0.582768 0.592903 -0.555741 1 
0.0666583 0.269181 0.0436446 0.526444 0.73108 -0.434027 1 
0.0670102 0.269159 0.0435195 0.544494 0.747248 -0.380982 1 
0.0670264 0.269208 0.0438765 0.563535 0.748674 -0.349164 1 
0.0672965 0.268703 0.0437644 0.544494 0.747248 -0.380982 1 
0.0671721 0.269435 0.0440072 0.586257 0.701856 -0.4046 1 
0.0673523 0.269531 0.0440981 0.547436 0.678017 -0.490516 1 
0.0668061 0.26925 0.0440488 0.576891 0.689941 -0.43724 1 
0.0671181 0.269366 0.044187 0.559075 0.669883 -0.488561 1 
0.0672714 0.269428 0.0443679 0.518165 0.629562 -0.578927 1 
0.0674606 0.268751 0.0434983 0.522272 0.77128 -0.363812 1 
0.067465 0.268434 0.0440453 0.415224 0.832027 -0.36786 1 
0.0674282 0.268723 0.0438117 0.49444 0.810376 -0.314356 1 
0.0679204 0.268936 0.0440408 0.447597 0.837491 -0.313474 1 
0.0680057 0.268722 0.044318 0.498727 0.771646 -0.394758 1 
0.0682575 0.268328 0.0435755 0.351426 0.905541 -0.237686 1 
0.0683631 0.268693 0.0439695 0.546136 0.768457 -0.333481 1 
0.0685856 0.268493 0.0440706 0.430435 0.871368 -0.235464 1 
0.0686687 0.268437 0.0440744 0.430435 0.871368 -0.235464 1 
0.0682822 0.26859 0.0442393 0.552388 0.73925 -0.385197 1 
0.0685316 0.268424 0.0442505 0.430435 0.871368 -0.235464 1 
0.0682552 0.268556 0.0443292 0.552388 0.73925 -0.385197 1 
0.0684507 0.268321 0.0445203 0.452956 0.8491 -0.271773 1 
0.0675672 0.269496 0.0441491 0.526033 0.721844 -0.4497 1 
0.06732 0.269504 0.0444115 0.510096 0.631307 -0.584169 1 
0.0688458 0.268382 0.0446622 0.206927 0.975864 0.069792 1 
0.0685694 0.268513 0.044741 0.506518 0.822511 -0.25868 1 
0.0689829 0.268395 0.0444861 0.206927 0.975864 0.069792 1 
0.068902 0.268292 0.0447559 0.415916 0.909243 -0.0170565 1 
0.056517 0.278221 0.055516 -0.172642 -0.167527 0.970633 1 
0.0566293 0.278041 0.0557034 -0.252726 -0.241555 0.9369 1 
0.05596 0.277953 0.0559136 0.0623334 -0.0601463 0.996241 1 
0.0560561 0.277725 0.055744 0.130369 0.00109554 0.991465 1 
0.0558832 0.278381 0.0559433 0.0616812 -0.197138 0.978433 1 
0.056609 0.277462 0.0555866 -0.135323 -0.0835475 0.987273 1 
0.0542481 0.279904 0.0560355 0.0310181 -0.462574 0.886038 1 
0.0544976 0.279738 0.0560467 0.0610412 -0.427288 0.902053 1 
0.0545947 0.279889 0.0561339 0.0610412 -0.427288 0.902053 1 
0.0553269 0.279342 0.0558105 0.0948258 -0.281879 0.954752 1 
0.0553332 0.279715 0.0558439 0.0643331 -0.26364 0.962474 1 
0.0554034 0.279832 0.056021 0.062592 -0.292522 0.954208 1 
0.0555827 0.279549 0.0558551 0.0620131 -0.354926 0.932835 1 
0.0549479 0.279329 0.0560255 0.0734061 -0.289761 0.95428 1 
0.054747 0.279571 0.0560579 0.0803207 -0.398881 0.913478 1 
0.0552374 0.279025 0.0557734 0.114384 -0.235194 0.965194 1 
0.0551476 0.279626 0.0559764 0.0764144 -0.296592 0.951942 1 
0.0550936 0.279557 0.0561562 0.0734061 -0.289761 0.95428 1 
0.0551961 0.279701 0.05602 0.0736568 -0.295919 0.952369 1 
0.0552393 0.279784 0.056287 0.0734061 -0.289761 0.95428 1 
0.0548172 0.279689 0.056235 0.0803207 -0.398881 0.913478 1 
0.0551422 0.279633 0.0561998 0.0734061 -0.289761 0.95428 1 
0.0558258 0.27901 0.0558329 0.00120751 -0.271689 0.962384 1 
0.0559359 0.278989 0.0557467 -0.00363094 -0.272321 0.9622 1 
0.0557274 0.279396 0.055729 0.0827992 -0.261136 0.961744 1 
0.0558461 0.279589 0.0559497 -0.054468 -0.38659 0.920642 1 
0.0559984 0.279271 0.0558737 -0.0662231 -0.315534 0.946601 1 
0.0556182 0.279797 0.056072 0.05898 -0.264782 0.962503 1 
0.0557424 0.279983 0.0560693 0.0247691 -0.38718 0.921671 1 
0.055901 0.280038 0.0560266 -0.0360475 -0.274707 0.960852 1 
0.055861 0.280176 0.0562899 -0.0494178 -0.29524 0.954144 1 
0.055371 0.279804 0.0563343 0.0736568 -0.295919 0.952369 1 
0.0556884 0.279914 0.0562491 0.00364657 -0.283217 0.959049 1 
0.0555846 0.280308 0.0563686 0.0648006 -0.355742 0.932335 1 
0.0559217 0.279699 0.0559034 -0.0547735 -0.399446 0.915119 1 
0.0562682 0.279685 0.0560017 -0.0751812 -0.338975 0.937787 1 
0.0561981 0.279568 0.0558246 -0.0939539 -0.382624 0.919115 1 
0.0563784 0.279664 0.0559155 -0.105961 -0.331297 0.937558 1 
0.0561915 0.280113 0.0560313 -0.0757066 -0.283579 0.955956 1 
0.056213 0.280154 0.0561648 -0.0783705 -0.278793 0.957148 1 
0.0564219 0.27876 0.0549152 -0.0308366 -0.151899 0.987915 1 
0.0567091 0.278683 0.0554169 -0.211827 -0.267207 0.940069 1 
0.0567316 0.279104 0.0558072 -0.272771 -0.337647 0.900883 1 
0.056981 0.278938 0.0558184 -0.319642 -0.287236 0.902953 1 
0.0572371 0.278226 0.0556228 -0.359144 -0.296031 0.885088 1 
0.0574872 0.279357 0.0561309 -0.297668 -0.168724 0.939642 1 
0.0574453 0.278736 0.0558806 -0.39921 -0.280813 0.872797 1 
0.0577779 0.278514 0.0558956 -0.432039 -0.25316 0.865594 1 
0.0563593 0.278546 0.0558155 -0.200387 -0.27225 0.941129 1 
0.0564348 0.278656 0.0557691 -0.195132 -0.280935 0.93968 1 
0.0565386 0.278262 0.0556495 -0.198089 -0.23043 0.952713 1 
0.0565028 0.278932 0.0556727 -0.172132 -0.301575 0.937775 1 
0.0569607 0.278358 0.0557016 -0.310869 -0.296136 0.903141 1 
0.056802 0.278303 0.0557442 -0.270992 -0.276727 0.921946 1 
0.0572511 0.278433 0.0557063 -0.34377 -0.307742 0.887196 1 
0.0565307 0.279346 0.0558396 -0.147896 -0.335875 0.930223 1 
0.056697 0.279235 0.055847 -0.250471 -0.347144 0.903745 1 
0.0568773 0.279331 0.0559379 -0.267511 -0.32306 0.907783 1 
0.0571959 0.278902 0.0558694 -0.30831 -0.276164 0.910318 1 
0.057212 0.278951 0.0562264 -0.360132 -0.282427 0.889123 1 
0.0570003 0.279207 0.0567056 -0.30404 -0.255048 0.917884 1 
0.0574885 0.278819 0.0561476 -0.39468 -0.242765 0.886168 1 
0.0576678 0.278535 0.0559817 -0.422143 -0.244873 0.87283 1 
0.057724 0.278446 0.0560754 -0.438902 -0.256659 0.861099 1 
0.0575446 0.278729 0.0562413 -0.425635 -0.255987 0.867932 1 
0.05767 0.278377 0.0562553 -0.452893 -0.282865 0.845503 1 
0.0576529 0.277949 0.0556415 -0.465033 -0.347584 0.814205 1 
0.0582489 0.277768 0.0557511 -0.634842 -0.39947 0.661362 1 
0.0581451 0.278161 0.0558706 -0.573539 -0.364385 0.733673 1 
0.0581949 0.277699 0.0559309 -0.635919 -0.406789 0.655843 1 
0.0580911 0.278093 0.0560505 -0.573539 -0.364385 0.733673 1 
0.0580835 0.278258 0.0560004 -0.573539 -0.364385 0.733673 1 
0.0578903 0.278335 0.0560829 -0.454185 -0.310594 0.835014 1 
0.0581397 0.278168 0.0560941 -0.573539 -0.364385 0.733673 1 
0.0580026 0.278155 0.0562702 -0.567426 -0.389797 0.725318 1 
0.0573079 0.279641 0.0562968 -0.260313 -0.20522 0.943463 1 
0.0572539 0.279572 0.0564767 -0.283245 -0.207899 0.936243 1 
0.0545818 0.277219 0.0676738 0.0326958 0.99102 -0.129656 1 
0.0563287 0.277353 0.0682491 0.24231 0.780081 -0.576853 1 
0.0564604 0.277373 0.0682964 0.318994 0.774242 -0.546618 1 
0.056701 0.277911 0.0682408 -0.0673543 0.889351 -0.452236 1 
0.056971 0.277406 0.0681287 0.540551 0.346921 -0.766453 1 
0.0569732 0.277247 0.0684022 0.618601 0.724647 -0.303677 1 
0.0537106 0.276994 0.0676597 0.0457192 0.993557 -0.103705 1 
0.0540226 0.27711 0.0677979 0.0265587 0.997545 -0.0648032 1 
0.0536297 0.276891 0.0679295 0.0457192 0.993557 -0.103705 1 
0.0544717 0.27724 0.06776 0.0372938 0.991111 -0.127703 1 
0.0544177 0.277171 0.0679399 0.0347446 0.991901 -0.122166 1 
0.0542721 0.276944 0.0678091 0.0465389 0.990939 -0.125996 1 
0.0541413 0.277303 0.0680186 0.0139393 0.996124 -0.0868526 1 
0.0543 0.277358 0.067976 0.0442605 0.990755 -0.128242 1 
0.0541911 0.276841 0.0680789 0.0417369 0.991534 -0.122955 1 
0.0540603 0.2772 0.0682884 0.00960791 0.99602 -0.0886063 1 
0.054219 0.277255 0.0682458 0.0442605 0.990755 -0.128242 1 
0.0544015 0.277192 0.0686102 0.0125126 0.986224 -0.164939 1 
0.0543745 0.277158 0.0687001 0.0240172 0.986991 -0.158971 1 
0.0543552 0.276889 0.0678129 0.0442605 0.990755 -0.128242 1 
0.0545215 0.276778 0.0678203 0.0347446 0.991901 -0.122166 1 
0.0549998 0.276783 0.067966 0.0144328 0.991423 -0.129895 1 
0.0548129 0.277233 0.0680818 -0.0128862 0.978182 -0.207351 1 
0.0551163 0.277135 0.0679132 -0.029088 0.983173 -0.180345 1 
0.0553118 0.2769 0.0681042 0.0183469 0.962598 -0.27031 1 
0.0550623 0.277066 0.068093 -0.029088 0.983173 -0.180345 1 
0.0550623 0.277066 0.068093 -0.029088 0.983173 -0.180345 1 
0.0545386 0.277206 0.0684341 -0.0124148 0.98754 -0.156878 1 
0.0546348 0.276978 0.0682644 0.0466082 0.978773 -0.199579 1 
0.0548151 0.277074 0.0683553 0.018065 0.969486 -0.244479 1 
0.0547049 0.277095 0.0684415 0.0762264 0.952184 -0.295862 1 
0.0548366 0.277115 0.0684888 0.0285647 0.957538 -0.286889 1 
0.0549814 0.276963 0.0683628 0.0313502 0.9543 -0.2972 1 
0.0552642 0.277204 0.0683174 -0.0975478 0.988406 -0.116352 1 
0.055127 0.27719 0.0684935 0.178502 0.758254 -0.627047 1 
0.055398 0.277065 0.0686383 0.151136 0.852523 -0.500362 1 
0.0551 0.277156 0.0685835 0.179112 0.748597 -0.638374 1 
0.0551917 0.277314 0.0688941 0.472707 -0.291737 -0.831527 1 
0.0554952 0.277217 0.0687254 0.0997012 0.919163 -0.38105 1 
0.0554574 0.277127 0.068235 0.0498595 0.901513 -0.42987 1 
0.0557609 0.27703 0.0680663 0.0248718 0.917638 -0.396639 1 
0.0557554 0.277037 0.0682898 0.0451234 0.942434 -0.331334 1 
0.0557069 0.276961 0.0682462 0.0579549 0.909757 -0.411076 1 
0.0557284 0.277002 0.0683797 0.0643435 0.936264 -0.345354 1 
0.0558256 0.277154 0.0684668 0.0463043 0.959876 -0.276575 1 
0.0559357 0.277133 0.0683807 0.134046 0.904456 -0.404959 1 
0.0563017 0.277318 0.068339 0.234385 0.857397 -0.458186 1 
0.0562477 0.277249 0.0685189 0.224303 0.859578 -0.459144 1 
0.0560814 0.27736 0.0685114 0.156778 0.893205 -0.421432 1 
0.0560544 0.277326 0.0686013 0.19091 0.871673 -0.451376 1 
0.0553765 0.277024 0.0685048 0.15348 0.821044 -0.549846 1 
0.0555783 0.277162 0.0687291 0.0542758 0.958032 -0.281477 1 
0.0557446 0.277051 0.0687366 0.12099 0.913682 -0.388002 1 
0.0559173 0.277312 0.0687775 0.1628 0.891798 -0.422128 1 
0.0556906 0.276982 0.0689165 0.120506 0.91557 -0.38368 1 
0.0559735 0.277223 0.0688711 0.220067 0.869789 -0.441631 1 
0.054651 0.277026 0.0686214 0.0877129 0.949133 -0.302413 1 
0.0547827 0.277046 0.0686687 0.464621 -0.100268 -0.879815 1 
0.0550461 0.277087 0.0687633 0.247546 0.651187 -0.71741 1 
0.0549651 0.276984 0.0690331 0.407942 0.37329 -0.833209 1 
0.0558363 0.277209 0.0690472 0.180071 0.900353 -0.396155 1 
0.0559522 0.276263 0.0684975 -0.0203767 0.972087 0.233732 1 
0.0560439 0.276422 0.0688081 0.196547 0.93534 -0.294123 1 
0.0567424 0.276386 0.0687814 0.367798 0.929243 -0.0350903 1 
0.0570836 0.276378 0.0691032 0.410764 0.826286 0.385389 1 
0.0562933 0.276256 0.0688193 0.111782 0.984407 0.135822 1 
0.0565847 0.27671 0.0690808 0.518615 0.773883 -0.363515 1 
0.0564334 0.277339 0.0683863 0.32836 0.807417 -0.490161 1 
0.0562001 0.277553 0.0687321 0.233238 0.868249 -0.437886 1 
0.0563934 0.277477 0.0686496 0.324398 0.83215 -0.449769 1 
0.056036 0.277505 0.0689981 0.201756 0.882132 -0.425603 1 
0.0559389 0.277354 0.068911 0.177168 0.879985 -0.440725 1 
0.055982 0.277436 0.069178 0.235464 0.871368 -0.430435 1 
0.056022 0.277298 0.0689147 0.220067 0.869789 -0.441631 1 
0.056334 0.277415 0.0690529 0.351274 0.833292 -0.426885 1 
0.0559614 0.277775 0.0693013 -0.0182694 0.996222 -0.0848992 1 
0.0561817 0.277733 0.0691289 0.20353 0.94662 -0.249973 1 
0.0563273 0.27796 0.0692596 0.124166 0.992232 -0.00769172 1 
0.0564797 0.277642 0.0691836 0.428111 0.866811 -0.255656 1 
0.0563771 0.277498 0.0693199 0.352402 0.852284 -0.386555 1 
0.0565143 0.277511 0.0691438 0.412975 0.80506 -0.42583 1 
0.0559268 0.277906 0.0693411 -0.0425492 0.996087 -0.0774613 1 
0.0559969 0.278023 0.0695182 -0.0662354 0.997737 -0.0115649 1 
0.0556732 0.277541 0.0695701 0.0731542 0.956138 -0.283633 1 
0.0558579 0.27725 0.0691807 0.180071 0.900353 -0.396155 1 
0.0558157 0.277547 0.0691705 0.062318 0.957663 -0.281067 1 
0.0559011 0.277333 0.0694478 0.344667 0.635428 -0.690967 1 
0.0561762 0.27774 0.0693523 0.188954 0.965621 -0.178529 1 
0.0566428 0.27731 0.0686608 0.439025 0.768702 -0.465138 1 
0.0568577 0.277275 0.0687119 0.559893 0.739451 -0.373806 1 
0.0568923 0.277144 0.068672 0.559893 0.739451 -0.373806 1 
0.0565619 0.277207 0.0689306 0.406857 0.786159 -0.465211 1 
0.0566104 0.277283 0.0689742 0.444961 0.787986 -0.425545 1 
0.0573912 0.276812 0.0686944 0.617243 0.717687 0.322392 1 
0.0566472 0.276993 0.0692078 0.518615 0.773883 -0.363515 1 
0.0565662 0.27689 0.0694776 0.526253 0.745935 -0.408215 1 
0.0568557 0.276585 0.0692255 0.581118 0.793537 -0.180556 1 
0.0568157 0.276724 0.0694888 0.681121 0.717366 -0.146494 1 
0.0569474 0.276744 0.0695361 0.69226 0.701429 0.169627 1 
0.0563882 0.276635 0.0696602 0.563463 0.647562 -0.513004 1 
0.0565684 0.276731 0.0697511 0.636641 0.626615 -0.449492 1 
0.0565186 0.277194 0.0696908 0.58162 0.770765 -0.260074 1 
0.0572023 0.276571 0.0693239 0.651973 0.703234 0.283536 1 
0.0571213 0.276467 0.0695937 0.54413 0.655314 0.523914 1 
0.0662331 0.282812 0.0626358 0.157302 -0.0900582 0.983436 1 
0.0657491 0.283731 0.0629537 0.0804246 -0.16445 0.983101 1 
0.0664391 0.283481 0.0626201 0.24447 0.166988 0.95517 1 
0.0659846 0.283358 0.0628814 -0.0267016 -0.179945 0.983314 1 
0.0662935 0.283253 0.0624894 0.372663 0.0405353 0.927081 1 
0.0661833 0.283274 0.0625755 0.24447 0.166988 0.95517 1 
0.0665083 0.283218 0.0625404 0.322777 0.0943093 0.941765 1 
0.0660116 0.283392 0.0627915 -0.0267016 -0.179945 0.983314 1 
0.0662319 0.28335 0.0626191 0.24447 0.166988 0.95517 1 
0.0659758 0.284062 0.0628146 -0.0920115 -0.228138 0.969271 1 
0.0665587 0.28092 0.0621205 0.54186 0.0546061 0.838693 1 
0.0668567 0.28083 0.0621753 0.0624358 -0.484224 0.872713 1 
0.0664179 0.282522 0.0622465 0.144057 0.066758 0.987315 1 
0.0664664 0.282597 0.0622901 0.267741 0.196344 0.943273 1 
0.0663229 0.282211 0.0624329 0.19464 -0.0342095 0.980278 1 
0.0662731 0.282674 0.0623725 0.157302 -0.0900582 0.983436 1 
0.0661706 0.282529 0.0625088 0.204639 0.0569114 0.977182 1 
0.0663931 0.282328 0.0626099 0.0672033 -0.026668 0.997383 1 
0.066474 0.282432 0.0623402 0.0926644 -0.0272542 0.995324 1 
0.0672141 0.280801 0.0618268 0.83082 -0.555272 0.0375748 1 
0.0669538 0.280981 0.0622625 0.00620043 -0.316222 0.948665 1 
0.0678586 0.280696 0.0619799 0.83082 -0.555272 0.0375748 1 
0.0685172 0.280798 0.0622166 0.83082 -0.555272 0.0375748 1 
0.0675224 0.282532 0.0619149 0.0946183 0.329165 0.93952 1 
0.0675989 0.283022 0.0621253 0.0950954 0.234569 0.967437 1 
0.0672974 0.28381 0.0617803 0.38824 0.32072 0.863949 1 
0.0673752 0.283761 0.0620075 0.18526 0.34365 0.920643 1 
0.0674723 0.283913 0.0620947 0.175857 0.276736 0.944718 1 
0.0674453 0.283878 0.0621846 0.179092 0.27479 0.944678 1 
0.0666121 0.282825 0.0624208 0.255524 0.177109 0.950442 1 
0.0669608 0.282651 0.0627927 0.226392 0.25417 0.94029 1 
0.0664835 0.283025 0.0629038 0.236238 0.076246 0.968699 1 
0.0668301 0.28301 0.0630022 0.238314 0.205631 0.949169 1 
0.0670234 0.282934 0.0629197 0.238314 0.205631 0.949169 1 
0.0679358 0.282483 0.0626873 0.0825563 0.252749 0.964003 1 
0.0674791 0.282519 0.0626751 0.135178 0.285079 0.948924 1 
0.0675019 0.282022 0.0628253 0.120263 0.0629951 0.990741 1 
0.0673128 0.28263 0.0626676 0.162068 0.258505 0.952318 1 
0.0682015 0.282296 0.0620282 0.19115 0.0589077 0.979792 1 
0.0683408 0.282151 0.0621256 0.159661 -0.0310134 0.986685 1 
0.0680006 0.282538 0.0620606 0.0686366 0.306922 0.949256 1 
0.068318 0.282648 0.0619753 -0.0649626 0.284052 0.956606 1 
0.0686322 0.282605 0.062387 0.100459 0.0118823 0.99487 1 
0.0687011 0.283261 0.0625475 -0.039705 0.132728 0.990357 1 
0.0679295 0.28211 0.0626539 0.152197 -0.137348 0.97876 1 
0.0678345 0.2818 0.0628403 0.193664 -0.172867 0.965718 1 
0.0686829 0.282522 0.0627042 0.100459 0.0118823 0.99487 1 
0.0686268 0.282612 0.0626105 0.100459 0.0118823 0.99487 1 
0.0679478 0.285913 0.062447 -0.323939 -0.309011 0.89419 1 
0.0679824 0.285781 0.0624072 -0.28713 -0.343664 0.894121 1 
0.0682211 0.28556 0.061838 -0.209451 -0.394002 0.894926 1 
0.0682093 0.285194 0.062028 0.021764 -0.163803 0.986253 1 
0.0684381 0.285366 0.0621625 -0.21761 -0.31717 0.923065 1 
0.0684813 0.285449 0.0624295 -0.209451 -0.394002 0.894926 1 
0.0685028 0.28549 0.062563 -0.209451 -0.394002 0.894926 1 
0.0687307 0.285283 0.0624408 -0.21761 -0.31717 0.923065 1 
0.0687037 0.285248 0.0625307 0.0495429 -0.0326773 0.998237 1 
0.0688808 0.285123 0.0620913 -0.0482122 -0.0524977 0.997457 1 
0.0687999 0.28502 0.062361 -0.0482122 -0.0524977 0.997457 1 
0.0691865 0.284867 0.0621961 -0.0623 -0.0200627 0.997856 1 
0.0694899 0.28477 0.0620275 -0.0648032 0.0265587 0.997545 1 
0.0694372 0.284163 0.062224 0.0299053 0.109653 0.99352 1 
0.0698529 0.283886 0.0622427 -0.0157194 0.257556 0.966136 1 
0.0706603 0.284366 0.0621131 -0.83082 0.555272 -0.0375748 1 
0.0700201 0.284154 0.062507 0.00609175 0.283876 0.958842 1 
0.070519 0.283822 0.0625294 -0.83082 0.555272 -0.0375748 1 
0.0703667 0.28414 0.0626053 -0.83082 0.555272 -0.0375748 1 
0.0687974 0.286097 0.0623276 -0.209451 -0.394002 0.894926 1 
0.0688742 0.285669 0.062298 -0.209451 -0.394002 0.894926 1 
0.0688764 0.28551 0.0625715 -0.21761 -0.31717 0.923065 1 
0.0685771 0.286139 0.0625 -0.28713 -0.343664 0.894121 1 
0.0687344 0.283668 0.0624909 -0.143269 0.0816988 0.986306 1 
0.0702426 0.283954 0.0626081 -0.83082 0.555272 -0.0375748 1 
0.0658402 0.282592 0.0627674 0.129367 -0.0326229 0.99106 1 
0.0660053 0.28302 0.0627581 -0.0460867 -0.183165 0.982001 1 
0.0667088 0.28083 0.0627983 0.00386453 -0.39547 0.918471 1 
0.0662044 0.28117 0.0629993 -0.014021 -0.0938327 0.995489 1 
0.0663597 0.281921 0.0626665 -0.0031519 -0.0766961 0.99705 1 
0.0662559 0.282315 0.0627861 0.117655 -0.0164936 0.992918 1 
0.0660627 0.282391 0.0628685 -0.0251176 0.00301411 0.99968 1 
0.0673369 0.281594 0.0628346 0.154159 -0.151652 0.976338 1 
0.0731777 0.281427 0.0641897 0.83082 -0.555272 0.0375748 1 
0.0693053 0.280368 0.0650686 0.0880251 -0.806656 0.584429 1 
0.0698233 0.281153 0.0651911 -0.0206293 -0.826546 0.562491 1 
0.0690602 0.280217 0.0656044 0.0349797 -0.807333 0.589059 1 
0.0692881 0.280009 0.0654821 -0.0854865 -0.78097 0.61869 1 
0.0689143 0.280907 0.0657137 0.554502 -0.831055 -0.0432987 1 
0.0690599 0.281134 0.0658445 0.578933 -0.814948 0.0263782 1 
0.0692263 0.281024 0.065852 0.582042 -0.812636 0.0291715 1 
0.0689025 0.280541 0.0659038 0.554502 -0.831055 -0.0432987 1 
0.0688063 0.280769 0.0660734 0.554502 -0.831055 -0.0432987 1 
0.0687987 0.280935 0.0660233 0.597924 -0.800514 -0.0407995 1 
0.0694163 0.280795 0.0662664 0.615078 -0.788456 0.00412804 1 
0.0696949 0.280505 0.0664612 -0.171857 -0.758907 0.628113 1 
0.0705729 0.280116 0.0652414 0.139982 -0.681849 0.717974 1 
0.0709033 0.280053 0.0649828 0.357076 -0.85791 -0.369442 1 
0.0708481 0.280522 0.0651459 0.229819 -0.544471 0.806681 1 
0.0709334 0.280308 0.0654232 0.284748 -0.57745 0.765161 1 
0.0708223 0.27995 0.0652526 0.301778 -0.905333 -0.298834 1 
0.0723928 0.281367 0.0647096 0.588363 -0.79301 0.158 1 
0.0719513 0.281071 0.0647976 0.569417 -0.819335 0.0667396 1 
0.0720367 0.280857 0.0650748 0.585387 -0.806885 0.0791064 1 
0.0714419 0.2805 0.064982 0.597924 -0.800514 0.0407995 1 
0.0714904 0.280576 0.0650256 0.597924 -0.800514 0.0407995 1 
0.0713178 0.280314 0.0649847 0.597924 -0.800514 0.0407995 1 
0.0714149 0.280466 0.0650719 0.597924 -0.800514 0.0407995 1 
0.0714635 0.280541 0.0651155 0.597924 -0.800514 0.0407995 1 
0.0717732 0.280817 0.0649802 0.597924 -0.800514 0.0407995 1 
0.0717193 0.280748 0.06516 0.597924 -0.800514 0.0407995 1 
0.0719827 0.280788 0.0652547 0.597924 -0.800514 0.0407995 1 
0.0717894 0.280865 0.0653371 0.597924 -0.800514 0.0407995 1 
0.0721932 0.281071 0.0647587 0.555535 -0.82833 0.0724611 1 
0.0723734 0.281167 0.0648496 0.590427 -0.795663 0.135337 1 
0.0720852 0.280933 0.0651184 0.57354 -0.817117 0.0580621 1 
0.0722925 0.281064 0.0651194 0.55816 -0.828101 0.0520199 1 
0.0721769 0.281092 0.065429 0.587785 -0.808379 0.0321118 1 
0.0718649 0.280975 0.0652908 0.597924 -0.800514 0.0407995 1 
0.0720312 0.280864 0.0652983 0.610626 -0.789971 0.0555115 1 
0.0721823 0.281085 0.0652056 0.554502 -0.831055 0.0432987 1 
0.0719275 0.281258 0.0654178 0.592077 -0.805613 0.020799 1 
0.0695782 0.281002 0.0657269 -0.0178532 -0.83086 0.556195 1 
0.0696214 0.281085 0.0659939 -0.401052 -0.5892 0.701428 1 
0.069331 0.28101 0.0659892 0.615078 -0.788456 0.00412804 1 
0.0695944 0.28105 0.0660838 0.615078 -0.788456 0.00412804 1 
0.0697045 0.281029 0.0659976 -0.0639378 -0.8113 0.581124 1 
0.0696775 0.280995 0.0660875 -0.0639378 -0.8113 0.581124 1 
0.0700165 0.281146 0.0661359 -0.0464664 -0.804009 0.592798 1 
0.070065 0.281222 0.0661794 -0.0666988 -0.827348 0.557715 1 
0.0696451 0.280967 0.0664009 0.615078 -0.788456 0.00412804 1 
0.0699355 0.281042 0.0664056 -0.0949194 -0.778339 0.620627 1 
0.0700812 0.28127 0.0665364 0.541454 -0.82486 -0.162585 1 
0.0699031 0.281015 0.066719 0.541454 -0.82486 -0.162585 1 
0.070104 0.280773 0.0666866 -0.156873 -0.811259 0.56325 1 
0.0698318 0.281436 0.0665252 0.541454 -0.82486 -0.162585 1 
0.0700336 0.281574 0.0667496 0.74408 -0.356572 -0.564979 1 
0.0700003 0.281167 0.0668061 0.681717 -0.47737 -0.554419 1 
0.0699796 0.281505 0.0669294 0.802647 -0.274879 -0.529339 1 
0.0701945 0.28147 0.0669805 0.834588 -0.327259 -0.44313 1 
0.0703456 0.28169 0.0668878 0.858657 -0.34501 -0.379047 1 
0.0711676 0.280473 0.0653342 0.0293786 -0.782031 -0.622547 1 
0.0710845 0.280529 0.0653305 0.0293786 -0.782031 -0.622547 1 
0.0710305 0.28046 0.0655103 0.319224 -0.55022 0.771592 1 
0.0709086 0.280115 0.0657866 0.371453 -0.58418 0.721634 1 
0.0712638 0.280245 0.0651646 0.59272 -0.803086 0.0611198 1 
0.07128 0.280294 0.0655215 0.59272 -0.803086 0.0611198 1 
0.0715552 0.2807 0.0654261 0.597924 -0.800514 0.0407995 1 
0.0714796 0.28059 0.0654724 0.597924 -0.800514 0.0407995 1 
0.0715282 0.280665 0.065516 0.597924 -0.800514 0.0407995 1 
0.0716253 0.280817 0.0656032 0.597924 -0.800514 0.0407995 1 
0.0714257 0.280521 0.0656523 0.59272 -0.803086 0.0611198 1 
0.0715713 0.280748 0.065783 0.597924 -0.800514 0.0407995 1 
0.071253 0.280259 0.0656115 0.596016 -0.800852 0.0583214 1 
0.0712476 0.280266 0.0658349 0.387145 -0.859123 0.334703 1 
0.0714742 0.280597 0.0656959 0.597924 -0.800514 0.0407995 1 
0.071798 0.281079 0.065644 0.610626 -0.789971 0.0555115 1 
0.0697089 0.280712 0.0665447 -0.241236 -0.707942 0.663794 1 
0.0603785 0.284484 0.0678576 0.83082 -0.555272 0.0375748 1 
0.0605698 0.283718 0.0682888 0.733836 -0.155846 -0.661209 1 
0.060374 0.284871 0.0683379 0.83082 -0.555272 0.0375748 1 
0.0610459 0.283882 0.068161 0.265829 -0.105035 -0.958281 1 
0.0606466 0.28329 0.0682592 0.60997 -0.243047 -0.754231 1 
0.0611226 0.283454 0.0681314 0.638922 -0.289837 -0.712582 1 
0.0613882 0.283336 0.0684995 0.722396 -0.389995 -0.571006 1 
0.061441 0.283943 0.068303 0.169805 -0.144648 -0.974804 1 
0.06136 0.28384 0.0685727 -0.154029 -0.298516 -0.941893 1 
0.0592196 0.282189 0.0676321 0.383276 -0.28935 -0.877141 1 
0.0591926 0.282155 0.0677221 0.374855 -0.26434 -0.888599 1 
0.0594421 0.281989 0.0677333 0.40912 -0.200894 -0.890092 1 
0.0599866 0.280662 0.0680561 0.19266 -0.235772 -0.95252 1 
0.0603332 0.280647 0.0681545 0.488968 -0.240652 -0.838449 1 
0.0603589 0.28122 0.0680478 0.679875 -0.129998 -0.721714 1 
0.0603049 0.281151 0.0682277 0.679502 -0.172548 -0.713095 1 
0.0601948 0.281172 0.0683139 0.655089 -0.165672 -0.737165 1 
0.0597288 0.279766 0.0685252 0.955743 -0.225903 -0.188475 1 
0.0599424 0.280269 0.0685595 0.274807 -0.200236 -0.940418 1 
0.060275 0.280047 0.0685745 0.0552137 -0.107047 -0.99272 1 
0.0594068 0.280891 0.0683035 0.504303 -0.210505 -0.837476 1 
0.0596495 0.28127 0.0685214 0.383018 -0.24105 -0.891736 1 
0.0598289 0.280987 0.0683555 0.20918 -0.267363 -0.940617 1 
0.0599745 0.281214 0.0684863 0.674606 -0.149409 -0.7229 1 
0.0600783 0.280821 0.0683667 0.682334 -0.162605 -0.712727 1 
0.0600989 0.280482 0.0682434 0.425635 -0.255987 -0.867932 1 
0.0600783 0.280821 0.0683667 0.682334 -0.162605 -0.712727 1 
0.0602176 0.280675 0.0684641 0.541907 -0.233128 -0.807458 1 
0.0603332 0.280647 0.0681545 0.488968 -0.240652 -0.838449 1 
0.0602294 0.281041 0.068274 0.675463 -0.179205 -0.715287 1 
0.060224 0.281048 0.0684975 0.641255 -0.20242 -0.740147 1 
0.0601408 0.281103 0.0684937 0.666137 -0.199377 -0.718686 1 
0.060018 0.280379 0.0685132 0.397475 -0.239676 -0.885759 1 
0.0600202 0.28022 0.0687867 0.599624 -0.250237 -0.760153 1 
0.0600675 0.280834 0.0688136 0.628494 -0.189009 -0.7545 1 
0.0597644 0.280014 0.0687422 0.51886 -0.306239 -0.798124 1 
0.0598745 0.279993 0.068656 0.296281 -0.264485 -0.91775 1 
0.0598063 0.280635 0.0689925 0.628857 -0.250597 -0.73603 1 
0.0599932 0.280186 0.0688766 0.597127 -0.253661 -0.760983 1 
0.0596709 0.28216 0.0678677 0.536119 -0.152965 -0.830168 1 
0.05959 0.282057 0.0681375 0.568026 -0.157369 -0.807825 1 
0.0602336 0.281572 0.0680339 0.522563 -0.13613 -0.841663 1 
0.060107 0.282463 0.0680032 0.603632 -0.187966 -0.774788 1 
0.0605443 0.282227 0.0681554 0.590602 -0.154789 -0.791978 1 
0.0601784 0.282042 0.068197 0.601425 -0.0822092 -0.794688 1 
0.0600467 0.282021 0.0681497 0.575896 -0.0668324 -0.814786 1 
0.05982 0.281691 0.0682887 0.577729 -0.122014 -0.807057 1 
0.0602961 0.281855 0.0681609 0.630738 -0.104388 -0.768942 1 
0.0601526 0.281469 0.0683037 0.659501 -0.156158 -0.735305 1 
0.0601256 0.281435 0.0683936 0.659501 -0.156158 -0.735305 1 
0.060118 0.2816 0.0683435 0.667748 -0.126977 -0.733477 1 
0.0603468 0.281772 0.068478 0.643422 -0.132864 -0.753893 1 
0.0603608 0.281979 0.0685614 0.633415 -0.123123 -0.763955 1 
0.0605671 0.28173 0.0683056 0.641026 -0.126421 -0.757036 1 
0.0602527 0.28269 0.068134 0.584152 -0.208075 -0.78452 1 
0.0607731 0.282399 0.0682899 0.639068 -0.1754 -0.748884 1 
0.0607103 0.283034 0.0684029 0.707483 -0.357826 -0.609449 1 
0.0605171 0.28311 0.0684854 0.646462 -0.307916 -0.69805 1 
0.0607871 0.282606 0.0683733 0.677409 -0.237329 -0.69627 1 
0.0607331 0.282537 0.0685531 0.693827 -0.223967 -0.684429 1 
0.0601827 0.281724 0.068744 0.657331 -0.136258 -0.741182 1 
0.0603697 0.281275 0.0686282 0.676372 -0.172528 -0.716069 1 
0.0605921 0.281075 0.0687293 0.655793 -0.203094 -0.727109 1 
0.0606892 0.281226 0.0688165 0.678758 -0.189313 -0.709541 1 
0.0607378 0.281302 0.0688601 0.682619 -0.172564 -0.710107 1 
0.060854 0.282571 0.0690473 0.750648 -0.257591 -0.60842 1 
0.0607959 0.281971 0.0694673 0.721277 -0.117486 -0.68261 1 
0.0610453 0.281805 0.0694785 0.724974 -0.143186 -0.673729 1 
0.0612102 0.283081 0.0686821 0.775179 -0.364124 -0.516247 1 
0.0608486 0.282578 0.0692708 0.787783 -0.258418 -0.559122 1 
0.0612939 0.28119 0.0682057 0.713497 -0.123633 -0.689664 1 
0.0610888 0.280901 0.0684782 0.680257 -0.220497 -0.699022 1 
0.0611697 0.281073 0.0692357 0.727704 -0.0798876 -0.681224 1 
0.0612474 0.281025 0.0694629 0.690116 -0.308694 -0.65456 1 
0.060998 0.281191 0.0694517 0.725861 -0.0890896 -0.682047 1 
0.0614137 0.280914 0.0694703 0.428656 0.632142 -0.645485 1 
0.0634243 0.284724 0.0651939 -0.0651767 -0.222585 0.972732 1 
0.0636747 0.284937 0.0654618 -0.0904905 -0.0316172 0.995395 1 
0.0635375 0.284924 0.065638 -0.0971442 -0.145117 0.984634 1 
0.0633442 0.285 0.0657204 -0.0625773 -0.222088 0.973016 1 
0.0638755 0.284695 0.0654295 -0.136148 -0.00553449 0.990673 1 
0.0633995 0.284531 0.0655573 -0.168879 -0.263451 0.949775 1 
0.0640916 0.284122 0.0654972 -0.207706 0.00116037 0.978191 1 
0.0642913 0.284418 0.0654481 -0.232838 0.0426666 0.971579 1 
0.064244 0.283804 0.0654213 -0.250123 0.00837731 0.968178 1 
0.0644782 0.283969 0.0653323 -0.218772 0.0574428 0.974084 1 
0.0646361 0.282796 0.0658201 -0.527112 0.074898 0.846489 1 
0.064799 0.283382 0.0655373 -0.505198 0.0203163 0.862764 1 
0.0650688 0.283795 0.0656653 -0.43709 0.0612743 0.897328 1 
0.0648422 0.283464 0.0658043 -0.509457 0.0600182 0.8584 1 
0.0650916 0.283298 0.0658155 -0.543049 0.0575324 0.837727 1 
0.0652255 0.28316 0.0661364 -0.618556 -0.0380433 0.784819 1 
0.0652589 0.283567 0.0660798 -0.54186 0.0546061 0.838693 1 
0.0643043 0.288158 0.0644374 0.69567 0.670316 0.258301 1 
0.0645106 0.287909 0.0641816 0.683808 0.670996 0.286655 1 
0.0645267 0.287958 0.0645385 0.749687 0.557793 0.356142 1 
0.0644458 0.287854 0.0648083 0.735115 0.547636 0.399626 1 
0.0645289 0.287799 0.064812 0.795541 0.483753 0.364824 1 
0.0649285 0.287473 0.0644737 0.785866 0.506233 0.355166 1 
0.0651316 0.287073 0.0647149 0.829954 0.418929 0.368341 1 
0.0646597 0.28744 0.0646026 0.77658 0.504209 0.377752 1 
0.0646413 0.287619 0.0649993 0.77658 0.504209 0.377752 1 
0.0647784 0.287633 0.0648232 0.77658 0.504209 0.377752 1 
0.0645235 0.287806 0.0650355 0.806243 0.485018 0.338718 1 
0.0651573 0.287645 0.0646082 0.785866 0.506233 0.355166 1 
0.0648539 0.287743 0.0647769 0.788364 0.502562 0.354844 1 
0.0648725 0.286715 0.0651672 -0.208364 0.352063 0.912489 1 
0.0649967 0.286901 0.0651645 -0.229069 0.391634 0.891151 1 
0.0647244 0.287564 0.0650031 0.779126 0.50052 0.377415 1 
0.0646165 0.287426 0.0653628 0.80442 0.44797 0.390168 1 
0.0648767 0.287246 0.0649271 0.827363 0.431874 0.359104 1 
0.0649739 0.287397 0.0650143 0.827363 0.431874 0.359104 1 
0.0648659 0.28726 0.065374 -0.371102 0.319178 0.872014 1 
0.0649157 0.286797 0.0654343 -0.209031 0.358957 0.909646 1 
0.0648887 0.286763 0.0655242 -0.208364 0.352063 0.912489 1 
0.0648119 0.287191 0.0655538 -0.294208 0.366628 0.882624 1 
0.0647053 0.286446 0.064903 0.72822 0.314862 0.608734 1 
0.0653435 0.285968 0.0650228 -0.998902 -0.0462931 -0.00720115 1 
0.0649763 0.286321 0.0650477 -0.355888 0.29282 0.887468 1 
0.0650131 0.286031 0.0652814 -0.889642 0.141827 0.434076 1 
0.0651233 0.28601 0.0651952 -0.889642 0.141827 0.434076 1 
0.0654727 0.287065 0.0650367 -0.343711 0.32857 0.879719 1 
0.0652439 0.286893 0.0649022 -0.343711 0.32857 0.879719 1 
0.0652667 0.286396 0.0650524 -0.0115798 0.379559 0.925095 1 
0.0653486 0.286879 0.0650394 -0.268329 0.385255 0.882937 1 
0.0649849 0.286535 0.0653546 0.73621 0.342914 0.583442 1 
0.0652191 0.2867 0.0652656 -0.208364 0.352063 0.912489 1 
0.0650195 0.286404 0.0653147 0.889288 0.254721 0.379847 1 
0.0651858 0.286293 0.0653222 -0.266592 0.316123 0.910492 1 
0.0652419 0.286203 0.0654158 -0.0289879 0.313825 0.949038 1 
0.0654686 0.286534 0.0652768 -0.14555 0.391429 0.908625 1 
0.0653876 0.28643 0.0655466 -0.145121 0.384642 0.911587 1 
0.0641323 0.285281 0.0657308 -0.303913 0.235425 0.923153 1 
0.0644087 0.285149 0.0656521 -0.308457 0.220326 0.925371 1 
0.0647737 0.284955 0.0653537 -0.300726 0.232315 0.924983 1 
0.0653352 0.284905 0.0655031 -0.508102 0.224297 0.831579 1 
0.0645471 0.284625 0.0654927 -0.238658 0.119974 0.963664 1 
0.0649422 0.284686 0.0656346 -0.302887 0.13327 0.943662 1 
0.0650447 0.28483 0.0654984 -0.355739 0.152061 0.922132 1 
0.0652542 0.284802 0.0657729 -0.499545 0.145029 0.854061 1 
0.0651301 0.284616 0.0657756 -0.367184 0.116894 0.922774 1 
0.0649182 0.285721 0.0654677 -0.569505 0.316035 0.758805 1 
0.0647658 0.286039 0.0655437 -0.345201 0.291404 0.892143 1 
0.0649613 0.285803 0.0657347 -0.536448 0.310408 0.784774 1 
0.0647185 0.285425 0.0655168 -0.446881 0.271814 0.852299 1 
0.0647283 0.2851 0.0658404 -0.297038 0.165629 0.940391 1 
0.064968 0.285258 0.065528 -0.577373 0.248787 0.777654 1 
0.0653145 0.285244 0.0656264 -0.606024 0.236459 0.759488 1 
0.0653685 0.285312 0.0654465 -0.681407 0.258903 0.684583 1 
0.0652648 0.285706 0.0655661 -0.652148 0.251069 0.71531 1 
0.0652648 0.285706 0.0655661 -0.652148 0.251069 0.71531 1 
0.0653771 0.285526 0.0657534 -0.768561 0.256187 0.586244 1 
0.0650381 0.285375 0.0657051 -0.585884 0.242165 0.773367 1 
0.0652821 0.285216 0.0659397 -0.638434 0.244339 0.729864 1 
0.0653859 0.284822 0.0658202 -0.512307 0.13574 0.848007 1 
0.0655088 0.285547 0.0658007 -0.894805 0.172022 0.411986 1 
0.0653793 0.285368 0.0660269 -0.657721 0.272325 0.702312 1 
0.0654278 0.285443 0.0660705 -0.706421 0.258757 0.658797 1 
0.0636747 0.284937 0.0654618 -0.0904905 -0.0316172 0.995395 1 
0.0638841 0.284909 0.0657363 -0.181321 0.0864014 0.979621 1 
0.0639888 0.284895 0.0658736 -0.203157 0.066908 0.976857 1 
0.0642707 0.284756 0.0655714 -0.221721 0.0914443 0.970813 1 
0.0642154 0.285226 0.0657345 -0.30851 0.242503 0.91979 1 
0.0645772 0.28488 0.0659331 -0.27137 0.114054 0.955694 1 
0.064369 0.28437 0.0656753 -0.273006 0.041138 0.961132 1 
0.0645687 0.284666 0.0656262 -0.251686 0.109709 0.961571 1 
0.0648819 0.284244 0.0657811 -0.27863 0.067431 0.958028 1 
0.064965 0.284189 0.0657849 -0.321719 0.0690327 0.944315 1 
0.0649098 0.284658 0.065948 -0.303778 0.0933691 0.948157 1 
0.0649952 0.284444 0.0662252 -0.359756 0.0677032 0.930587 1 
0.0650609 0.284878 0.0658553 -0.352253 0.121987 0.927921 1 
0.0653589 0.284788 0.0659101 -0.455053 0.136372 0.87996 1 
0.0654506 0.284946 0.0662207 -0.60591 0.15486 0.780315 1 
0.0654215 0.285071 0.0660371 -0.686544 0.153071 0.710793 1 
0.0655478 0.285098 0.0663079 -0.686567 0.165933 0.707879 1 
0.0653668 0.283705 0.0657201 -0.536889 0.063412 0.841267 1 
0.0653506 0.283725 0.0663904 -0.581957 0.0552222 0.811342 1 
0.0652446 0.284278 0.0662364 -0.36041 0.0620485 0.930728 1 
0.0653957 0.284498 0.0661438 -0.436869 0.0671052 0.897019 1 
0.0656169 0.284836 0.0662282 -0.568735 0.103274 0.816011 1 
0.0649385 0.2863 0.0655845 -0.132066 0.328124 0.935357 1 
0.065001 0.286583 0.0657115 0.826616 0.289081 0.482844 1 
0.064974 0.286549 0.0658014 0.698239 0.340168 0.62988 1 
0.0655377 0.28634 0.0662244 0.201456 0.416146 0.8867 1 
0.0654104 0.285933 0.0656968 -0.926425 0.119053 0.357159 1 
0.0655713 0.285829 0.0659277 -0.894455 0.159365 0.417795 1 
0.0655443 0.285795 0.0660176 -0.870651 0.146804 0.469483 1 
0.0654212 0.285989 0.0662772 -0.823969 0.137082 0.549804 1 
0.0561339 0.279527 0.064686 -0.149512 -0.250069 0.956614 1 
0.0580959 0.278638 0.064045 -0.0831297 -0.32856 0.940817 1 
0.0585386 0.278395 0.0639738 -0.223149 -0.338322 0.91419 1 
0.0588918 0.277836 0.0638654 -0.356361 -0.56139 0.746893 1 
0.0560812 0.278851 0.0638554 -0.0892364 -0.339631 0.936316 1 
0.0561526 0.27843 0.0640492 -0.111404 -0.375472 0.920114 1 
0.0563329 0.278526 0.0641401 -0.0503903 -0.332059 0.941912 1 
0.0567067 0.277628 0.0639084 -0.0961616 -0.438998 0.893327 1 
0.0566946 0.27818 0.0643386 0.028964 -0.308529 0.950774 1 
0.0563402 0.279278 0.0644302 -0.0688265 -0.244021 0.967324 1 
0.0563833 0.279361 0.0646972 -0.0661746 -0.243473 0.967648 1 
0.0565896 0.279112 0.0644414 -0.0358625 -0.265877 0.96334 1 
0.0575992 0.278812 0.0642961 -0.0530578 -0.327405 0.943393 1 
0.0568943 0.278476 0.0642895 0.0112396 -0.318455 0.947871 1 
0.0568403 0.278407 0.0644693 0.0112396 -0.318455 0.947871 1 
0.0567226 0.278594 0.0645054 0.0162853 -0.316937 0.948307 1 
0.0571383 0.278316 0.0645241 -0.0112923 -0.327478 0.944791 1 
0.0568683 0.278821 0.0646362 0.0112396 -0.318455 0.947871 1 
0.0574351 0.278764 0.0645622 -0.0424766 -0.335951 0.940921 1 
0.0572354 0.278468 0.0646113 -0.0345665 -0.336703 0.940976 1 
0.0559193 0.278644 0.0643949 -0.192034 -0.315384 0.929331 1 
0.0560294 0.278623 0.0643087 -0.130739 -0.353684 0.926183 1 
0.0560986 0.278361 0.064229 -0.122625 -0.367875 0.921754 1 
0.0562789 0.278457 0.0643199 -0.0584527 -0.331232 0.941737 1 
0.0562173 0.278554 0.0644497 -0.117258 -0.322121 0.939409 1 
0.0564452 0.278346 0.0643274 -0.0292424 -0.326752 0.944658 1 
0.056011 0.278803 0.0647055 -0.143777 -0.286211 0.947318 1 
0.056363 0.278781 0.0645804 -0.062103 -0.275028 0.959428 1 
0.0565909 0.278573 0.0644581 0.0137152 -0.31545 0.948843 1 
0.0570857 0.27764 0.0636934 0.00123815 -0.320681 0.947186 1 
0.0574246 0.277791 0.0637417 0.0645424 -0.35169 0.933889 1 
0.0575779 0.277853 0.0639225 -0.0163877 -0.329014 0.944183 1 
0.0570047 0.277537 0.0639632 0.0220791 -0.383138 0.923427 1 
0.0574893 0.277915 0.0641422 -0.0243053 -0.34667 0.937672 1 
0.0572961 0.277992 0.0642247 -0.0238542 -0.310105 0.950403 1 
0.0577388 0.277749 0.0641534 -0.0564223 -0.355592 0.932937 1 
0.0573459 0.277529 0.064285 0.0271812 -0.371477 0.928044 1 
0.0580959 0.278638 0.064045 -0.0831297 -0.32856 0.940817 1 
0.0578693 0.278308 0.064184 -0.08903 -0.330873 0.939466 1 
0.0579448 0.278418 0.0641377 -0.085963 -0.329304 0.940303 1 
0.0575595 0.278032 0.0643193 -0.0294889 -0.347456 0.937233 1 
0.0575389 0.278371 0.0644426 -0.0372453 -0.335208 0.941408 1 
0.0576912 0.278053 0.0643666 -0.0559515 -0.334408 0.940766 1 
0.0573932 0.278143 0.0643119 -0.058173 -0.321891 0.944988 1 
0.0575874 0.278446 0.0644862 -0.0424766 -0.335951 0.940921 1 
0.0589966 0.277822 0.0640026 -0.408759 -0.577559 0.706641 1 
0.0587903 0.27807 0.0642585 -0.314891 -0.397837 0.861725 1 
0.0570479 0.27762 0.0642302 0.0452254 -0.339837 0.939396 1 
0.0571935 0.277847 0.0643609 0.0137152 -0.31545 0.948843 1 
0.0566661 0.279601 0.0646518 -0.0557815 -0.244199 0.968119 1 
0.0574608 0.279337 0.0644555 -0.0134732 -0.282936 0.959044 1 
0.0576887 0.279129 0.0643332 -0.0162336 -0.310937 0.950292 1 
0.0577449 0.279039 0.0644269 -0.0110603 -0.288796 0.957327 1 
0.0569848 0.279173 0.0645833 0.0157562 -0.258159 0.965974 1 
0.0571089 0.279359 0.0645806 0.0157562 -0.258159 0.965974 1 
0.0575106 0.278874 0.0645158 -0.0396856 -0.329007 0.943493 1 
0.0573107 0.279496 0.064805 0.0838894 -0.226627 0.970362 1 
0.0581445 0.278714 0.0640886 -0.0832016 -0.326203 0.941631 1 
0.0579112 0.278929 0.0644343 -0.0413893 -0.287217 0.956971 1 
0.0581876 0.278797 0.0643556 -0.111275 -0.323098 0.939801 1 
0.0583063 0.27899 0.0645763 -0.246174 -0.430428 0.868407 1 
0.0581552 0.278769 0.064669 -0.207887 -0.376522 0.902781 1 
0.0585062 0.278368 0.0642871 -0.267824 -0.375552 0.88726 1 
0.0591508 0.278263 0.0644403 -0.474536 -0.601974 0.642217 1 
0.058909 0.278263 0.0644791 -0.357284 -0.522184 0.774385 1 
0.0586055 0.278361 0.0646478 -0.257308 -0.348468 0.901312 1 
0.0586541 0.278437 0.0646913 -0.305211 -0.46486 0.831114 1 
0.0589242 0.277932 0.0645793 -0.362371 -0.541119 0.758866 1 
0.059126 0.27807 0.0648037 -0.507051 -0.567695 0.648554 1 
0.0587242 0.278554 0.0648685 -0.350148 -0.524415 0.776135 1 
0.0590603 0.277566 0.0641464 -0.456538 -0.576943 0.677281 1 
0.059179 0.277759 0.0643671 -0.517964 -0.571954 0.636067 1 
0.0595386 0.277572 0.0642921 -0.650015 -0.592907 0.475334 1 
0.0594555 0.277627 0.0642883 -0.652983 -0.592553 0.471692 1 
0.0592276 0.277835 0.0644106 -0.514256 -0.568211 0.642399 1 
0.0593041 0.278324 0.0646211 -0.574173 -0.648259 0.500086 1 
0.059803 0.277992 0.0646435 -0.668265 -0.567774 0.480682 1 
0.0592707 0.277917 0.0646776 -0.592903 -0.582768 0.555741 1 
0.0593894 0.27811 0.0648983 -0.621362 -0.631411 0.463928 1 
0.0596389 0.277944 0.0649095 -0.665132 -0.57131 0.480838 1 
0.0594186 0.277986 0.0650819 -0.660886 -0.614274 0.431157 1 
0.059357 0.278083 0.0652117 -0.621362 -0.631411 0.463928 1 
0.059668 0.27782 0.0650931 -0.659215 -0.571991 0.488121 1 
0.0594542 0.278234 0.0652989 -0.55595 -0.686172 0.469135 1 
0.0584979 0.269126 0.0317225 -0.655439 -0.413175 0.632208 0 
0.0580416 0.268175 0.030443 -0.983098 -0.112735 -0.144252 0 
0.0581831 0.267871 0.0308139 -0.87849 -0.400952 0.259793 0 
0.0584411 0.267919 0.031132 -0.937123 -0.282669 0.204691 0 
0.0582685 0.267657 0.0310911 -0.873977 -0.478373 0.085574 0 
0.0582478 0.267995 0.0312144 -0.951519 -0.266318 0.153903 0 
0.0583947 0.267684 0.0313619 -0.949253 -0.270638 0.160229 0 
0.0583677 0.26765 0.0314518 -0.949253 -0.270638 0.160229 0 
0.0587858 0.267145 0.0307167 -0.636623 -0.761276 0.123169 0 
0.058913 0.267552 0.0312443 -0.868335 -0.478234 0.131478 0 
0.0588775 0.267304 0.0310273 -0.615999 -0.787648 0.0124584 0 
0.0584259 0.26825 0.0310318 -0.857738 -0.347731 0.378641 0 
0.058291 0.268078 0.0314814 -0.943579 -0.190913 0.270575 0 
0.0583449 0.268147 0.0313016 -0.942476 -0.222165 0.249763 0 
0.0583395 0.268154 0.031525 -0.9422 -0.153634 0.297751 0 
0.0584992 0.268588 0.0317392 -0.91525 -0.0521091 0.399503 0 
0.0587401 0.268208 0.0314435 -0.924575 -0.104849 0.36629 0 
0.0587467 0.267663 0.0312368 -0.953331 -0.292836 0.0735316 0 
0.0590123 0.267545 0.031605 -0.875688 -0.371826 0.308084 0 
0.0592888 0.267413 0.0315262 -0.78126 -0.590934 0.201071 0 
0.0583544 0.26874 0.0318653 -0.93743 0.0642435 0.342195 0 
0.0585477 0.268664 0.0317828 -0.916264 -0.0249056 0.3998 0 
0.0581712 0.267575 0.0320312 -0.942627 -0.241522 0.230481 0 
0.0581734 0.267416 0.0323047 -0.861941 -0.451349 0.230958 0 
0.05821 0.267975 0.0317512 -0.943579 -0.190913 0.270575 0 
0.0587629 0.267711 0.0315938 -0.944262 -0.195979 0.264503 0 
0.0587305 0.267684 0.0319071 -0.932374 -0.0898835 0.350143 0 
0.0590069 0.267552 0.0318284 -0.927607 -0.124686 0.352134 0 
0.0592272 0.26751 0.031656 -0.639159 0.768396 -0.0323091 0 
0.0587952 0.267808 0.0323076 -0.926612 0.00382371 0.375998 0 
0.0590716 0.267676 0.0322289 -0.931712 0.0192238 0.362688 0 
0.0589421 0.267497 0.0324551 -0.942486 -0.0062582 0.334188 0 
0.0585207 0.26863 0.0318727 -0.916264 -0.0249056 0.3998 0 
0.0584668 0.268561 0.0320526 -0.913961 -0.0603939 0.401284 0 
0.0584461 0.268899 0.0321759 -0.940079 0.0533101 0.336764 0 
0.0585001 0.268968 0.031996 -0.926239 0.00638785 0.376883 0 
0.0587096 0.26894 0.0322705 -0.921215 -0.0274404 0.388086 0 
0.0587657 0.26885 0.0323641 -0.937233 0.0294889 0.347456 0 
0.0588143 0.268925 0.0324077 -0.929319 0.0167097 0.3689 0 
0.0587333 0.268822 0.0326775 -0.949885 0.0578414 0.307202 0 
0.059257 0.268683 0.0323365 -0.860343 -0.160303 0.483851 0 
0.0579671 0.267665 0.0325605 -0.971728 -0.0783852 0.222713 0 
0.0583623 0.267726 0.0327025 -0.95108 -0.0630621 0.302441 0 
0.0587618 0.267401 0.0323642 -0.916747 -0.258422 0.30462 0 
0.0586927 0.267663 0.0324439 -0.937601 -0.034726 0.345974 0 
0.0587574 0.267787 0.0328444 -0.904679 0.0278159 0.425186 0 
0.0588802 0.268511 0.032825 -0.838024 -0.145807 0.52579 0 
0.0594007 0.26822 0.0329809 -0.812659 -0.173387 0.556347 0 
0.0587929 0.268035 0.0330614 -0.882749 -0.00397038 0.469829 0 
0.0589295 0.269884 0.0333654 0.536781 -0.763819 0.358395 0 
0.0591047 0.269001 0.0324124 -0.878562 -0.118186 0.462776 0 
0.0592234 0.269194 0.0326331 -0.635717 -0.461272 0.618944 0 
0.0592364 0.269021 0.0324598 -0.84295 -0.136338 0.52043 0 
