0.0609252 0.272296 0.0484859 -0.654287 -0.644348 0.395885 1 
0.0613073 0.27214 0.0485832 -0.0618653 -0.738067 0.671885 1 
0.0615592 0.272034 0.0483481 -0.00687361 -0.598004 0.801463 1 
0.0621594 0.27157 0.0477116 0.0572334 -0.381999 0.922389 1 
0.0621888 0.271533 0.0478448 0.184073 -0.210559 0.960095 1 
0.0623105 0.271478 0.0472773 0.243203 -0.0819077 0.966511 1 
0.0625415 0.271414 0.0478088 0.237575 -0.0684116 0.968957 1 
0.0629069 0.271392 0.0475722 0.2857 0.138155 0.948308 1 
0.0630747 0.271164 0.0474719 0.274412 0.163566 0.947599 1 
0.0628648 0.271331 0.0476396 0.271607 0.145838 0.951294 1 
0.062201 0.271161 0.0478134 0.0311571 -0.475485 0.879172 1 
0.0622259 0.270886 0.0475812 0.0513698 -0.367491 0.928607 1 
0.0629064 0.270921 0.0477414 0.274412 0.163566 0.947599 1 
0.0618483 0.27128 0.0478493 -0.0526801 -0.625042 0.778811 1 
0.0615011 0.271403 0.0484853 -0.1373 -0.556581 0.81937 1 
0.0625659 0.270668 0.0477459 0.301575 0.172132 0.937775 1 
0.0633854 0.270984 0.0475033 0.239775 0.123128 0.962989 1 
0.0631163 0.270755 0.0475736 0.270858 0.178304 0.945962 1 
0.0631955 0.270168 0.0472427 0.22325 0.191166 0.955832 1 
0.0629187 0.270549 0.0477099 0.274412 0.163566 0.947599 1 
0.0630865 0.270321 0.0476096 0.267209 0.172262 0.948117 1 
0.0637209 0.270529 0.0473025 0.24701 0.101108 0.963724 1 
0.0634983 0.270598 0.0476709 0.22325 0.191166 0.955832 1 
0.0628132 0.272965 0.0489315 0.254555 -0.0797858 0.963762 1 
0.056308 0.27528 0.0402793 -0.326105 -0.663567 0.673301 1 
0.0578883 0.27481 0.0401004 -0.619301 -0.551802 0.558552 1 
0.0580466 0.274957 0.0403315 -0.623251 -0.525288 0.579337 1 
0.0581895 0.275004 0.0404633 -0.528835 -0.579522 0.620071 1 
0.0584038 0.275075 0.0406609 -0.536056 -0.797009 0.278246 1 
0.0565909 0.275373 0.0402429 -0.199668 -0.729019 0.654724 1 
0.0570721 0.274967 0.0404739 -0.415967 -0.687755 0.594949 1 
0.0569979 0.274941 0.040108 -0.25834 -0.686266 0.679926 1 
0.0576768 0.274741 0.0402028 -0.597455 -0.57376 0.56022 1 
0.0573085 0.274761 0.0401394 -0.456379 -0.68039 0.5734 1 
0.0571137 0.274557 0.0405757 -0.542965 -0.603859 0.583561 1 
0.057215 0.275014 0.0406057 -0.460327 -0.709601 0.533447 1 
0.0573412 0.275196 0.0404035 -0.460327 -0.709601 0.533447 1 
0.057509 0.274969 0.0403031 -0.47168 -0.698354 0.538349 1 
0.0577526 0.275002 0.040634 -0.602461 -0.534958 0.592335 1 
0.057891 0.274812 0.0404004 -0.623251 -0.525288 0.579337 1 
0.0579625 0.274835 0.0404663 -0.659557 -0.495087 0.565574 1 
0.0580649 0.275058 0.0407308 -0.695752 -0.404891 0.59329 1 
0.0584077 0.274842 0.0411955 -0.276063 0.140032 0.950884 1 
0.0585799 0.274852 0.0414605 -0.555211 -0.83073 0.0403537 1 
0.0577991 0.273836 0.038573 -0.840822 -0.432111 0.326033 1 
0.0579105 0.273214 0.0386752 -0.548658 -0.726601 0.413553 1 
0.0576502 0.273315 0.0380104 -0.719451 -0.687083 0.101518 1 
0.0582045 0.273169 0.0383727 -0.544834 -0.672241 0.501247 1 
0.0576962 0.273143 0.0384776 -0.648573 -0.684334 0.333227 1 
0.0587959 0.272375 0.0384715 -0.5454 -0.59268 0.59268 1 
0.0586376 0.272228 0.0382403 -0.5454 -0.59268 0.59268 1 
0.057231 0.274264 0.0396427 -0.354264 -0.706895 0.612207 1 
0.0572809 0.273714 0.0391785 -0.977545 -0.206995 0.0394847 1 
0.0574038 0.273424 0.0388455 -0.840822 -0.432111 0.326033 1 
0.0576121 0.273022 0.0386124 -0.733644 -0.625895 0.264619 1 
0.0575201 0.27351 0.039144 -0.840822 -0.432111 0.326033 1 
0.0577145 0.273244 0.0388769 -0.525758 -0.696003 0.489038 1 
0.0579941 0.272865 0.0387096 -0.544834 -0.672241 0.501247 1 
0.0588392 0.272201 0.0386386 -0.445367 -0.518215 0.730137 1 
0.0586105 0.271796 0.0385762 -0.451419 -0.412587 0.791197 1 
0.0579679 0.274694 0.0396003 -0.434993 -0.681656 0.588324 1 
0.0577858 0.274588 0.0398359 -0.568425 -0.6224 0.538064 1 
0.0578606 0.273763 0.0391395 -0.909843 -0.336278 0.24311 1 
0.0593928 0.272759 0.0385972 -0.523224 -0.389566 0.757941 1 
0.0591841 0.272692 0.0389995 -0.475119 -0.521798 0.708511 1 
0.0595594 0.274231 0.0406213 -0.0450046 0.0823254 0.995589 1 
0.0601297 0.274654 0.0409138 -0.672506 0.410146 0.616049 1 
0.0601093 0.273846 0.0406182 -0.945168 0.276867 0.173213 1 
0.0575417 0.274084 0.0396741 -0.750797 -0.487936 0.445221 1 
0.0577516 0.273917 0.0395064 -0.6047 -0.611438 0.510374 1 
0.0576303 0.274443 0.0399048 -0.626529 -0.575866 0.525204 1 
0.058287 0.274519 0.0405316 -0.538861 -0.630079 0.559132 1 
0.057962 0.274365 0.0406354 -0.610241 -0.532481 0.586575 1 
0.057962 0.274365 0.0406354 -0.610241 -0.532481 0.586575 1 
0.0582727 0.274185 0.0406668 -0.55609 -0.6237 0.549329 1 
0.0582599 0.274087 0.0408675 -0.580191 -0.640733 0.502832 1 
0.058286 0.273578 0.0408699 -0.492436 -0.147585 0.857745 1 
0.0583575 0.273601 0.0409358 -0.675778 -0.662814 -0.322494 1 
0.0590999 0.27257 0.0391343 -0.693792 -0.693792 0.193149 1 
0.0591404 0.272395 0.0390015 -0.523224 -0.389566 0.757941 1 
0.0589317 0.272327 0.0394038 -0.391213 -0.919808 -0.0300933 1 
0.0583941 0.272483 0.0408414 -0.52979 -0.424162 0.734444 1 
0.058506 0.272332 0.0407745 -0.52979 -0.424162 0.734444 1 
0.0590702 0.272281 0.0406362 -0.880301 -0.133553 0.455229 1 
0.0583624 0.274309 0.0411321 -0.498192 -0.859991 -0.11055 1 
0.0590046 0.273907 0.0404281 0.49833 0.82434 0.26857 1 
0.0593729 0.273887 0.0404915 -0.0789694 0.033535 0.996313 1 
0.0594194 0.274185 0.0407895 -0.0830089 0.0875573 0.992695 1 
0.0594986 0.273598 0.0404585 -0.119948 0.0369932 0.992091 1 
0.0594748 0.273639 0.0409252 -0.125898 0.0658364 0.989856 1 
0.0594205 0.273951 0.0410241 -0.0789694 0.033535 0.996313 1 
0.0596724 0.273845 0.040789 -0.0905771 0.0905771 0.991762 1 
0.0598773 0.27429 0.0413181 0.195075 -0.0366504 0.980103 1 
0.0596332 0.273785 0.0411563 -0.000992907 0.0168794 0.999857 1 
0.059605 0.273588 0.0412576 -0.0952233 0.0593746 0.993684 1 
0.0587844 0.273507 0.0412657 -0.0863054 0.00745849 0.996241 1 
0.0587146 0.273719 0.0412652 -0.100855 0.0387905 0.994145 1 
0.0596703 0.273138 0.0408927 -0.948067 0.30997 0.071332 1 
0.0596581 0.273511 0.0409242 -0.0952233 0.0593746 0.993684 1 
0.059574 0.273389 0.041059 -0.0948253 0.054664 0.993992 1 
0.0595115 0.272521 0.0408308 0.294556 -0.138536 0.945539 1 
0.059527 0.27262 0.0409301 -0.98641 0.160364 0.0357646 1 
0.0594179 0.272774 0.041297 -0.98641 0.160364 0.0357646 1 
0.0593293 0.272414 0.0410664 -0.0794642 0.0402764 0.996024 1 
0.0593853 0.272339 0.0410329 0.194126 -0.0769179 0.977956 1 
0.0596156 0.272979 0.0411608 -0.96941 0.240197 0.0505029 1 
0.0594478 0.273207 0.0412611 -0.0752771 0.0469118 0.996059 1 
0.0601463 0.274519 0.0412477 -0.66926 0.366695 0.646239 1 
0.0592591 0.272156 0.0412351 -0.0276243 -0.111602 0.993369 1 
0.0594269 0.271929 0.0411347 -0.290816 0.0185627 0.956599 1 
0.0514221 0.273511 0.0510681 -0.301828 -0.862585 0.406013 1 
0.0515805 0.273657 0.0512992 -0.754866 -0.465418 0.462129 1 
0.0514515 0.273474 0.0512014 -0.762485 -0.454211 0.46077 1 
0.0514266 0.273748 0.0514335 -0.754866 -0.465418 0.462129 1 
0.0513424 0.273627 0.0515683 -0.75222 -0.455941 0.475693 1 
0.0516829 0.27388 0.0515638 -0.75222 -0.455941 0.475693 1 
0.0516282 0.273721 0.0518318 -0.798488 -0.356839 0.484853 1 
0.0518829 0.273617 0.0518967 -0.68351 -0.620924 0.383754 1 
0.0519543 0.27364 0.0519625 -0.68351 -0.620924 0.383754 1 
0.0516181 0.273481 0.0508665 -0.301828 -0.862585 0.406013 1 
0.0520756 0.273115 0.0515642 -0.789995 -0.358796 0.497166 1 
0.052111 0.273551 0.0521282 -0.627617 -0.72663 0.279473 1 
0.0515861 0.273661 0.0518992 -0.789995 -0.358796 0.497166 1 
0.0515889 0.273662 0.0521992 -0.68351 -0.620924 0.383754 1 
0.051729 0.273708 0.052031 -0.68351 -0.620924 0.383754 1 
0.0518591 0.273657 0.0523634 -0.586177 -0.783108 0.2077 1 
0.0519123 0.27358 0.0520299 -0.68351 -0.620924 0.383754 1 
0.0520551 0.273627 0.0521617 -0.627617 -0.72663 0.279473 1 
0.0522412 0.2735 0.0524606 -0.52583 -0.824562 0.208808 1 
0.0518591 0.273657 0.0523634 -0.586177 -0.783108 0.2077 1 
0.0520734 0.273728 0.052561 -0.610852 -0.757706 0.229655 1 
0.0521448 0.273752 0.0526269 -0.669863 -0.689048 0.276578 1 
0.051291 0.27262 0.0510741 -0.841675 -0.323241 0.432549 1 
0.052409 0.273273 0.0523603 -0.611747 -0.736332 0.289102 1 
0.0524555 0.273571 0.0526583 -0.507702 -0.797363 0.326266 1 
0.0524971 0.273162 0.0527601 -0.537325 -0.82188 0.189199 1 
0.0527363 0.272958 0.0527256 -0.533833 -0.82419 0.189034 1 
0.0530934 0.273076 0.053055 -0.393794 -0.814692 0.42568 1 
0.0535087 0.272504 0.0523541 0.559169 -0.758988 -0.333568 1 
0.0535242 0.272604 0.0524535 0.559169 -0.758988 -0.333568 1 
0.0532191 0.272787 0.053022 -0.383312 -0.834452 0.395931 1 
0.0524174 0.273278 0.0532602 -0.345772 -0.875854 0.336633 1 
0.0507811 0.275143 0.0543656 -0.434282 -0.829084 0.352163 1 
0.0509068 0.274855 0.0543327 -0.396672 -0.870854 0.290285 1 
0.0515829 0.274653 0.0541274 -0.311555 -0.721581 0.618267 1 
0.0511726 0.274612 0.0541315 -0.372228 -0.840262 0.394216 1 
0.0513138 0.274424 0.0541978 -0.364537 -0.717632 0.593395 1 
0.0515126 0.274395 0.0542961 -0.311555 -0.721581 0.618267 1 
0.0510746 0.274627 0.0542323 -0.372228 -0.840262 0.394216 1 
0.05095 0.274681 0.0544999 -0.396672 -0.870854 0.290285 1 
0.0512889 0.274698 0.0544299 -0.376911 -0.846095 0.376911 1 
0.0513725 0.274349 0.0544643 -0.367921 -0.721125 0.587038 1 
0.0509544 0.274919 0.0548652 -0.396672 -0.870854 0.290285 1 
0.0515701 0.274555 0.0543281 -0.303871 -0.71868 0.625429 1 
0.0515281 0.274494 0.0543955 -0.311555 -0.721581 0.618267 1 
0.0514439 0.274373 0.0545302 -0.333153 -0.716685 0.612676 1 
0.0515868 0.27442 0.054662 -0.322169 -0.701001 0.636243 1 
0.0521748 0.27433 0.054057 -0.185976 -0.814967 0.548855 1 
0.0524794 0.273676 0.0536576 -0.227308 -0.883974 0.40856 1 
0.0524544 0.27395 0.0538897 -0.207483 -0.864265 0.458254 1 
0.0529516 0.274114 0.0540509 -0.127103 -0.840052 0.527406 1 
0.0531305 0.273748 0.0536845 -0.25747 -0.837163 0.482563 1 
0.0530602 0.27349 0.0538531 -0.279031 -0.821503 0.497267 1 
0.051053 0.274054 0.0537022 -0.474747 -0.832753 0.284848 1 
0.0517506 0.274425 0.0540271 -0.275588 -0.737558 0.61649 1 
0.0519649 0.274496 0.0542247 -0.148203 -0.600297 0.785926 1 
0.0518808 0.274375 0.0543595 -0.148203 -0.600297 0.785926 1 
0.0520364 0.27452 0.0542906 -0.148203 -0.600297 0.785926 1 
0.0519102 0.274338 0.0544928 -0.143889 -0.562206 0.814383 1 
0.0521649 0.274233 0.0545576 -0.223271 -0.719776 0.657322 1 
0.0525569 0.274173 0.0541542 -0.180438 -0.796051 0.577706 1 
0.0524588 0.274188 0.0542551 -0.180438 -0.796051 0.577706 1 
0.0522629 0.274218 0.0544567 -0.201981 -0.757043 0.621361 1 
0.0523637 0.274205 0.0546559 -0.272253 -0.894121 0.355565 1 
0.0517546 0.274193 0.0545616 -0.229413 -0.619573 0.750666 1 
0.051826 0.274216 0.0546275 -0.197407 -0.583039 0.788097 1 
0.0519689 0.274263 0.0547593 -0.151198 -0.494697 0.855812 1 
0.0523637 0.274205 0.0546559 -0.272253 -0.894121 0.355565 1 
0.0522397 0.273409 0.0538612 -0.247976 -0.876183 0.413294 1 
0.0528116 0.274068 0.0542191 -0.195203 -0.862767 0.466401 1 
0.052934 0.273308 0.0540553 -0.295434 -0.849179 0.437737 1 
0.0520719 0.273636 0.0539616 -0.297098 -0.854349 0.426405 1 
0.052227 0.273311 0.0540619 -0.276313 -0.841287 0.464637 1 
0.0524722 0.273581 0.0544582 -0.323987 -0.943103 0.0747661 1 
0.0527829 0.273401 0.0544896 -0.385504 -0.914355 0.123862 1 
0.0530419 0.273389 0.0534538 -0.264734 -0.828262 0.493861 1 
0.0533171 0.274092 0.0538142 -0.161125 -0.787555 0.594807 1 
0.0536853 0.274072 0.0538776 -0.198793 -0.750483 0.630283 1 
0.053177 0.274047 0.0539825 -0.123619 -0.842065 0.525018 1 
0.0532778 0.274033 0.0541816 -0.162579 -0.893464 0.418676 1 
0.052939 0.274016 0.0542515 -0.206168 -0.893394 0.399176 1 
0.0531814 0.274284 0.0543479 -0.0582876 -0.968566 0.241831 1 
0.0533913 0.274117 0.0541801 -0.139377 -0.883676 0.446867 1 
0.0533802 0.274256 0.0544461 -0.0424125 -0.973063 0.226604 1 
0.0534516 0.274279 0.054512 -0.0897631 -0.977557 0.190593 1 
0.0535901 0.274089 0.0542784 -0.090535 -0.94865 0.303096 1 
0.0527291 0.274183 0.0544193 -0.207052 -0.888413 0.409698 1 
0.0526029 0.274001 0.0546214 -0.238295 -0.914187 0.327837 1 
0.0526029 0.274001 0.0546214 -0.238295 -0.914187 0.327837 1 
0.052939 0.274016 0.0542515 -0.206168 -0.893394 0.399176 1 
0.0530397 0.274003 0.0544507 -0.181365 -0.937286 0.297661 1 
0.0528127 0.273834 0.0544537 -0.272253 -0.912848 0.304283 1 
0.0536111 0.274047 0.0535117 -0.0708505 -0.744653 0.663681 1 
0.0536991 0.273936 0.0539115 -0.227112 -0.725193 0.650011 1 
0.0531062 0.273318 0.0543203 -0.472187 -0.826719 0.305902 1 
0.0543425 0.274619 0.0543353 0.0932455 -0.994985 0.0362012 1 
0.055023 0.274654 0.0544954 0.0555481 -0.969007 -0.240709 1 
0.0537712 0.274574 0.0552742 0.12306 -0.990232 -0.0655554 1 
0.0545424 0.274356 0.0546681 -0.663219 -0.669737 0.334054 1 
0.0539389 0.274347 0.0551739 -0.0872467 -0.995054 0.0474887 1 
0.0544162 0.274173 0.0548703 -0.794828 -0.604296 -0.0554531 1 
0.054048 0.274193 0.054807 -0.42363 -0.81369 0.398053 1 
0.0542623 0.274264 0.0550046 -0.648975 -0.754452 0.098152 1 
0.0536743 0.274355 0.0556096 0.139015 -0.980484 -0.139015 1 
0.0532546 0.274688 0.0559451 0.745935 -0.469297 0.47259 1 
0.0536029 0.274331 0.0555437 0.0969153 -0.984707 -0.144775 1 
0.0533803 0.2744 0.0559121 0.0731521 -0.993743 0.0844062 1 
0.0535188 0.27421 0.0556785 -0.00100269 -0.999685 -0.0250673 1 
0.0538969 0.274286 0.0552412 -0.213404 -0.97105 0.107333 1 
0.0533992 0.273652 0.0552492 -0.395213 -0.795266 0.459738 1 
0.0536866 0.273982 0.0555781 -0.354642 -0.694575 0.625935 1 
0.0539258 0.273778 0.0555437 -0.766501 -0.416754 -0.488665 1 
0.0548254 0.274448 0.0546317 -0.693883 -0.690778 0.203353 1 
0.0540104 0.27437 0.0552397 -0.0312033 -0.999513 -0.00100656 1 
0.054615 0.274145 0.0549686 -0.851658 -0.435839 -0.291073 1 
0.0544766 0.274335 0.0552022 -0.717859 -0.308115 -0.624295 1 
0.0545885 0.274183 0.0551353 -0.777566 -0.211782 -0.592063 1 
0.0535342 0.274309 0.0557778 0.0641378 -0.997816 -0.0157716 1 
0.0539683 0.27431 0.0553071 -0.109948 -0.993889 0.00979737 1 
0.0543925 0.274214 0.055337 -0.665213 -0.172802 -0.726382 1 
0.0542663 0.274031 0.0555392 -0.653987 -0.0768543 -0.752592 1 
0.053954 0.273976 0.0554423 -0.319968 -0.83816 0.441712 1 
0.0532481 0.273744 0.0556835 -0.535752 -0.572934 0.620255 1 
0.0535836 0.273289 0.0554828 -0.481851 -0.609449 0.629596 1 
0.0533317 0.273395 0.0557179 -0.432452 -0.50809 0.744869 1 
0.0532712 0.274554 0.056279 0.594704 -0.180997 0.783306 1 
0.0544025 0.27299 0.0539433 0.649352 0.636066 -0.416847 1 
0.0542065 0.27302 0.054145 0.587448 0.577291 -0.567133 1 
0.0548266 0.272894 0.0539732 0.629565 0.757612 0.172254 1 
0.054887 0.273056 0.0543051 0.88892 0.0281558 0.457197 1 
0.0551976 0.272875 0.0543365 0.865532 -0.128602 0.484062 1 
0.0540598 0.27335 0.0549447 -0.54413 -0.655314 0.523914 1 
0.0544529 0.273055 0.0547759 0.789313 0.0293373 0.613289 1 
0.0543267 0.272873 0.054978 0.602764 -0.191719 0.774544 1 
0.0542846 0.272812 0.0550454 0.568884 -0.238464 0.787087 1 
0.0543018 0.273148 0.0552101 0.609386 -0.107193 0.785594 1 
0.0545636 0.273138 0.0544744 0.906374 0.246662 0.342992 1 
0.0547143 0.272575 0.0542093 0.56338 0.799785 0.207238 1 
0.054835 0.272899 0.0548731 0.800232 -0.109721 0.589568 1 
0.0545881 0.272393 0.0544114 0.56338 0.799785 0.207238 1 
0.0545255 0.272845 0.0550763 0.721714 -0.129998 0.679875 1 
0.0546346 0.272691 0.0547094 0.787338 -0.14847 0.598377 1 
0.0548051 0.272465 0.0549091 0.524797 0.831555 0.18195 1 
0.0551765 0.272773 0.0536372 0.392326 0.916332 0.0800942 1 
0.054923 0.272643 0.053807 0.408197 0.902554 0.137007 1 
0.0547412 0.274327 0.0547664 -0.827037 -0.531774 -0.18228 1 
0.0546865 0.274168 0.0550345 -0.776029 -0.242021 -0.582412 1 
0.0550171 0.273005 0.0546375 0.850675 -0.0806797 0.519464 1 
0.0538649 0.273146 0.0553809 -0.165466 -0.532173 0.830309 1 
0.0539906 0.272858 0.0553479 0.328106 -0.364732 0.871388 1 
0.0620748 0.273548 0.0392014 -0.559169 0.758988 0.333568 1 
0.0631596 0.27183 0.0380336 0.559169 -0.758988 -0.333568 1 
0.064887 0.272821 0.037779 0.510876 -0.276529 0.813964 1 
0.0646307 0.272689 0.0376487 0.510015 -0.272944 0.815712 1 
0.0637366 0.273342 0.0400537 0.697925 0.679105 -0.227414 1 
0.0642431 0.272987 0.0384175 0.946724 0.158465 0.28036 1 
0.0644375 0.272721 0.0381504 0.209574 -0.634932 0.7436 1 
0.0645089 0.272745 0.0382163 0.650924 0.73934 -0.172259 1 
0.0645465 0.272568 0.0377835 0.579666 -0.204498 0.788776 1 
0.0646473 0.272554 0.0379827 0.565692 -0.252289 0.785075 1 
0.0646982 0.27309 0.038646 0.398168 0.823305 -0.404514 1 
0.06419 0.273065 0.0387509 0.956129 -0.0918609 0.27817 1 
0.0644042 0.273136 0.0389485 0.891836 0.451917 -0.0199963 1 
0.0639801 0.273231 0.0389187 0.894715 -0.27153 0.354622 1 
0.0643062 0.273151 0.0390494 0.978119 0.0895893 0.187769 1 
0.064386 0.273034 0.0385492 0.973011 0.195612 0.122415 1 
0.0643777 0.273174 0.0391153 0.97407 0.0202683 0.225336 1 
0.0644087 0.273373 0.0393139 0.954208 0.292522 0.062592 1 
0.0644884 0.273257 0.0388138 0.73863 0.649933 -0.178923 1 
0.064572 0.272908 0.0388482 0.584826 0.756927 -0.291616 1 
0.0648705 0.2731 0.0389111 0.708123 0.6673 -0.230807 1 
0.0648477 0.272762 0.0381464 0.63044 0.760458 -0.15572 1 
0.0650714 0.272458 0.0380125 0.584804 -0.221822 0.780256 1 
0.0651457 0.272483 0.0383784 0.768612 0.63644 0.0646496 1 
0.0649502 0.272984 0.0384109 0.917229 0.27878 0.284558 1 
0.0649236 0.273023 0.0385776 0.371069 0.828985 -0.41844 1 
0.0648346 0.272193 0.0385162 0.477494 0.825047 -0.302152 1 
0.0650239 0.272539 0.0389459 0.768494 0.616317 -0.17196 1 
0.063849 0.272341 0.0389246 0.387642 -0.773663 0.501178 1 
0.063916 0.272127 0.0386251 0.269045 -0.638384 0.721167 1 
0.0641756 0.272731 0.0388862 0.923684 0.381265 -0.0379955 1 
0.0643196 0.272544 0.0392525 0.830621 0.550412 -0.0843488 1 
0.0643241 0.272781 0.0396179 0.939685 0.338286 0.0505485 1 
0.0644148 0.272527 0.0388517 0.794496 0.587236 -0.154694 1 
0.0645437 0.274031 0.0398425 0.803685 0.594028 -0.0349428 1 
0.0643339 0.274197 0.0400103 0.746036 0.645754 -0.162578 1 
0.0647116 0.273803 0.0397422 0.899339 0.43119 0.0725495 1 
0.0637974 0.273975 0.0402165 0.665553 0.706461 -0.240732 1 
0.0639558 0.274121 0.0404476 0.689615 0.698872 -0.18976 1 
0.0638672 0.273762 0.0402169 0.704363 0.685948 -0.182613 1 
0.0642747 0.273801 0.0399129 0.723811 0.675657 -0.139947 1 
0.0640648 0.273968 0.0400807 0.696531 0.687223 -0.206322 1 
0.0641485 0.273619 0.0401151 0.725622 0.667816 -0.165813 1 
0.0645853 0.273621 0.0399443 0.851671 0.522081 -0.0456994 1 
0.0645433 0.27356 0.0400117 0.851912 0.521154 -0.0514205 1 
0.0639946 0.27371 0.0402494 0.709201 0.67506 -0.203294 1 
0.063839 0.273565 0.0403183 0.709201 0.67506 -0.203294 1 
0.064623 0.273444 0.0395116 0.906006 0.421738 0.0359209 1 
0.0649491 0.273363 0.0396423 0.847307 0.531087 0.0040541 1 
0.0650255 0.272775 0.0390113 0.794566 0.588068 -0.151132 1 
0.064396 0.273275 0.0395146 0.860773 0.508944 -0.0067143 1 
0.0646103 0.273346 0.0397122 0.898794 0.438211 0.0118436 1 
0.0645245 0.272989 0.0397816 0.881498 0.470042 -0.0449605 1 
0.0646269 0.273211 0.0400461 0.8784 0.475514 -0.0479625 1 
0.0657958 0.271471 0.0372776 0.556125 -0.509081 0.656933 1 
0.0655377 0.272423 0.037975 0.705702 -0.00693224 0.708475 1 
0.0657475 0.272256 0.0378073 0.572021 -0.263161 0.776877 1 
0.0658987 0.272164 0.037373 0.615253 -0.100837 0.781854 1 
0.0661069 0.271761 0.0371399 0.56588 -0.498713 0.656555 1 
0.0660244 0.271875 0.0373401 0.586349 -0.357689 0.726811 1 
0.065659 0.271897 0.0375767 0.574005 -0.103176 0.812326 1 
0.0657708 0.271745 0.0375098 0.615253 -0.100837 0.781854 1 
0.0660648 0.2717 0.0372072 0.56588 -0.498713 0.656555 1 
0.0649404 0.271568 0.0380185 0.51726 -0.3379 0.786299 1 
0.0650522 0.271416 0.0379516 0.591687 -0.148296 0.792411 1 
0.065339 0.271132 0.0369837 0.530484 -0.658474 0.533852 1 
0.0653899 0.271668 0.0376471 0.593426 -0.040684 0.80386 1 
0.0654303 0.271492 0.0375143 0.615253 -0.100837 0.781854 1 
0.0654115 0.272241 0.0381772 0.621569 -0.148996 0.76906 1 
0.0656213 0.272074 0.0380094 0.637305 0.747873 -0.185817 1 
0.0653135 0.272256 0.038278 0.619315 -0.174991 0.765394 1 
0.0650289 0.271927 0.0382491 0.538416 -0.303355 0.786183 1 
0.0650333 0.272165 0.0386145 0.759482 0.649982 0.0266731 1 
0.0652808 0.271821 0.038014 0.517999 -0.341591 0.784215 1 
0.0646884 0.271674 0.0382536 0.275727 -0.553029 0.786215 1 
0.0629958 0.271825 0.0386686 0.559169 -0.758988 -0.333568 1 
0.0623262 0.274291 0.0400285 0.111102 0.730311 -0.674019 1 
0.0625764 0.275269 0.040621 0.0852207 0.795875 -0.599434 1 
0.0622049 0.274817 0.0404269 0.0377509 0.809548 -0.585839 1 
0.0629917 0.274698 0.0399202 0.323167 0.657701 -0.680436 1 
0.0628472 0.274414 0.039723 0.270881 0.600373 -0.752447 1 
0.0629773 0.274364 0.0400554 0.370285 0.640181 -0.673095 1 
0.0633178 0.274617 0.0400509 0.453787 0.654727 -0.604492 1 
0.0630614 0.274485 0.0399206 0.348429 0.642876 -0.682135 1 
0.0631916 0.274435 0.040253 0.520888 0.615289 -0.591689 1 
0.062721 0.274232 0.0399251 0.289783 0.613188 -0.734865 1 
0.062525 0.274262 0.0401268 0.25797 0.644133 -0.7201 1 
0.0625155 0.274637 0.0404583 0.240093 0.754803 -0.610433 1 
0.0630067 0.274327 0.0401886 0.423215 0.592501 -0.685442 1 
0.0634949 0.275335 0.0405121 0.416456 0.762686 -0.494848 1 
0.0625498 0.275308 0.0407877 -0.0892887 0.721628 -0.686498 1 
0.0626057 0.275232 0.0407543 0.10859 0.838315 -0.534263 1 
0.0627176 0.27508 0.0406874 0.238041 0.785691 -0.570987 1 
0.0626645 0.275158 0.0410208 0.0702076 0.800939 -0.594615 1 
0.0626645 0.275158 0.0410208 0.0702076 0.800939 -0.594615 1 
0.0631307 0.275122 0.0409833 0.396648 0.781964 -0.480835 1 
0.0632104 0.275006 0.0404832 0.370771 0.743175 -0.556973 1 
0.0630703 0.274961 0.0406514 0.369551 0.757009 -0.53886 1 
0.0637043 0.274698 0.0405135 0.525045 0.708393 -0.471707 1 
0.063252 0.274596 0.040585 0.516695 0.661437 -0.543624 1 
0.0635405 0.274692 0.0411485 0.651136 0.624491 -0.431315 1 
0.0633727 0.27492 0.0412488 0.469534 0.767288 -0.436814 1 
0.0638638 0.27461 0.0409792 0.710761 0.667022 -0.223382 1 
0.0639226 0.274536 0.0412458 0.73639 0.643372 -0.20929 1 
0.0630748 0.273878 0.0401237 0.468298 0.602577 -0.646218 1 
0.0638023 0.274683 0.0404127 0.547929 0.697819 -0.461327 1 
0.0639856 0.274555 0.0404117 0.638922 0.712582 -0.289837 1 
0.063788 0.274349 0.0405479 0.649784 0.701125 -0.293606 1 
0.0640533 0.273636 0.0405159 0.729023 0.668648 -0.146408 1 
0.0646314 0.273449 0.0404115 0.836272 0.54179 -0.0843419 1 
0.0644044 0.27328 0.0404145 0.81367 0.565582 -0.134381 1 
0.0640023 0.27442 0.0407456 0.699365 0.674219 -0.237313 1 
0.0640161 0.274283 0.0407795 0.718221 0.665479 -0.203212 1 
0.0640903 0.274308 0.0411454 0.788367 0.575462 -0.217534 1 
0.0646563 0.273174 0.0401794 0.825085 0.558188 -0.0875307 1 
0.064911 0.27307 0.0402443 0.767198 0.637164 -0.0736857 1 
0.0647804 0.27265 0.040081 0.660511 0.748959 -0.0527838 1 
0.0652649 0.272716 0.0404428 0.735472 0.675492 0.0528397 1 
0.0618855 0.274667 0.0411307 0.779829 0.595979 0.19151 1 
0.0632714 0.274463 0.0412189 0.596657 0.633633 -0.492452 1 
0.0639647 0.273277 0.0402853 0.755704 0.634549 -0.162045 1 
0.0638385 0.273094 0.0404874 0.773664 0.623352 -0.113471 1 
0.0640389 0.273302 0.0406511 0.776965 0.621864 -0.0980351 1 
0.063885 0.273393 0.0407855 0.75776 0.642545 -0.113738 1 
0.0640993 0.273464 0.0409831 0.798915 0.590757 -0.112874 1 
0.0639613 0.274124 0.0410475 0.771755 0.614069 -0.165268 1 
0.0642625 0.274318 0.0414104 0.819935 0.538035 -0.195511 1 
0.0641363 0.274136 0.0416125 0.823342 0.499608 -0.269259 1 
0.0643457 0.273499 0.041614 0.787527 0.536155 -0.303874 1 
0.0640854 0.2736 0.0409492 0.782244 0.610062 -0.126168 1 
0.0644088 0.273518 0.0407799 0.802139 0.592636 -0.0731826 1 
0.0644254 0.273383 0.0411138 0.819076 0.571808 -0.0463628 1 
0.0644908 0.272933 0.0407489 0.802139 0.592636 -0.0731826 1 
0.0646397 0.273454 0.0413115 0.825682 0.550942 -0.121295 1 
0.0648385 0.273425 0.0414098 0.783865 0.587515 -0.200952 1 
0.0642294 0.273413 0.0413155 0.814014 0.560102 -0.153841 1 
0.0645556 0.273332 0.0414462 0.791335 0.576215 -0.204364 1 
0.0647123 0.273243 0.0416119 0.742137 0.601083 -0.296534 1 
0.0646729 0.273039 0.0405133 0.78981 0.611785 -0.0437999 1 
0.0645324 0.272523 0.0408507 0.713999 0.700135 -0.00415922 1 
0.0646182 0.27288 0.0407813 0.77701 0.629141 0.0209249 1 
0.0651431 0.272771 0.0410104 0.743722 0.667225 0.0410818 1 
0.0651287 0.272437 0.0411456 0.769872 0.634605 -0.0676336 1 
0.0652477 0.27238 0.0402781 0.67577 0.721124 0.152691 1 
0.0654648 0.272452 0.0407757 0.810126 0.585783 -0.0235421 1 
0.0655905 0.272164 0.0407427 0.736314 0.664624 0.126951 1 
0.0656465 0.272088 0.0407093 0.736314 0.664624 0.126951 1 
0.0653386 0.27227 0.0409779 0.806698 0.585252 -0.081964 1 
0.0655064 0.272043 0.0408775 0.736314 0.664624 0.126951 1 
0.0652965 0.272209 0.0410452 0.806698 0.585252 -0.081964 1 
0.0653802 0.27186 0.0410797 0.750982 0.655112 0.0827968 1 
0.0650218 0.273297 0.0414088 0.780035 0.609356 -0.142233 1 
0.0647838 0.273266 0.0416778 0.73709 0.605409 -0.300296 1 
0.0657623 0.271704 0.041177 0.556347 0.683321 0.472811 1 
0.0655524 0.271871 0.0413447 0.790005 0.608692 0.0733884 1 
0.0659023 0.271749 0.0410087 0.556347 0.683321 0.472811 1 
0.0657762 0.271567 0.0412109 0.728402 0.595375 0.339056 1 
0.057553 0.27888 0.0569163 -0.267484 -0.533405 0.802453 1 
0.0575808 0.278607 0.0569841 -0.366586 -0.549065 0.751094 1 
0.0569186 0.278672 0.0572233 -0.00951858 -0.539839 0.841714 1 
0.0569297 0.278534 0.0569573 0.0747275 -0.511813 0.855841 1 
0.0570071 0.279032 0.0574539 -0.0615834 -0.643045 0.763348 1 
0.0573494 0.278201 0.0566218 -0.202592 -0.484719 0.850884 1 
0.0560624 0.280795 0.0584535 -0.186686 -0.8029 0.566128 1 
0.0562302 0.280567 0.0583531 -0.144763 -0.792468 0.592485 1 
0.056373 0.280614 0.0584848 -0.144763 -0.792468 0.592485 1 
0.0568598 0.280067 0.0578499 -0.0618054 -0.711481 0.699982 1 
0.0570042 0.28035 0.058047 -0.0831407 -0.689922 0.719094 1 
0.057105 0.280336 0.0582462 -0.0953162 -0.708273 0.699474 1 
0.057172 0.280122 0.0579466 -0.120174 -0.749233 0.651313 1 
0.0564943 0.280088 0.0580865 -0.086052 -0.710294 0.698626 1 
0.056398 0.28034 0.0582527 -0.116694 -0.781407 0.613013 1 
0.0566593 0.279859 0.0576861 -0.0267415 -0.685427 0.72765 1 
0.0567928 0.280281 0.0581493 -0.0860432 -0.716055 0.692721 1 
0.0567086 0.280159 0.0582841 -0.086052 -0.710294 0.698626 1 
0.0568642 0.280304 0.0582152 -0.0862231 -0.714629 0.694169 1 
0.0569229 0.28023 0.0584817 -0.086052 -0.710294 0.698626 1 
0.0564988 0.280326 0.0584519 -0.116694 -0.781407 0.613013 1 
0.0567801 0.280183 0.05835 -0.086052 -0.710294 0.698626 1 
0.0571953 0.279612 0.0576491 -0.146137 -0.673435 0.724658 1 
0.0572933 0.279597 0.0575483 -0.149714 -0.672956 0.724373 1 
0.0572545 0.280008 0.0577465 -0.0649252 -0.693978 0.717063 1 
0.0574268 0.280018 0.0580115 -0.237435 -0.728028 0.643118 1 
0.0574517 0.279743 0.0577794 -0.223945 -0.678098 0.700023 1 
0.0572883 0.280208 0.0582451 -0.0892971 -0.689491 0.718769 1 
0.0574733 0.280316 0.0583095 -0.165309 -0.756781 0.63242 1 
0.0576427 0.280325 0.0582745 -0.182456 -0.663896 0.725226 1 
0.0576455 0.280326 0.0585745 -0.19985 -0.670813 0.714192 1 
0.0570503 0.280178 0.0585142 -0.0862231 -0.714629 0.694169 1 
0.0573891 0.280195 0.0584443 -0.146193 -0.682735 0.715892 1 
0.0574356 0.280493 0.0587423 -0.116987 -0.750793 0.650095 1 
0.0575403 0.280102 0.05801 -0.243703 -0.734252 0.633627 1 
0.0578509 0.279922 0.0580414 -0.241352 -0.689351 0.683041 1 
0.0577501 0.279936 0.0578422 -0.272802 -0.709922 0.6493 1 
0.0579489 0.279907 0.0579406 -0.265366 -0.672155 0.691223 1 
0.0579395 0.280281 0.058272 -0.220256 -0.654519 0.723251 1 
0.0579688 0.280244 0.0584053 -0.220153 -0.647967 0.729158 1 
0.0576952 0.279632 0.0566443 -0.131534 -0.577865 0.805463 1 
0.057909 0.279233 0.0570111 -0.338586 -0.58483 0.737112 1 
0.0580702 0.279381 0.0575422 -0.419886 -0.602446 0.678789 1 
0.058238 0.279153 0.0574418 -0.446519 -0.546115 0.708787 1 
0.0582164 0.27858 0.0569117 -0.485635 -0.529025 0.69591 1 
0.0588498 0.279167 0.0578361 -0.381345 -0.47467 0.793262 1 
0.0585891 0.278798 0.0573404 -0.515881 -0.499186 0.696189 1 
0.0588128 0.278494 0.0572066 -0.534707 -0.461414 0.707945 1 
0.0575154 0.279057 0.0573491 -0.331716 -0.593852 0.733011 1 
0.0576289 0.279141 0.0573476 -0.329114 -0.601485 0.727942 1 
0.0575824 0.278843 0.0570496 -0.312949 -0.566518 0.762312 1 
0.0578 0.279386 0.057378 -0.315389 -0.625926 0.713265 1 
0.0580066 0.278747 0.0570794 -0.439792 -0.555964 0.705327 1 
0.0578372 0.278739 0.0571144 -0.396089 -0.563728 0.724793 1 
0.0583034 0.278703 0.0570769 -0.475845 -0.545969 0.689557 1 
0.0579738 0.279632 0.0577084 -0.305117 -0.657051 0.689339 1 
0.0580857 0.27948 0.0576415 -0.402864 -0.618388 0.674756 1 
0.0582845 0.279452 0.0577398 -0.412277 -0.594407 0.69044 1 
0.0584213 0.279025 0.0574408 -0.431663 -0.544127 0.719439 1 
0.0584379 0.27889 0.0577747 -0.481387 -0.521363 0.70459 1 
0.0583162 0.278946 0.0583422 -0.419692 -0.53161 0.735696 1 
0.0586478 0.278724 0.057607 -0.496448 -0.476524 0.725578 1 
0.0587148 0.27851 0.0573075 -0.523754 -0.460571 0.716628 1 
0.0587287 0.278373 0.0573414 -0.541532 -0.458219 0.704825 1 
0.0586617 0.278587 0.0576409 -0.530675 -0.46746 0.707012 1 
0.0586445 0.278251 0.0574762 -0.563975 -0.466911 0.681121 1 
0.0584961 0.278201 0.0567444 -0.598459 -0.500682 0.625431 1 
0.0589745 0.277793 0.0566755 -0.767656 -0.41235 0.490583 1 
0.059021 0.278092 0.0569734 -0.703373 -0.437322 0.560371 1 
0.0588904 0.277672 0.0568102 -0.770392 -0.415328 0.483735 1 
0.0589369 0.27797 0.0571082 -0.703373 -0.437322 0.560371 1 
0.0589944 0.27813 0.0571402 -0.703373 -0.437322 0.560371 1 
0.0588405 0.278221 0.0572745 -0.575177 -0.484624 0.659022 1 
0.0590083 0.277994 0.0571741 -0.703373 -0.437322 0.560371 1 
0.0588682 0.277948 0.0573423 -0.704825 -0.458219 0.541532 1 
0.0587829 0.279381 0.0581356 -0.360706 -0.519222 0.77479 1 
0.0586987 0.27926 0.0582704 -0.384585 -0.507911 0.770792 1 
0.0548249 0.273018 0.06744 0.407794 0.851251 0.330267 1 
0.0564651 0.272239 0.0677622 0.544297 0.817204 -0.189519 1 
0.0565925 0.272187 0.0677946 0.610756 0.772203 -0.175155 1 
0.0570199 0.272563 0.0679553 0.292411 0.956196 0.0135718 1 
0.0570853 0.272113 0.0675904 0.666235 0.452505 -0.592765 1 
0.057015 0.271855 0.0677591 0.858646 0.511912 -0.0259369 1 
0.0539346 0.273149 0.0674476 0.419031 0.836494 0.353116 1 
0.0542607 0.273068 0.0675783 0.403411 0.827388 0.390755 1 
0.0538084 0.272967 0.0676498 0.419031 0.836494 0.353116 1 
0.054727 0.273033 0.0675408 0.412545 0.848441 0.331593 1 
0.0546428 0.272911 0.0676756 0.409102 0.84776 0.337548 1 
0.0544285 0.27284 0.067478 0.422463 0.843368 0.332047 1 
0.054433 0.273078 0.0678434 0.390524 0.842215 0.371704 1 
0.0546024 0.273087 0.0678084 0.419223 0.846239 0.328833 1 
0.0543023 0.272658 0.0676801 0.416885 0.844699 0.335694 1 
0.0543067 0.272896 0.0680455 0.386836 0.844149 0.371175 1 
0.0544762 0.272904 0.0680106 0.419223 0.846239 0.328833 1 
0.0546047 0.272618 0.0682776 0.391512 0.869858 0.300109 1 
0.0545626 0.272557 0.068345 0.399442 0.864692 0.304555 1 
0.0544845 0.272765 0.0674445 0.419223 0.846239 0.328833 1 
0.0545963 0.272613 0.0673776 0.409102 0.84776 0.337548 1 
0.0550343 0.27238 0.0674414 0.391199 0.858164 0.332442 1 
0.0550249 0.272755 0.0677729 0.366766 0.892416 0.262825 1 
0.0552768 0.272649 0.0675378 0.351383 0.889672 0.291573 1 
0.0553605 0.2723 0.0675722 0.390822 0.899327 0.196137 1 
0.0551927 0.272527 0.0676725 0.351383 0.889672 0.291573 1 
0.0551927 0.272527 0.0676725 0.351383 0.889672 0.291573 1 
0.0547448 0.272663 0.0681093 0.366231 0.876828 0.311525 1 
0.0547558 0.272525 0.0678433 0.418889 0.869534 0.261616 1 
0.0549546 0.272497 0.0679416 0.392588 0.892513 0.222025 1 
0.0548566 0.272512 0.0680424 0.44197 0.882491 0.160848 1 
0.054984 0.272459 0.0680748 0.399821 0.899235 0.177538 1 
0.0550665 0.272345 0.0678747 0.402322 0.900571 0.164651 1 
0.0554208 0.272461 0.0679041 0.28624 0.888694 0.358175 1 
0.0552808 0.272416 0.0680723 0.480003 0.845719 -0.233144 1 
0.0554779 0.272151 0.0681052 0.483012 0.872221 -0.0770019 1 
0.0552387 0.272355 0.0681397 0.475994 0.843321 -0.249476 1 
0.0553689 0.272304 0.0684721 0.366309 -0.00893437 -0.93045 1 
0.0556208 0.272198 0.068237 0.455529 0.887663 0.0674349 1 
0.0555748 0.27237 0.0677698 0.405186 0.913963 0.0222918 1 
0.0558267 0.272264 0.0675347 0.386037 0.920344 0.0627811 1 
0.055814 0.272166 0.0677353 0.412304 0.902002 0.128053 1 
0.0557425 0.272143 0.0676694 0.415057 0.908854 0.0413722 1 
0.0557719 0.272106 0.0678027 0.427024 0.89745 0.110606 1 
0.0559148 0.272153 0.0679344 0.417825 0.889515 0.184891 1 
0.0560128 0.272138 0.0678336 0.48305 0.874932 0.0340176 1 
0.0564231 0.272178 0.0678296 0.560171 0.826919 -0.0491378 1 
0.0563389 0.272057 0.0679644 0.552494 0.832238 -0.0461577 1 
0.0562271 0.272209 0.0680313 0.501742 0.864933 0.0121064 1 
0.056185 0.272148 0.0680987 0.525947 0.850029 -0.0288378 1 
0.0554485 0.272188 0.067972 0.475818 0.869199 -0.134502 1 
0.0556767 0.272122 0.0682035 0.42306 0.888281 0.178819 1 
0.0557886 0.271971 0.0681366 0.47433 0.878541 0.0563696 1 
0.0560449 0.272102 0.0682669 0.504937 0.863105 0.00942548 1 
0.0557044 0.271849 0.0682714 0.473265 0.87892 0.0593306 1 
0.0560588 0.271966 0.0683008 0.550365 0.834513 -0.0262078 1 
0.0547725 0.27239 0.0681772 0.452985 0.878472 0.15196 1 
0.0548999 0.272338 0.0682096 0.431944 0.17016 -0.885703 1 
0.0551546 0.272233 0.0682745 0.506574 0.778473 -0.370624 1 
0.0550284 0.272051 0.0684766 0.555057 0.551683 -0.622541 1 
0.0559187 0.27192 0.068469 0.523864 0.851108 0.0343743 1 
0.0556956 0.271374 0.0675406 0.336859 0.681854 0.649308 1 
0.0558257 0.271323 0.067873 0.54641 0.826242 0.136971 1 
0.0564597 0.271061 0.0677352 0.692772 0.63735 0.337421 1 
0.0567577 0.270782 0.0679672 0.672939 0.340543 0.656645 1 
0.0559935 0.271096 0.0677727 0.466097 0.693299 0.549627 1 
0.0564221 0.271237 0.0681679 0.788445 0.613549 -0.0437242 1 
0.0565504 0.272126 0.067862 0.629783 0.768424 -0.113567 1 
0.0563993 0.272219 0.0682963 0.561814 0.826847 -0.0262272 1 
0.0565532 0.272128 0.068162 0.633321 0.771186 -0.0646246 1 
0.0562171 0.272112 0.0685319 0.537396 0.84332 -0.00406093 1 
0.0560743 0.272065 0.0684001 0.515632 0.856681 -0.014887 1 
0.056133 0.271991 0.0686667 0.565679 0.824432 -0.0178925 1 
0.0561302 0.271989 0.0683667 0.550365 0.834513 -0.0262078 1 
0.0564564 0.271908 0.0684974 0.659288 0.750421 -0.0469903 1 
0.0562355 0.272213 0.0689312 0.36276 0.851629 0.378329 1 
0.0564314 0.272183 0.0687295 0.55503 0.812128 0.179969 1 
0.0566457 0.272254 0.0689272 0.489765 0.761674 0.424244 1 
0.0566707 0.271979 0.0686951 0.733294 0.671326 0.107707 1 
0.0565151 0.271834 0.0687639 0.664444 0.747327 -0.00414414 1 
0.0566552 0.27188 0.0685957 0.704026 0.706917 -0.067945 1 
0.0562509 0.272313 0.0690306 0.339231 0.856597 0.388799 1 
0.0563517 0.272299 0.0692297 0.313853 0.83538 0.451261 1 
0.0558684 0.271999 0.0691024 0.439816 0.881094 0.173881 1 
0.0559481 0.271883 0.0686023 0.523864 0.851108 0.0343743 1 
0.0560212 0.272143 0.0687336 0.430249 0.885292 0.176475 1 
0.0560068 0.271809 0.0688688 0.590561 0.718162 -0.368078 1 
0.0564187 0.272085 0.0689302 0.547575 0.797182 0.254287 1 
0.056721 0.2719 0.0680616 0.716419 0.68663 -0.123623 1 
0.0569043 0.271772 0.0680606 0.813878 0.576438 -0.0729487 1 
0.0568888 0.271673 0.0679613 0.813878 0.576438 -0.0729487 1 
0.0565948 0.271718 0.0682638 0.693809 0.711561 -0.11095 1 
0.0566662 0.271742 0.0683297 0.727704 0.681224 -0.0798876 1 
0.0572244 0.271218 0.0677605 0.826321 0.211526 0.521967 1 
0.0565805 0.271384 0.068399 0.788445 0.613549 -0.0437242 1 
0.0564543 0.271202 0.0686012 0.785956 0.610975 -0.0947813 1 
0.0566193 0.270973 0.0682008 0.845611 0.520711 0.117486 1 
0.0566221 0.270974 0.0685008 0.90712 0.40855 0.101099 1 
0.0567494 0.270922 0.0685332 0.896843 0.242987 0.369635 1 
0.0561852 0.270972 0.0686716 0.788268 0.567491 -0.23788 1 
0.056384 0.270944 0.0687699 0.845114 0.49562 -0.200357 1 
0.0565146 0.271364 0.0689331 0.840096 0.541149 0.0373684 1 
0.0569299 0.270792 0.0682322 0.854872 0.20583 0.476264 1 
0.0568037 0.27061 0.0684344 0.725732 0.0923659 0.681749 1 
0.067943 0.275813 0.0639028 0.0670469 -0.59201 0.803137 1 
0.0678261 0.276577 0.0646666 -0.032315 -0.625225 0.779775 1 
0.0683859 0.276289 0.0641629 0.246278 -0.401507 0.882122 1 
0.067907 0.276226 0.064401 -0.138498 -0.600158 0.7878 1 
0.0681717 0.276218 0.0639653 0.318269 -0.535779 0.782078 1 
0.0680737 0.276233 0.0640661 0.246278 -0.401507 0.882122 1 
0.0683549 0.27609 0.0639642 0.291941 -0.482406 0.825866 1 
0.0679491 0.276287 0.0643336 -0.138498 -0.600158 0.7878 1 
0.0681451 0.276257 0.064132 0.246278 -0.401507 0.882122 1 
0.0681666 0.27683 0.0646621 -0.215299 -0.608722 0.763613 1 
0.0675566 0.274412 0.0625471 0.482965 -0.543127 0.686846 1 
0.0677958 0.274208 0.0625126 -0.165755 -0.825786 0.539076 1 
0.0680227 0.275697 0.0634027 0.112283 -0.461922 0.879784 1 
0.0680941 0.275721 0.0634685 0.278014 -0.380203 0.88213 1 
0.0678096 0.275392 0.0634396 0.121779 -0.559007 0.820171 1 
0.0679402 0.275812 0.0636029 0.0670469 -0.59201 0.803137 1 
0.0677847 0.275666 0.0636718 0.166629 -0.488091 0.856739 1 
0.0679104 0.275378 0.0636388 0.00672683 -0.515275 0.856998 1 
0.0680366 0.27556 0.0634366 0.0287706 -0.524721 0.850788 1 
0.0681319 0.274224 0.0621427 0.559169 -0.758988 -0.333568 1 
0.0679387 0.274256 0.0626444 -0.156373 -0.705958 0.690776 1 
0.0686817 0.27384 0.0621396 0.559169 -0.758988 -0.333568 1 
0.0693186 0.273578 0.0623018 0.559169 -0.758988 -0.333568 1 
0.0690642 0.275473 0.0629608 0.16898 -0.210897 0.962792 1 
0.0693095 0.275743 0.0633571 0.130399 -0.299782 0.945054 1 
0.0693426 0.276649 0.063452 0.439107 -0.285034 0.852021 1 
0.0693859 0.276475 0.0636192 0.259001 -0.22022 0.940437 1 
0.0695287 0.276522 0.063751 0.223688 -0.282776 0.932739 1 
0.0694866 0.276461 0.0638184 0.226772 -0.285929 0.931031 1 
0.0683084 0.275792 0.0636662 0.259727 -0.394846 0.881271 1 
0.0685488 0.275353 0.0638663 0.260924 -0.319231 0.911049 1 
0.0682426 0.275771 0.0642003 0.202659 -0.478876 0.854171 1 
0.0685532 0.275591 0.0642317 0.253153 -0.365665 0.895658 1 
0.0687072 0.2755 0.0640974 0.253153 -0.365665 0.895658 1 
0.0693927 0.274924 0.0635607 0.126092 -0.280058 0.951666 1 
0.068984 0.275119 0.0636301 0.189715 -0.263417 0.945844 1 
0.0688113 0.274638 0.0635343 0.0880807 -0.457181 0.885001 1 
0.0688722 0.275271 0.0636971 0.202786 -0.297885 0.932814 1 
0.0695986 0.27499 0.0628584 0.153783 -0.481854 0.862651 1 
0.0696684 0.274777 0.0628589 0.0903054 -0.546133 0.832817 1 
0.0695022 0.275241 0.0630246 0.135672 -0.223535 0.965207 1 
0.0698411 0.275258 0.0629547 0.0034624 -0.199665 0.979858 1 
0.070097 0.274919 0.0632541 0.0510216 -0.495047 0.867367 1 
0.0703998 0.275349 0.0636824 -0.0321564 -0.346003 0.937682 1 
0.0692482 0.27464 0.0633635 0.0438051 -0.625989 0.778601 1 
0.0690351 0.274335 0.0634005 0.0706981 -0.662254 0.745937 1 
0.0700981 0.274684 0.0634887 0.0510216 -0.495047 0.867367 1 
0.0700843 0.274821 0.0634548 0.0510216 -0.495047 0.867367 1 
0.0707047 0.277805 0.0648999 -0.458286 -0.558275 0.691595 1 
0.0706892 0.277706 0.0648007 -0.435356 -0.598823 0.672217 1 
0.070853 0.277711 0.0641657 -0.384046 -0.667547 0.637879 1 
0.0706958 0.27733 0.0641692 -0.0883391 -0.603892 0.792156 1 
0.0709661 0.277325 0.0643334 -0.362444 -0.615006 0.700287 1 
0.0710248 0.277251 0.0645999 -0.384046 -0.667547 0.637879 1 
0.0710541 0.277214 0.0647332 -0.384046 -0.667547 0.637879 1 
0.0711926 0.277023 0.0644996 -0.362444 -0.615006 0.700287 1 
0.0711505 0.276963 0.0645669 -0.0121525 -0.514458 0.85743 1 
0.0712878 0.277007 0.0640987 -0.110277 -0.496964 0.860736 1 
0.0711616 0.276824 0.0643009 -0.110277 -0.496964 0.860736 1 
0.0714694 0.276643 0.0640323 -0.112135 -0.464154 0.878628 1 
0.0717213 0.276536 0.0637972 -0.0959056 -0.42671 0.899289 1 
0.0714352 0.275972 0.0637028 0.0221408 -0.389417 0.920795 1 
0.0717148 0.275592 0.0635355 0.0377996 -0.242649 0.969377 1 
0.0726489 0.275758 0.063526 -0.559169 0.758988 0.333568 1 
0.0719584 0.275626 0.0638664 0.0679125 -0.225963 0.971766 1 
0.072294 0.275171 0.0636657 -0.559169 0.758988 0.333568 1 
0.0722691 0.275446 0.0638978 -0.559169 0.758988 0.333568 1 
0.0715657 0.277711 0.0647591 -0.384046 -0.667547 0.637879 1 
0.0714771 0.277352 0.0645285 -0.384046 -0.667547 0.637879 1 
0.0714069 0.277094 0.0646972 -0.362444 -0.615006 0.700287 1 
0.0713697 0.277742 0.0649608 -0.435356 -0.598823 0.672217 1 
0.0705864 0.275693 0.0638122 -0.148477 -0.348296 0.925551 1 
0.0720842 0.275338 0.0638335 -0.559169 0.758988 0.333568 1 
0.0674907 0.275712 0.0639743 0.0605126 -0.538984 0.84014 1 
0.0678046 0.276004 0.0641365 -0.157814 -0.593683 0.789072 1 
0.0676304 0.273967 0.0630822 -0.188644 -0.753044 0.630348 1 
0.067282 0.274324 0.0634835 -0.0932152 -0.540648 0.836069 1 
0.0677238 0.275034 0.063509 -0.0779632 -0.531567 0.84342 1 
0.0677703 0.275333 0.063807 0.0572329 -0.523472 0.850119 1 
0.0676164 0.275424 0.0639413 -0.0676799 -0.459947 0.885363 1 
0.0684974 0.274347 0.0633721 0.0409603 -0.637004 0.769772 1 
0.0737773 0.271516 0.0636713 0.559169 -0.758988 -0.333568 1 
0.0697547 0.271608 0.0645083 -0.247933 -0.958935 0.13774 1 
0.0705238 0.272003 0.064899 -0.355433 -0.926322 0.124882 1 
0.0694464 0.27132 0.064946 -0.297233 -0.943274 0.147938 1 
0.0695848 0.271129 0.0647124 -0.40187 -0.892883 0.203127 1 
0.069566 0.271878 0.0653753 0.203031 -0.846714 -0.491786 1 
0.0697802 0.271949 0.065573 0.228879 -0.875126 -0.426343 1 
0.0698921 0.271797 0.0655061 0.232006 -0.875636 -0.423598 1 
0.0694088 0.271497 0.0653788 0.203031 -0.846714 -0.491786 1 
0.0693977 0.271635 0.0656449 0.203031 -0.846714 -0.491786 1 
0.0694553 0.271795 0.0656768 0.253931 -0.838741 -0.481699 1 
0.0699631 0.27135 0.0657411 0.27113 -0.85628 -0.439629 1 
0.0701026 0.270925 0.0657421 -0.472837 -0.849891 0.232618 1 
0.0708251 0.270877 0.0643688 -0.160446 -0.939366 0.303065 1 
0.0711191 0.270832 0.0640663 0.0238086 -0.645634 -0.763276 1 
0.071237 0.271154 0.0644302 -0.0306128 -0.90108 0.432572 1 
0.0712227 0.27082 0.0645654 0.0115197 -0.927973 0.372469 1 
0.0709929 0.270649 0.0642685 -0.0470847 -0.69771 -0.714832 1 
0.0730044 0.271498 0.0642119 0.238953 -0.922904 -0.301911 1 
0.0724806 0.271373 0.0642175 0.215855 -0.894256 -0.392063 1 
0.0724662 0.27104 0.0643527 0.233871 -0.895771 -0.378018 1 
0.0717857 0.271004 0.0641925 0.250444 -0.877304 -0.409409 1 
0.0718572 0.271028 0.0642584 0.250444 -0.877304 -0.409409 1 
0.0716008 0.270896 0.0641282 0.250444 -0.877304 -0.409409 1 
0.0717437 0.270943 0.0642599 0.250444 -0.877304 -0.409409 1 
0.0718151 0.270967 0.0643258 0.250444 -0.877304 -0.409409 1 
0.0722115 0.271144 0.0642878 0.250444 -0.877304 -0.409409 1 
0.0721274 0.271022 0.0644226 0.250444 -0.877304 -0.409409 1 
0.0723821 0.270918 0.0644875 0.250444 -0.877304 -0.409409 1 
0.0722282 0.271009 0.0646218 0.250444 -0.877304 -0.409409 1 
0.0727059 0.271306 0.064149 0.199154 -0.899828 -0.388133 1 
0.0729047 0.271277 0.0642473 0.241244 -0.914416 -0.325029 1 
0.0725377 0.271063 0.0644186 0.219868 -0.8898 -0.399893 1 
0.0727785 0.271095 0.0644495 0.203949 -0.890628 -0.406432 1 
0.0726679 0.271012 0.064751 0.237959 -0.87551 -0.420544 1 
0.0723417 0.271093 0.0646203 0.250444 -0.877304 -0.409409 1 
0.0724535 0.270942 0.0645533 0.266016 -0.879204 -0.395266 1 
0.0726805 0.27111 0.0645503 0.198114 -0.887846 -0.415307 1 
0.0725 0.27124 0.0648514 0.242696 -0.869786 -0.429617 1 
0.0702155 0.271714 0.0653368 -0.353983 -0.928009 0.116172 1 
0.0702742 0.27164 0.0656033 -0.62577 -0.665607 0.406668 1 
0.0699774 0.271684 0.0656059 0.27113 -0.85628 -0.439629 1 
0.0702321 0.271579 0.0656707 0.27113 -0.85628 -0.439629 1 
0.0703301 0.271564 0.0655699 -0.390542 -0.907477 0.154797 1 
0.0702881 0.271504 0.0656373 -0.390542 -0.907477 0.154797 1 
0.0706563 0.271484 0.0657006 -0.372354 -0.913188 0.165648 1 
0.0707277 0.271507 0.0657665 -0.398944 -0.908473 0.124583 1 
0.0702333 0.271345 0.0659053 0.27113 -0.85628 -0.439629 1 
0.0705301 0.271301 0.0659028 -0.409698 -0.888413 0.207052 1 
0.0707444 0.271372 0.0661004 0.197763 -0.78032 -0.593288 1 
0.0704753 0.271143 0.0661708 0.197763 -0.78032 -0.593288 1 
0.0705717 0.270892 0.0660046 -0.476187 -0.866457 0.149992 1 
0.0705766 0.2716 0.0662008 0.197763 -0.78032 -0.593288 1 
0.0708047 0.271534 0.0664323 0.579564 -0.284225 -0.763755 1 
0.0706182 0.27119 0.0663026 0.476351 -0.36408 -0.800334 1 
0.0707206 0.271412 0.0665671 0.664384 -0.255288 -0.70244 1 
0.0709039 0.271284 0.0665661 0.669278 -0.348548 -0.656187 1 
0.0711309 0.271453 0.0665631 0.682874 -0.401788 -0.610122 1 
0.0715056 0.270913 0.064529 -0.237929 -0.348866 -0.906467 1 
0.0714497 0.270988 0.0645624 -0.237929 -0.348866 -0.906467 1 
0.0713656 0.270867 0.0646972 0.0518183 -0.920772 0.386644 1 
0.0711104 0.270501 0.0648015 0.0912958 -0.94339 0.318874 1 
0.0715167 0.270774 0.0642629 0.242126 -0.886805 -0.39364 1 
0.0715333 0.270639 0.0645968 0.242126 -0.886805 -0.39364 1 
0.0719453 0.270916 0.0646582 0.250444 -0.877304 -0.409409 1 
0.0718318 0.270832 0.0646597 0.250444 -0.877304 -0.409409 1 
0.0719032 0.270855 0.0647256 0.250444 -0.877304 -0.409409 1 
0.0720461 0.270903 0.0648574 0.250444 -0.877304 -0.409409 1 
0.0717476 0.27071 0.0647945 0.242126 -0.886805 -0.39364 1 
0.0719619 0.270781 0.0649921 0.250444 -0.877304 -0.409409 1 
0.0714913 0.270579 0.0646642 0.249014 -0.884225 -0.395143 1 
0.0714786 0.270481 0.0648649 0.0192109 -0.988795 -0.148037 1 
0.0718191 0.270734 0.0648604 0.250444 -0.877304 -0.409409 1 
0.0723024 0.271034 0.0649876 0.266016 -0.879204 -0.395266 1 
0.0701896 0.271048 0.0659073 -0.519539 -0.800626 0.298458 1 
0.0629131 0.276764 0.0700784 0.559169 -0.758988 -0.333568 1 
0.062782 0.275873 0.0700843 0.651281 -0.0736481 -0.755255 1 
0.0630322 0.276851 0.0706768 0.559169 -0.758988 -0.333568 1 
0.0632903 0.275899 0.0699794 0.250918 0.2736 -0.928538 1 
0.0626934 0.275514 0.0698537 0.507186 -0.0541924 -0.860131 1 
0.0632017 0.27554 0.0697488 0.514831 -0.123269 -0.848383 1 
0.0633861 0.275177 0.0699823 0.548361 -0.300406 -0.780421 1 
0.0636723 0.275742 0.0700767 0.14652 0.28363 -0.947674 1 
0.0635462 0.27556 0.0702788 -0.210639 0.257447 -0.943055 1 
0.060988 0.275423 0.0690033 0.285568 0.0440304 -0.957346 1 
0.0609459 0.275362 0.0690707 0.289051 0.0732261 -0.954509 1 
0.0611137 0.275134 0.0689703 0.343379 0.11265 -0.932417 1 
0.0611039 0.273718 0.0685779 0.133123 0.191444 -0.972434 1 
0.0614145 0.273538 0.0686093 0.400735 0.0275916 -0.915778 1 
0.0616587 0.274042 0.068771 0.613745 -0.0041191 -0.789493 1 
0.0615745 0.27392 0.0689058 0.597853 -0.0436081 -0.800419 1 
0.0614765 0.273935 0.0690066 0.576969 -0.0179012 -0.81657 1 
0.0605066 0.272863 0.0686213 0.808246 -0.430531 -0.401722 1 
0.0608919 0.273178 0.0688494 0.222337 0.185059 -0.957246 1 
0.0611156 0.272875 0.0687156 0.0565925 0.361929 -0.930486 1 
0.0606421 0.273991 0.0689808 0.426685 0.0471103 -0.903172 1 
0.0609992 0.274109 0.0693102 0.305476 0.0904628 -0.947893 1 
0.0610663 0.273895 0.0690107 0.137629 0.154988 -0.978283 1 
0.0612805 0.273966 0.0692083 0.601894 -0.0179876 -0.798374 1 
0.061234 0.273667 0.0689103 0.603434 -0.035002 -0.796645 1 
0.0611316 0.273445 0.0686457 0.336764 0.0533101 -0.940079 1 
0.061234 0.273667 0.0689103 0.603434 -0.035002 -0.796645 1 
0.0613038 0.273455 0.0689108 0.45089 0.00131455 -0.892578 1 
0.0614145 0.273538 0.0686093 0.400735 0.0275916 -0.915778 1 
0.061461 0.273836 0.0689073 0.589627 -0.0464384 -0.80634 1 
0.0614483 0.273738 0.069108 0.552001 -0.0403225 -0.832868 1 
0.0613924 0.273814 0.0691414 0.575436 -0.0579677 -0.81579 1 
0.0610054 0.273263 0.0688479 0.319873 0.0829301 -0.943824 1 
0.0609351 0.273004 0.0690166 0.496162 -0.0539006 -0.866555 1 
0.0612086 0.273472 0.0693116 0.545431 -0.0177709 -0.837967 1 
0.0606228 0.272949 0.0689198 0.40267 -0.0548488 -0.9137 1 
0.0607208 0.272934 0.068819 0.217224 0.115599 -0.969253 1 
0.0608836 0.273318 0.0694154 0.521643 -0.0777517 -0.849614 1 
0.0608931 0.272944 0.069084 0.491902 -0.0568112 -0.868795 1 
0.0613839 0.275129 0.0691345 0.476256 0.0796087 -0.875696 1 
0.0612577 0.274947 0.0693367 0.503909 0.0541389 -0.862059 1 
0.0616758 0.274377 0.0689358 0.471226 0.103302 -0.875942 1 
0.061895 0.275156 0.0693296 0.523571 0.00134594 -0.851981 1 
0.062204 0.27474 0.0692956 0.524216 0.0401115 -0.85064 1 
