0.0646991 0.269282 0.0672307 -0.410229 -0.223627 0.88414 1 
0.0644066 0.26909 0.0669183 -0.298929 -0.350002 0.887773 1 
0.064328 0.269042 0.0669574 -0.302627 -0.356829 0.883793 1 
0.0645419 0.269186 0.0673088 -0.337647 -0.272771 0.900883 1 
0.0642822 0.269498 0.0664001 0.39223 -0.836442 0.382779 1 
0.064323 0.268842 0.0659327 -0.655001 0.705999 0.269331 1 
0.0643084 0.269178 0.0663161 -0.426521 -0.248678 0.86962 1 
0.0640425 0.268926 0.0662397 -0.65703 0.392232 0.64379 1 
0.064136 0.268898 0.0661374 -0.65703 0.392232 0.64379 1 
0.0651029 0.269018 0.0666947 -0.391125 -0.242408 0.88784 1 
0.0649079 0.269226 0.0665575 -0.391125 -0.242408 0.88784 1 
0.0645369 0.268986 0.0662841 -0.170464 -0.499535 0.849357 1 
0.0649043 0.269058 0.0666 -0.30919 -0.285745 0.907056 1 
0.0643164 0.269026 0.066658 0.425046 -0.819844 0.383655 1 
0.0646085 0.268958 0.0666503 -0.302627 -0.356829 0.883793 1 
0.0642713 0.268994 0.0665278 0.556532 -0.817732 0.146925 1 
0.0643011 0.268842 0.0664012 -0.364484 -0.321783 0.873846 1 
0.0642375 0.268718 0.066377 -0.232282 -0.518403 0.822984 1 
0.0646533 0.26873 0.0664604 -0.238344 -0.389345 0.88972 1 
0.0644176 0.268586 0.0665775 -0.242408 -0.391125 0.88784 1 
0.0628103 0.269073 0.0662463 -0.446096 -0.324006 0.834277 1 
0.0629337 0.268893 0.0660173 -0.458308 -0.326013 0.826843 1 
0.0631691 0.268777 0.0655801 -0.446806 -0.327657 0.832469 1 
0.0634238 0.268266 0.0654642 -0.540831 -0.120994 0.832384 1 
0.0627533 0.268765 0.0654967 -0.492787 -0.4273 0.758008 1 
0.0629781 0.268406 0.0655074 -0.519914 -0.364426 0.772582 1 
0.0631953 0.268458 0.0654961 -0.529743 -0.307028 0.790637 1 
0.063188 0.268122 0.0655813 -0.594807 -0.161125 0.787555 1 
0.0629894 0.268162 0.0654866 -0.560749 -0.308332 0.768434 1 
0.0637016 0.268794 0.0661599 -0.486764 -0.006668 0.873508 1 
0.0637769 0.268934 0.0664835 -0.422819 -0.259147 0.86837 1 
0.0636645 0.26861 0.0663716 -0.481981 -0.0508072 0.874707 1 
0.0633644 0.26883 0.0660374 -0.478864 -0.166497 0.861956 1 
0.0630199 0.26853 0.0660002 -0.492223 -0.357543 0.793649 1 
0.0634092 0.268602 0.0658475 -0.545196 -0.0289851 0.837807 1 
0.063574 0.268286 0.0657913 -0.563126 -0.00135693 0.82637 1 
0.0637311 0.268382 0.0657132 -0.561919 0.105995 0.820373 1 
0.0638665 0.268478 0.0661037 -0.563024 0.0638189 0.823973 1 
0.0638665 0.268478 0.0661037 -0.563024 0.0638189 0.823973 1 
0.0637392 0.26823 0.0660551 -0.573499 0.234684 0.784871 1 
0.0634506 0.268466 0.0660203 -0.552321 -0.0234151 0.833302 1 
0.0633983 0.268098 0.0659753 -0.564152 0.0433963 0.82453 1 
0.063263 0.268002 0.0655848 -0.606189 -0.151923 0.780675 1 
0.0638141 0.26811 0.0660587 -0.633584 0.414075 0.653539 1 
0.0635183 0.26801 0.066109 -0.54711 0.0842806 0.832807 1 
0.0635784 0.267966 0.0661758 -0.565591 0.143996 0.812017 1 
0.0624203 0.269489 0.0659718 -0.514872 -0.592524 0.619534 1 
0.0624131 0.269153 0.066057 -0.49024 -0.486916 0.722896 1 
0.0624095 0.268985 0.0660996 -0.514467 -0.474508 0.714259 1 
0.0626299 0.268945 0.0657257 -0.5069 -0.450761 0.734757 1 
0.0628252 0.268997 0.066183 -0.440995 -0.316332 0.839915 1 
0.0627427 0.268522 0.0659446 -0.51774 -0.400146 0.756194 1 
0.0623975 0.268709 0.0654802 -0.567195 -0.418368 0.709407 1 
0.0627347 0.268673 0.0656026 -0.509612 -0.417849 0.752129 1 
0.0625921 0.268241 0.0652973 -0.552445 -0.407325 0.727249 1 
0.0626071 0.268166 0.065234 -0.572855 -0.367214 0.732797 1 
0.0628024 0.268218 0.0656913 -0.546131 -0.376586 0.748281 1 
0.0625965 0.267922 0.0656818 -0.590344 -0.331563 0.735908 1 
0.0630796 0.268226 0.0657469 -0.549655 -0.322101 0.770799 1 
0.0631844 0.267954 0.0656239 -0.585187 -0.211532 0.782822 1 
0.0632073 0.267726 0.0659025 -0.62345 -0.0351834 0.781071 1 
0.0633495 0.267898 0.0658877 -0.645625 0.0675821 0.760658 1 
0.0633274 0.267639 0.0660362 -0.634479 0.0704976 0.769719 1 
0.0625766 0.267798 0.0647205 -0.665502 -0.14638 0.731901 1 
0.0622852 0.267378 0.0651553 -0.687286 -0.0986042 0.719663 1 
0.0626413 0.267694 0.0654919 -0.595263 -0.332504 0.731508 1 
0.0629185 0.267702 0.0655475 -0.624523 -0.254552 0.73836 1 
0.0632372 0.267574 0.0657759 -0.648975 -0.098152 0.754452 1 
0.0640356 0.26885 0.066645 -0.284301 -0.43183 0.855976 1 
0.0642007 0.268794 0.0669088 0.491254 -0.833129 0.254097 1 
0.0641221 0.268746 0.0669479 0.379457 -0.82401 0.420737 1 
0.064156 0.268015 0.0668857 0.00137369 -0.616789 0.787127 1 
0.0640465 0.268346 0.0663042 -0.661781 0.460734 0.591414 1 
0.0639793 0.268055 0.0663225 -0.642617 0.406825 0.649259 1 
0.0639007 0.268007 0.0663616 -0.657541 0.355826 0.6641 1 
0.0638337 0.267975 0.0666999 -0.668929 0.265347 0.694352 1 
0.0545514 0.274017 0.0638957 -0.673124 -0.579588 0.459328 1 
0.0554933 0.272806 0.062254 -0.676306 -0.636814 0.370241 1 
0.0556465 0.272474 0.0618984 -0.759234 -0.520851 0.39023 1 
0.055556 0.27215 0.061318 -0.913188 -0.372354 0.165648 1 
0.0544488 0.274425 0.062909 -0.687211 -0.631447 0.359187 1 
0.0541378 0.274141 0.0627025 -0.715258 -0.6147 0.33249 1 
0.0542728 0.273977 0.0627729 -0.658199 -0.661482 0.359465 1 
0.054032 0.273633 0.0618654 -0.736554 -0.622507 0.264526 1 
0.0541902 0.273501 0.0625344 -0.599012 -0.71653 0.357449 1 
0.0546333 0.273973 0.063494 -0.623768 -0.643835 0.443159 1 
0.0545961 0.27379 0.0637058 -0.623768 -0.643835 0.443159 1 
0.054678 0.273745 0.0633041 -0.616579 -0.669761 0.413823 1 
0.055183 0.273042 0.0626876 -0.658846 -0.658846 0.363104 1 
0.0545274 0.273465 0.0626569 -0.613621 -0.705256 0.355082 1 
0.0543703 0.273369 0.062735 -0.613621 -0.705256 0.355082 1 
0.0544005 0.273477 0.0629284 -0.608747 -0.709933 0.35415 1 
0.0544751 0.273098 0.0626119 -0.632033 -0.690827 0.35113 1 
0.0545806 0.273346 0.063129 -0.613621 -0.705256 0.355082 1 
0.0549324 0.272974 0.0628681 -0.65687 -0.666698 0.352187 1 
0.0545951 0.27301 0.0627456 -0.652879 -0.672515 0.348529 1 
0.0539773 0.274137 0.0631432 -0.732627 -0.548235 0.403356 1 
0.0540708 0.274109 0.0630409 -0.71653 -0.599012 0.357449 1 
0.0539806 0.274045 0.0627806 -0.717162 -0.606579 0.343132 1 
0.0541156 0.273881 0.062851 -0.66475 -0.654902 0.359458 1 
0.0540821 0.273865 0.0630202 -0.69429 -0.608534 0.38425 1 
0.0541455 0.273729 0.0627244 -0.644256 -0.677043 0.355734 1 
0.0540003 0.273909 0.0634219 -0.688542 -0.588994 0.42308 1 
0.0542622 0.273733 0.0632207 -0.636945 -0.650249 0.414097 1 
0.0543255 0.273597 0.0629249 -0.610159 -0.708308 0.354972 1 
0.0543725 0.273505 0.0616252 -0.620512 -0.6991 0.35528 1 
0.054661 0.273269 0.0616601 -0.597877 -0.742137 0.302946 1 
0.0547174 0.273057 0.0617695 -0.636844 -0.685958 0.351983 1 
0.0541368 0.273361 0.0617423 -0.639513 -0.713241 0.286899 1 
0.0546053 0.272993 0.0619777 -0.649308 -0.681854 0.336859 1 
0.0544969 0.273097 0.0621434 -0.633434 -0.679502 0.370189 1 
0.0546501 0.272766 0.0617878 -0.673684 -0.657372 0.337657 1 
0.0542045 0.272905 0.061831 -0.627989 -0.717931 0.300342 1 
0.0554933 0.272806 0.062254 -0.676306 -0.636814 0.370241 1 
0.0550776 0.272794 0.0621706 -0.682681 -0.630041 0.370128 1 
0.0552162 0.272798 0.0621984 -0.679502 -0.633434 0.370189 1 
0.0546468 0.272858 0.0621505 -0.652625 -0.678665 0.336891 1 
0.0547971 0.272878 0.0624776 -0.652132 -0.671745 0.3514 1 
0.0547218 0.272738 0.062154 -0.663322 -0.656771 0.358685 1 
0.054617 0.27301 0.0622771 -0.656816 -0.656816 0.370385 1 
0.0548571 0.272834 0.0625445 -0.65687 -0.666698 0.352187 1 
0.0555524 0.271982 0.0613607 -0.93806 -0.315418 0.143372 1 
0.0554705 0.272026 0.0617623 -0.832623 -0.435986 0.341549 1 
0.0540997 0.273177 0.0619541 -0.603396 -0.729576 0.321919 1 
0.0542798 0.273045 0.0621546 -0.610159 -0.708308 0.354972 1 
0.0549483 0.273678 0.0637649 -0.616534 -0.653292 0.439427 1 
0.0553634 0.27317 0.0632082 -0.612419 -0.685051 0.394523 1 
0.0554267 0.273034 0.0629124 -0.626635 -0.685845 0.37006 1 
0.0553631 0.27291 0.0628882 -0.612613 -0.68857 0.388043 1 
0.0549029 0.273386 0.0633147 -0.579758 -0.70529 0.407978 1 
0.0551015 0.273346 0.0634094 -0.579758 -0.70529 0.407978 1 
0.055071 0.272978 0.0628959 -0.650164 -0.669816 0.358655 1 
0.0552179 0.27309 0.0635857 -0.519505 -0.74894 0.411343 1 
0.0555534 0.272762 0.0623208 -0.676306 -0.636814 0.370241 1 
0.055393 0.272758 0.0627616 -0.630903 -0.667333 0.395763 1 
0.0555163 0.272578 0.0625326 -0.689784 -0.614056 0.383579 1 
0.0556178 0.272399 0.0627722 -0.814406 -0.496205 0.300873 1 
0.0553406 0.272391 0.0627166 -0.769576 -0.534024 0.350101 1 
0.0554708 0.272286 0.0620824 -0.800038 -0.479382 0.360739 1 
0.0557404 0.271699 0.0619031 -0.967267 -0.230666 0.105775 1 
0.055572 0.271847 0.0620019 -0.900145 -0.380774 0.211541 1 
0.0553701 0.271979 0.0622699 -0.781252 -0.490102 0.386582 1 
0.0554301 0.271935 0.0623367 -0.85628 -0.439629 0.27113 1 
0.0553246 0.271687 0.0618197 -0.909 -0.371929 0.188118 1 
0.0554411 0.271431 0.061996 -0.967518 -0.204841 0.148155 1 
0.0554716 0.271799 0.0625095 -0.897105 -0.389475 0.208595 1 
0.0553651 0.271778 0.0612453 -0.954905 -0.26091 0.141713 1 
0.0554665 0.271599 0.0614849 -0.971624 -0.191785 0.138441 1 
0.0556048 0.271343 0.0611926 -0.997818 0.00522418 0.0658246 1 
0.0555899 0.271419 0.0612559 -0.997913 0.00942416 0.0638748 1 
0.0555265 0.271555 0.0615517 -0.97099 -0.192667 0.141629 1 
0.0557969 0.271487 0.0620125 -0.996839 -0.077828 0.0159921 1 
0.0558864 0.271031 0.0616327 -0.995338 0.0205783 0.0942268 1 
0.0554895 0.271371 0.0617635 -0.990665 -0.0866977 0.105193 1 
0.055591 0.271191 0.062003 -0.999585 -0.0193206 0.0213543 1 
0.0556357 0.270963 0.0618132 -0.995832 0.0183018 0.0893557 1 
0.0554488 0.271019 0.0620178 -0.999004 0.0363086 0.0259347 1 
0.0554153 0.271003 0.062187 -0.999585 -0.0193206 0.0213543 1 
0.0554935 0.270792 0.0618279 -0.99602 0.00960791 0.0886063 1 
0.0555353 0.270916 0.0623207 -0.995835 -0.0838025 -0.0359154 1 
0.0638359 0.291155 0.0352524 -0.955079 -0.0493352 0.292216 0 
0.0635005 0.292074 0.0339131 -0.625508 0.768822 0.132864 0 
0.0632309 0.291654 0.0338794 -0.922627 0.359339 0.140128 0 
0.0632837 0.291275 0.0340314 -0.85903 0.466245 0.211384 0 
0.0630251 0.291358 0.0338699 -0.893872 0.447604 -0.0253865 0 
0.0631753 0.291378 0.034197 -0.835795 0.513525 0.194266 0 
0.0630029 0.291099 0.0340183 -0.839271 0.507782 0.194373 0 
0.0629243 0.291051 0.0340574 -0.839271 0.507782 0.194373 0 
0.0631852 0.291102 0.0331091 -0.9432 0.182069 -0.277895 0 
0.0632947 0.290771 0.0336906 -0.910626 0.413214 0.00388603 0 
0.0632081 0.290875 0.0333877 -0.89734 0.233514 -0.374503 0 
0.0635311 0.291435 0.0342136 -0.927996 0.279962 0.245855 0 
0.0631382 0.291195 0.0344088 -0.834785 0.449499 0.317939 0 
0.0632953 0.291291 0.0343307 -0.843428 0.456534 0.283206 0 
0.0631982 0.291151 0.0344756 -0.821091 0.439927 0.363694 0 
0.0634834 0.291007 0.0348732 -0.784446 0.380092 0.490076 0 
0.0635202 0.290931 0.0343413 -0.808163 0.398481 0.433688 0 
0.0632648 0.290923 0.0338172 -0.81891 0.560152 0.124968 0 
0.0631939 0.290463 0.0338781 -0.924888 0.329006 0.190626 0 
0.0633173 0.290283 0.0336491 -0.958552 0.278044 -0.0622106 0 
0.063435 0.291067 0.0351057 -0.696298 0.465868 0.546018 0 
0.0635435 0.290963 0.03494 -0.767167 0.389284 0.509816 0 
0.0624979 0.290795 0.0344218 -0.848292 0.461729 0.259243 0 
0.0622772 0.290575 0.0344756 -0.932837 0.350982 0.0814064 0 
0.0629025 0.291051 0.0345259 -0.834785 0.449499 0.317939 0 
0.0631491 0.290691 0.034068 -0.836196 0.451702 0.311034 0 
0.0629735 0.290503 0.034252 -0.79602 0.418193 0.437569 0 
0.0630968 0.290323 0.034023 -0.817008 0.40293 0.412486 0 
0.0632838 0.290267 0.0338183 0.104582 0.673152 0.732071 0 
0.0629178 0.290227 0.0345697 -0.744001 0.418808 0.520636 0 
0.0630411 0.290048 0.0343407 -0.73108 0.434027 0.526444 0 
0.0627454 0.289948 0.034391 -0.741539 0.454172 0.493809 0 
0.0634649 0.290915 0.0349791 -0.767167 0.389284 0.509816 0 
0.0633077 0.290819 0.0350572 -0.789109 0.375997 0.48573 0 
0.0634579 0.290839 0.0353843 -0.705185 0.465122 0.535141 0 
0.0636151 0.290935 0.0353062 -0.744001 0.418808 0.520636 0 
0.0636078 0.2906 0.0353914 -0.767999 0.39949 0.500585 0 
0.0635442 0.290476 0.0353671 -0.720765 0.452342 0.525247 0 
0.0636042 0.290432 0.0354339 -0.736439 0.430001 0.522262 0 
0.0633685 0.290288 0.035551 -0.694354 0.493577 0.523693 0 
0.0637574 0.2901 0.0350784 -0.854885 0.261512 0.448088 0 
0.0621953 0.290619 0.0348773 -0.75688 0.532258 0.379254 0 
0.0624201 0.290259 0.0348879 -0.771047 0.467844 0.431982 0 
0.0626104 0.290111 0.0343206 -0.875575 0.391665 0.282785 0 
0.0627006 0.290175 0.0345808 -0.763566 0.436557 0.475798 0 
0.062645 0.2899 0.0348985 -0.737966 0.37471 0.561247 0 
0.0631961 0.290008 0.0353724 -0.851449 0.21929 0.476388 0 
0.0632671 0.28946 0.0350985 -0.865466 0.172504 0.47033 0 
0.0627315 0.289796 0.0352014 -0.763312 0.326215 0.557619 0 
0.0638719 0.289969 0.0366845 -0.311505 -0.811178 -0.494929 0 
0.0638327 0.29024 0.035402 -0.830252 0.298641 0.470633 0 
0.0639342 0.29006 0.0356416 -0.967648 -0.0661746 0.243473 0 
0.0639076 0.29012 0.0354055 -0.845943 0.229331 0.481443 0 
0.0636271 0.290204 0.0357126 -0.908316 0.166833 0.383574 0 
0.0634885 0.2902 0.0356848 -0.856809 0.231203 0.460894 0 
0.0637137 0.2901 0.0360155 -0.977133 -0.0444698 0.207926 0 
0.0635565 0.290004 0.0360935 -0.96507 0.0638373 0.254097 0 
0.0638338 0.290013 0.0361491 -0.985629 -0.0917695 0.141826 0 
0.0638072 0.290072 0.0359131 -0.977133 -0.0444698 0.207926 0 
0.0640946 0.290064 0.0352008 -0.877293 0.199721 0.436427 0 
0.0639822 0.28974 0.035089 -0.889147 0.169707 0.424992 0 
0.063979 0.289832 0.0354517 -0.915911 0.159473 0.36834 0 
0.064044 0.289989 0.0365431 -0.990487 -0.132442 0.0373555 0 
0.0638639 0.290121 0.0363426 -0.985154 0.0056814 0.171578 0 
0.0642241 0.289857 0.0367437 -0.0935203 -0.827295 -0.553928 0 
0.0636468 0.290069 0.0363538 -0.984808 -0.0921388 0.147183 0 
0.0637068 0.290025 0.0364207 -0.988166 -0.0615426 0.140503 0 
0.0638083 0.289845 0.0366603 -0.990281 0.0608168 0.125076 0 
0.0640669 0.289761 0.0368217 -0.995285 0.0472898 0.0846817 0 
0.0641084 0.289625 0.0369945 -0.899508 0.350055 0.261433 0 
0.0638312 0.289617 0.0369389 -0.999917 0.000989037 -0.0128575 0 
0.0634154 0.289605 0.0368555 -0.978176 0.155365 0.137964 0 
0.0635955 0.289473 0.037056 -0.987699 0.149021 0.0473633 0 
0.0637155 0.289385 0.0371897 -0.936992 0.302211 0.175255 0 
0.063815 0.288653 0.0357219 0.0768142 0.481835 0.872889 0 
0.0634559 0.288689 0.036068 -0.983634 0.117359 0.136717 0 
0.0636393 0.288466 0.0359059 -0.934507 0.331511 0.129603 0 
0.0638608 0.288198 0.0362792 -0.824162 0.56043 -0.0816996 0 
0.0640113 0.289485 0.0371394 -0.93534 0.294123 0.196547 0 
0.0640411 0.289334 0.0370128 -0.996331 0.0685998 -0.0511776 0 
0.0642059 0.289018 0.0369566 -0.988845 0.147707 -0.019168 0 
0.064281 0.288898 0.0369602 -0.992091 0.0369932 -0.119948 0 
0.0639625 0.289286 0.0370518 -0.965762 0.244288 0.0873362 0 
0.0638054 0.28919 0.0371299 -0.990325 0.136325 -0.0259129 0 
0.0639855 0.289058 0.0373305 -0.954896 0.285564 0.0814052 0 
0.0641576 0.289078 0.0371891 -0.991716 0.0995148 -0.0812132 0 
0.0630666 0.288027 0.0388248 -0.965808 0.213904 -0.146492 0 
0.0634002 0.288414 0.0363857 -0.900793 0.43391 0.0171454 0 
0.0629396 0.28863 0.0364922 -0.928902 0.360569 0.0844456 0 
0.0627716 0.28803 0.036698 -0.866322 0.499441 -0.00669492 0 
0.0632093 0.288042 0.0363129 -0.658287 0.734301 -0.165712 0 
0.0635697 0.289046 0.037247 -0.97801 0.207812 0.0176112 0 
0.0637498 0.288914 0.0374476 -0.982342 0.186286 -0.0173559 0 
0.0636712 0.288866 0.0374866 -0.982342 0.186286 -0.0173559 0 
0.0638698 0.288826 0.0375813 -0.981938 0.186533 -0.0316754 0 
0.0638662 0.288658 0.0376239 -0.970121 0.241016 -0.0278562 0 
0.0637912 0.288778 0.0376204 -0.968919 0.247307 0.0059736 0 
0.063649 0.288606 0.0376351 -0.992079 0.110231 -0.0602293 0 
0.0632146 0.288502 0.0376576 -0.984723 0.155984 -0.0773966 0 
0.0636042 0.288834 0.037825 -0.894067 0.422 0.150203 0 
0.0636155 0.28859 0.0378043 -0.966927 0.254709 0.0132786 0 
0.0633646 0.288262 0.0376647 -0.985518 0.154614 -0.0696354 0 
0.063513 0.28799 0.0366045 -0.867233 0.497681 0.014836 0 
0.0638443 0.288658 0.0380924 -0.589274 0.669402 0.452389 0 
0.0636384 0.288363 0.0380829 -0.916789 0.392909 0.0715608 0 
0.0636799 0.288227 0.0382556 -0.954369 0.298318 0.0136162 0 
0.0629669 0.288082 0.0371553 -0.921695 0.382817 0.0626912 0 
0.0635748 0.288239 0.0380587 -0.946656 0.322186 -0.00621981 0 
0.0634176 0.288143 0.0381367 -0.940557 0.331884 0.0721487 0 
0.0635228 0.288131 0.0383337 -0.974954 0.216791 -0.0496561 0 
0.0635977 0.288011 0.0383373 -0.974954 0.216791 -0.0496561 0 
0.0634744 0.288191 0.0385663 -0.368228 -0.594075 -0.715181 0 
0.0635944 0.288103 0.0386999 -0.968196 0.121504 -0.218707 0 
0.0636992 0.287831 0.0385769 -0.976404 0.102975 -0.189822 0 
0.0633587 0.287959 0.038817 -0.962388 0.123051 -0.242216 0 
0.0632675 0.287115 0.0375966 -0.982373 -0.105645 -0.154217 0 
0.0636851 0.28801 0.0364631 -0.874782 0.484515 -0.00132744 0 
0.0634254 0.286724 0.0379456 -0.913409 0.0275994 -0.406106 0 
0.0630554 0.287264 0.0386324 -0.828481 -0.20144 -0.522534 0 
0.0629051 0.287243 0.0383053 -0.731323 -0.338906 -0.591869 0 
0.0632758 0.286633 0.0408626 -0.583955 0.758982 0.287999 0 
0.0635272 0.287811 0.0387182 -0.969273 0.102361 -0.223678 0 
0.0634486 0.287763 0.0387573 -0.972318 0.0938531 -0.213985 0 
0.0633511 0.287364 0.0385821 -0.739447 -0.264428 -0.619109 0 
0.0635162 0.287308 0.038846 -0.7993 -0.230359 -0.555026 0 
0.0631757 0.287436 0.0390862 -0.82084 -0.262234 -0.5074 0 
0.0632507 0.287316 0.0390897 -0.85046 -0.186832 -0.491743 0 
0.0633478 0.287456 0.0389448 -0.96314 0.262446 0.059019 0 
0.0632806 0.287164 0.0389631 -0.851335 -0.154387 -0.501391 0 
0.0636512 0.287144 0.0389164 -0.863073 -0.15972 -0.47916 0 
0.0634155 0.287 0.0390335 -0.897179 -0.0813111 -0.434119 0 
0.0630673 0.28754 0.0392518 -0.937111 0.045365 -0.34607 0 
0.0629549 0.287216 0.03914 -0.901787 -0.0752629 -0.425578 0 
0.0630149 0.287172 0.0392068 -0.868688 -0.113058 -0.482286 0 
0.0629364 0.287124 0.0392459 -0.887447 -0.0995399 -0.450032 0 
0.0629062 0.287016 0.0390525 -0.893327 -0.0961616 -0.438998 0 
0.063195 0.28704 0.0394074 -0.950261 0.0685222 -0.303825 0 
0.0631015 0.287068 0.0395097 -0.954919 0.0626386 -0.290183 0 
0.063322 0.287028 0.0391359 -0.901787 -0.0752629 -0.425578 0 
0.063512 0.28662 0.0382484 -0.914943 0.0604588 -0.399028 0 
0.0636774 0.286824 0.0388324 -0.892272 -0.0816186 -0.444061 0 
0.0635498 0.286316 0.0384638 -0.931358 0.0350721 -0.362411 0 
0.0633064 0.286584 0.038559 -0.896244 -0.0362797 -0.442075 0 
0.0633592 0.286205 0.038711 -0.935624 -0.0165485 -0.352609 0 
0.0627006 0.28698 0.039363 -0.885545 -0.073449 -0.45871 0 
0.0630794 0.286808 0.0396582 -0.958997 0.0209819 -0.282639 0 
0.0628807 0.286848 0.0395636 -0.958997 0.0209819 -0.282639 0 
0.0626636 0.286796 0.0395748 -0.965726 0.0206507 -0.258742 0 
0.0626079 0.28652 0.0398925 -0.952964 0.298994 0.0496203 0 
0.0632584 0.285897 0.0388986 -0.866777 -0.113182 -0.485682 0 
0.0632594 0.286677 0.0398587 -0.950986 0.308664 0.0187448 0 
0.0630008 0.28676 0.0396973 -0.970797 0.0376655 -0.236928 0 
0.0630874 0.286657 0.0400001 -0.861683 -0.328334 -0.38691 0 
0.0631623 0.286537 0.0400037 -0.946821 0.316468 0.0581268 0 
0.0628436 0.286664 0.0397753 -0.914072 0.382146 0.135781 0 
0.0629451 0.286485 0.0400149 -0.964935 0.258885 -0.0433539 0 
0.0629902 0.286517 0.0401451 -0.779239 -0.466893 -0.418088 0 
0.0630565 0.286029 0.0391666 -0.8702 -0.121857 -0.477392 0 
0.0631013 0.285801 0.0389767 -0.900261 -0.0415918 -0.43336 0 
0.0630041 0.285661 0.0391216 -0.858072 -0.0985141 -0.503992 0 
0.0630122 0.285509 0.0394635 -0.909174 -0.0250716 -0.41566 0 
0.0635567 0.286392 0.0380585 -0.939428 0.0722637 -0.335041 0 
0.0635796 0.286164 0.0383372 -0.946656 0.00621981 -0.322186 0 
0.0634039 0.285977 0.0385211 -0.916542 -0.0383546 -0.398094 0 
0.0631682 0.285833 0.0386383 -0.893808 -0.0280567 -0.447572 0 
0.0630029 0.286305 0.0411916 -0.849007 0.525576 0.0543699 0 
0.0626169 0.286141 0.0409815 -0.968135 0.22322 -0.113523 0 
0.0623569 0.285602 0.0423569 -0.992606 0.0255083 -0.118669 0 
0.0623944 0.285039 0.0422522 -0.996756 0.0311822 -0.0741922 0 
0.0622859 0.285142 0.0424178 -0.996479 -0.0290864 -0.078641 0 
0.0626192 0.286277 0.0398718 -0.966895 0.0662942 -0.246414 0 
0.0626123 0.286201 0.040277 -0.95132 0.0263211 -0.30708 0 
0.0627694 0.286297 0.0401989 -0.964441 0.0561447 -0.258266 0 
0.0627323 0.286113 0.0404106 -0.955144 0.062486 -0.289476 0 
0.0630536 0.285373 0.0396362 -0.93045 -0.00893437 -0.366309 0 
0.0629714 0.285158 0.0397178 -0.862941 -0.147474 -0.483305 0 
0.0630685 0.285298 0.0395729 -0.880246 -0.0823051 -0.467325 0 
0.0629413 0.28505 0.0395244 -0.975925 0.19864 0.0900664 0 
0.0626269 0.284858 0.0396806 -0.97367 0.0498383 -0.222449 0 
0.0628676 0.286209 0.0408011 -0.908984 -0.0891161 -0.407192 0 
0.0626133 0.285973 0.0410241 -0.970852 0.128514 -0.202314 0 
0.0627771 0.284878 0.0400077 -0.984068 0.172417 -0.0433975 0 
0.0626352 0.284966 0.0403425 -0.870834 -0.162458 -0.463957 0 
0.0624562 0.285877 0.0411022 -0.971205 0.167185 -0.169737 0 
0.0621943 0.285046 0.0410903 -0.945555 0.190206 -0.264099 0 
0.0623147 0.285218 0.0415441 -0.975573 0.134 -0.174075 0 
0.0626847 0.284678 0.0408572 -0.930844 0.165083 -0.326003 0 
0.0627066 0.284678 0.0403887 -0.915358 -0.0222619 -0.402024 0 
0.0625544 0.284783 0.0414914 -0.967459 0.240292 -0.0792587 0 
0.0628045 0.284331 0.0406709 -0.891024 -0.067273 -0.448944 0 
0.0626592 0.284511 0.0413683 -0.952861 0.276211 -0.12555 0 
0.0626888 0.284099 0.0409216 -0.910396 0.305414 -0.27911 0 
0.0629812 0.284291 0.041234 -0.877719 0.443988 -0.180233 0 
0.0627099 0.284586 0.040026 -0.969253 0.115599 -0.217224 0 
0.06268 0.284738 0.0401526 -0.745981 -0.370542 -0.553364 0 
0.0629314 0.284319 0.0403993 -0.946411 0.0317588 -0.321399 0 
0.0625385 0.284079 0.0405945 -0.86159 -0.119386 -0.493365 0 
0.0627557 0.284131 0.0405833 -0.890157 -0.0226877 -0.455088 0 
0.0622133 0.284391 0.0410915 -0.914794 0.282702 -0.288501 0 
0.0621539 0.284954 0.0416647 -0.985274 0.164797 -0.0455821 0 
0.062453 0.283955 0.0410388 -0.898122 0.208832 -0.386996 0 
0.0622959 0.283859 0.0411169 -0.898122 0.208832 -0.386996 0 
0.0618615 0.283755 0.0411393 -0.844418 0.2267 -0.48535 0 
0.0616596 0.283887 0.0414073 -0.821272 0.19583 -0.535876 0 
0.0618244 0.283571 0.0413511 -0.888423 0.15119 -0.433412 0 
0.0618811 0.283619 0.0417806 -0.937763 0.25778 -0.232699 0 
0.0623028 0.283935 0.0407116 -0.910396 0.305414 -0.27911 0 
0.0620671 0.283791 0.0408287 -0.899866 0.233407 -0.36846 0 
0.0620158 0.283196 0.0415309 -0.773039 0.621695 0.12612 0 
0.0619154 0.283148 0.0420385 -0.572662 0.726903 0.37904 0 
0.0616982 0.283096 0.0420497 -0.546915 0.734147 0.402385 0 
0.0621489 0.283156 0.0430312 0.0346066 -0.208833 -0.977339 0 
0.0610735 0.28314 0.0426396 -0.95262 0.117266 -0.280648 0 
0.0619062 0.283944 0.0437665 -0.626597 0.219231 -0.747873 0 
0.0612178 0.283864 0.0443321 -0.87908 0.338575 -0.335538 0 
0.0611542 0.28374 0.0443079 -0.900491 0.335651 -0.276505 0 
0.0608261 0.282389 0.0450614 -0.870638 0.481478 -0.100841 0 
0.0611564 0.282278 0.0455891 -0.824748 0.552274 -0.121588 0 
0.0602921 0.28175 0.0460186 -0.928104 0.341642 -0.147999 0 
0.0604943 0.281878 0.0460706 -0.937128 0.341373 -0.0724923 0 
0.0618756 0.283576 0.043253 -0.850937 0.3998 -0.340686 0 
0.0616247 0.283248 0.0431134 -0.794258 0.210471 -0.569961 0 
0.0617145 0.283052 0.0430536 -0.667214 -0.362296 -0.65082 0 
0.0617142 0.282792 0.0427336 -0.473517 -0.503423 -0.722736 0 
0.0613173 0.283132 0.0428644 -0.900955 0.0361453 -0.432405 0 
0.0613137 0.282964 0.0429069 -0.701902 -0.394717 -0.592901 0 
0.0614788 0.282908 0.0431708 -0.779362 -0.228675 -0.583355 0 
0.0613216 0.282812 0.0432489 -0.846591 -0.206743 -0.490449 0 
0.0617491 0.282841 0.0436316 -0.642514 -0.74884 0.162527 0 
0.0619132 0.283012 0.0431483 -0.449703 -0.495826 -0.742916 0 
0.0621751 0.282836 0.0429472 -0.35357 -0.521476 -0.776563 0 
0.0620296 0.282757 0.0433246 -0.515897 -0.815149 -0.263404 0 
0.0616924 0.282793 0.0432021 -0.598968 -0.681928 -0.419776 0 
0.0616138 0.282745 0.0432411 -0.604709 -0.644911 -0.467351 0 
0.0615465 0.282453 0.0432595 -0.407978 -0.70529 -0.579758 0 
0.0616585 0.282517 0.0430512 -0.416205 -0.681515 -0.601922 0 
0.0609277 0.2828 0.0426969 -0.678771 -0.220015 -0.700616 0 
0.0608608 0.282768 0.0430353 -0.869412 0.036851 -0.492712 0 
0.0610627 0.282636 0.0427673 -0.52615 -0.281137 -0.802576 0 
0.061198 0.282732 0.0431578 -0.779512 -0.18153 -0.599507 0 
0.0608499 0.282265 0.043163 -0.594498 -0.457177 -0.661484 0 
0.061067 0.282317 0.0431518 -0.658846 -0.363104 -0.658846 0 
0.0611313 0.28296 0.0438162 -0.907896 0.200632 -0.368066 0 
0.0611772 0.282505 0.0443735 -0.850179 -0.173597 -0.497051 0 
0.061378 0.282601 0.0433583 -0.642977 -0.485171 -0.592613 0 
0.0614679 0.282405 0.0432985 -0.344821 -0.681472 -0.645519 0 
0.061206 0.282581 0.0434997 -0.716799 -0.136748 -0.683739 0 
0.061401 0.282373 0.0436369 -0.468238 -0.698191 -0.541556 0 
0.0615276 0.282101 0.0430453 -0.492119 -0.582816 -0.646641 0 
0.0616029 0.282241 0.0433689 -0.419891 -0.698712 -0.579217 0 
0.0611423 0.282457 0.0434754 -0.664827 -0.269438 -0.696713 0 
0.0613224 0.282325 0.0436759 -0.453971 -0.64494 -0.614787 0 
0.0609066 0.282313 0.0435925 -0.902716 -0.140297 -0.406718 0 
0.0609812 0.281933 0.043276 -0.644893 -0.399535 -0.651525 0 
0.0619947 0.282708 0.0424265 -0.505635 -0.559391 -0.656822 0 
0.061759 0.282564 0.0425437 -0.528901 -0.582974 -0.61677 0 
0.0615232 0.282421 0.0426608 -0.532429 -0.52571 -0.663437 0 
0.0613323 0.282049 0.042588 -0.632019 -0.369362 -0.681267 0 
0.0607517 0.282352 0.0425608 -0.648732 -0.275751 -0.709301 0 
0.0610201 0.282409 0.0444515 -0.884477 0.398238 -0.243119 0 
0.0607843 0.282265 0.0445686 -0.892121 0.423793 -0.156588 0 
0.0607345 0.282293 0.0437339 -0.904979 -0.197739 -0.376714 0 
0.0607986 0.281669 0.0438652 -0.87484 0.442601 -0.196876 0 
0.0607277 0.28121 0.0439261 -0.864161 0.308519 -0.397545 0 
0.0607439 0.282173 0.0451431 -0.93023 0.273264 -0.244946 0 
0.0610811 0.282138 0.0452655 -0.815037 0.48713 -0.313718 0 
0.06105 0.28125 0.0441118 -0.834588 0.327259 -0.44313 0 
0.0610878 0.280946 0.0443272 -0.778354 0.311661 -0.545007 0 
0.0605082 0.28203 0.0452602 -0.910615 0.313252 -0.269542 0 
0.0604296 0.281982 0.0452992 -0.896224 0.359971 -0.259238 0 
0.0605192 0.281526 0.0449194 -0.873586 0.370474 -0.315589 0 
0.0608302 0.28181 0.0451259 -0.909261 0.291374 -0.29723 0 
0.0606243 0.281514 0.0451164 -0.883136 0.377627 -0.278331 0 
0.0603471 0.281506 0.0450608 -0.883136 0.377627 -0.278331 0 
0.0599313 0.281494 0.0449774 -0.851514 0.384504 -0.356484 0 
0.0604373 0.28157 0.0453211 -0.887384 0.445815 -0.117469 0 
0.0607139 0.281058 0.0447366 -0.812404 0.391039 -0.432537 0 
0.0608521 0.280802 0.0444443 -0.738508 0.30731 -0.600139 0 
0.0603129 0.28097 0.0445898 -0.862003 0.2955 -0.411863 0 
0.0606014 0.280734 0.0446247 -0.861337 0.233813 -0.451033 0 
0.0608819 0.28065 0.0443177 -0.731323 0.338906 -0.591869 0 
0.0604662 0.280638 0.0442343 -0.828569 0.294914 -0.47592 0 
0.0602521 0.280911 0.0467 -0.948062 0.311709 0.0633766 0 
0.0600248 0.280458 0.044662 -0.862175 0.279253 -0.422695 0 
0.0602573 0.280694 0.0449075 -0.868858 0.278461 -0.409322 0 
0.0602871 0.280542 0.0447809 -0.865876 0.249336 -0.433694 0 
0.0601002 0.280598 0.0449856 -0.896483 0.262277 -0.357112 0 
0.0597411 0.280634 0.0453317 -0.912274 0.385369 -0.138733 0 
0.0599692 0.280183 0.0449797 -0.87226 0.1529 -0.464526 0 
0.0598458 0.280363 0.0452086 -0.871978 0.488362 0.0340085 0 
0.0605028 0.280979 0.0465196 -0.936419 0.345411 0.0617275 0 
0.060147 0.280923 0.046503 -0.948392 0.276558 0.155142 0 
0.0598545 0.280731 0.0461907 -0.967491 0.25074 0.0330243 0 
0.0596636 0.280359 0.0461179 -0.878519 0.396313 0.26672 0 
0.0599898 0.280827 0.0465811 -0.95544 0.285991 0.0731008 0 
0.0598986 0.279983 0.0453606 -0.952007 -0.0365671 -0.303886 0 
0.0599401 0.279847 0.0455334 -0.971914 0.0475592 -0.230479 0 
0.0599703 0.279955 0.0457268 -0.962062 -0.0747848 -0.262381 0 
0.0599746 0.279636 0.0461113 -0.956573 0.277548 0.0890736 0 
0.0601382 0.279964 0.0481251 -0.739775 0.401873 -0.539658 0 
0.0599025 0.27982 0.0482422 -0.895578 0.224997 -0.383819 0 
0.059824 0.279772 0.0482813 -0.896501 0.23995 -0.372438 0 
0.0594947 0.279656 0.0485007 -0.93648 0.329327 -0.120618 0 
0.0603569 0.280639 0.0465769 -0.95544 0.285991 0.0731008 0 
0.0599976 0.279408 0.0463899 -0.973036 0.223982 -0.0550775 0 
0.0595871 0.279856 0.0476512 -0.944498 0.297766 -0.138778 0 
0.0593514 0.279712 0.0477683 -0.926944 0.343261 -0.15148 0 
0.0597618 0.279264 0.0465071 -0.973394 0.181008 -0.140503 0 
0.0598069 0.279296 0.0466372 -0.956759 -0.0414889 -0.287908 0 
0.0595712 0.279152 0.0467543 -0.9117 -0.301955 -0.278615 0 
0.0595261 0.27912 0.0466242 -0.924948 -0.267334 -0.270193 0 
0.0591703 0.279064 0.0466076 -0.914033 -0.256393 -0.314335 0 
0.0596734 0.279492 0.047634 -0.918887 0.365037 -0.149651 0 
0.0599314 0.278889 0.0471554 -0.921057 0.360898 -0.14631 0 
0.0599463 0.278813 0.0470921 -0.921057 0.360898 -0.14631 0 
0.0597106 0.278669 0.0472092 -0.933237 0.319374 -0.164526 0 
0.0600478 0.278633 0.0473317 -0.921057 0.360898 -0.14631 0 
0.0593017 0.278732 0.0467206 -0.938623 0.303713 -0.163538 0 
0.059059 0.278513 0.0472429 -0.949274 0.292594 -0.115184 0 
0.0594529 0.279532 0.0480079 -0.928352 0.343476 -0.142081 0 
0.059573 0.279444 0.0481416 -0.924556 0.311026 -0.220132 0 
0.0592958 0.279436 0.048086 -0.8984 0.412778 -0.149971 0 
0.059561 0.279168 0.0475222 -0.918887 0.365037 -0.149651 0 
0.0594606 0.279121 0.0480298 -0.880124 0.469861 -0.0679151 0 
0.0594271 0.279105 0.048199 -0.93719 0.330376 -0.111923 0 
0.0592401 0.279161 0.0484037 -0.920124 0.26063 -0.292309 0 
0.0595385 0.278649 0.0473506 -0.928606 0.351475 -0.118982 0 
0.0595534 0.278573 0.0472873 -0.937689 0.315293 -0.146045 0 
0.0592242 0.278457 0.0475068 -0.950709 0.260265 -0.168565 0 
0.0593144 0.278521 0.0477671 -0.929121 0.364491 -0.0622948 0 
0.0592657 0.278321 0.0476795 -0.947987 0.22779 -0.222334 0 
0.0595545 0.278345 0.0480345 -0.909123 0.106549 -0.402671 0 
0.0582599 0.278228 0.0545052 0.131573 -0.983781 0.121916 0 
0.0581813 0.27818 0.0545442 0.121051 -0.990313 0.0680192 0 
0.0577135 0.27806 0.0547359 0.33587 -0.939118 -0.0724425 0 
0.0581337 0.277752 0.0552038 0.442847 -0.859824 -0.254143 0 
0.0576651 0.27812 0.0549684 0.222185 -0.968727 -0.110458 0 
0.0578935 0.277928 0.0549364 -0.195917 -0.974592 -0.108565 0 
0.057242 0.277772 0.0549702 -0.910342 0.227224 0.345901 0 
0.0581605 0.277952 0.0557599 -0.951942 -0.0764144 0.296592 0 
0.0582468 0.277589 0.0557427 -0.959478 -0.0159708 0.281332 0 
0.0585777 0.277494 0.0483521 -0.865015 0.137649 -0.482496 0 
0.058903 0.277182 0.0478552 -0.933243 0.0456832 -0.356329 0 
0.0592558 0.278597 0.0487675 -0.944468 0.310382 -0.107901 0 
0.0589378 0.278237 0.0489662 -0.893371 0.447361 0.0418979 0 
0.059035 0.278377 0.0488213 -0.943615 0.319802 -0.0855439 0 
0.0589826 0.27801 0.0487763 -0.977002 0.0948665 -0.190965 0 
0.0590572 0.27763 0.0484598 -0.973568 0.145592 -0.175977 0 
0.0590121 0.277598 0.0483296 -0.942592 0.0912185 -0.321248 0 
0.0587992 0.278233 0.0489384 -0.891646 0.451857 0.0281572 0 
0.0589041 0.277962 0.0488153 -0.938671 0.341453 -0.0480371 0 
0.0590841 0.27783 0.0490159 -0.994457 0.0636185 -0.0837085 0 
0.0588812 0.277182 0.0483237 -0.972879 -0.0989156 -0.2091 0 
0.0590165 0.277278 0.0487141 -0.974175 -0.191826 -0.119108 0 
0.0590464 0.277126 0.0485875 -0.969343 -0.215268 -0.118461 0 
0.0591813 0.276962 0.0486579 -0.946332 -0.321372 -0.0342966 0 
0.0584587 0.276764 0.0515697 0.704162 -0.676058 0.217026 0 
0.0584707 0.27704 0.0521891 0.737175 -0.665979 0.11421 0 
0.0584787 0.276888 0.052531 0.0388477 -0.99849 -0.0388477 0 
0.058414 0.276991 0.0517596 0.745615 -0.652973 0.132985 0 
0.0588285 0.277648 0.053913 -0.862372 0.365621 -0.350194 0 
0.0568205 0.277039 0.053222 -0.31416 -0.894834 0.317137 0 
0.0573574 0.277744 0.0543993 -0.0202562 -0.868314 0.495601 0 
0.0571217 0.2776 0.0545164 -0.823238 0.410826 0.391792 0 
0.0570016 0.277687 0.0543827 -0.595939 0.802494 0.0293085 0 
0.0570562 0.277183 0.0531049 -0.271196 -0.907407 0.321037 0 
0.0573415 0.27704 0.0535024 -0.228692 -0.904572 0.35979 0 
0.0566972 0.277219 0.0534509 -0.154443 -0.925266 0.346453 0 
0.0580178 0.276844 0.0523174 0.979987 0.0104625 0.198787 0 
0.0580934 0.277244 0.0529611 -0.0239631 -0.98705 0.158613 0 
0.0581531 0.27694 0.0527079 0.108738 -0.985814 0.127857 0 
0.058243 0.276744 0.0526481 0.305688 -0.925595 0.223223 0 
0.0577526 0.277112 0.0528812 -0.0397823 -0.990011 0.13526 0 
0.0579326 0.27698 0.0530818 -0.02196 -0.983577 0.179147 0 
0.0579174 0.276796 0.052825 -0.125453 -0.971946 0.198951 0 
0.0580222 0.276524 0.052702 0.125848 -0.919657 0.372012 0 
0.0581422 0.276436 0.0528357 0.227748 -0.858203 0.460021 0 
0.0570443 0.276907 0.0524855 -0.0939797 -0.971124 0.219286 0 
0.0565051 0.277075 0.052631 -0.00392025 -0.900351 0.435148 0 
0.0565917 0.276971 0.0529339 -0.0748344 -0.9627 0.260018 0 
0.05704 0.27622 0.0518879 0.791789 -0.187649 0.581255 0 
0.0567816 0.276563 0.0520465 0.158668 -0.760097 0.63014 0 
0.0582111 0.278028 0.0544176 0.131573 -0.983781 0.121916 0 
0.0583494 0.277772 0.0541254 0.275096 -0.79385 0.542333 0 
0.0579456 0.278036 0.0546613 0.234614 -0.960739 -0.148109 0 
0.0578183 0.277788 0.0546128 -0.857738 0.378641 0.347731 0 
0.0586758 0.277232 0.0543756 -0.999201 -0.0359425 0.0174578 0 
0.0576946 0.277708 0.0545217 -0.41413 -0.777914 0.472595 0 
0.0577961 0.277528 0.0547613 -0.944432 -0.261809 0.198756 0 
0.0579795 0.277304 0.0545992 -0.94633 -0.263552 0.187081 0 
0.0573916 0.277272 0.0546572 -0.892519 -0.153783 0.423982 0 
0.0576383 0.276912 0.0541992 -0.192944 -0.854038 0.483107 0 
0.0581228 0.277249 0.0553316 -0.660349 -0.745272 0.0922439 0 
0.057819 0.2773 0.0550399 -0.113739 -0.967418 -0.226199 0 
0.0579129 0.276525 0.0550446 -0.897224 -0.394081 0.199222 0 
0.0582142 0.276668 0.0535219 -0.998957 -0.044238 -0.0113167 0 
0.0580232 0.276297 0.0534491 -0.155924 -0.985958 0.0597905 0 
0.0581284 0.276285 0.0536461 0.222651 -0.966536 0.127413 0 
0.0578999 0.276476 0.053678 -0.710605 -0.676694 0.19268 0 
0.0565281 0.276847 0.0529096 -0.0912948 -0.880643 0.464901 0 
0.0578367 0.276196 0.0511567 0.904679 0.0278159 0.425186 0 
0.0578967 0.276152 0.0512236 0.87886 0.180467 0.441631 0 
0.0580467 0.275912 0.0512306 0.864761 0.119426 0.487777 0 
0.0577625 0.275828 0.0515803 0.859272 -0.508322 -0.0570991 0 
0.0579503 0.275285 0.0518027 0.903258 -0.417636 0.0985121 0 
0.0573805 0.276092 0.0516477 0.8846 -0.465791 -0.0228197 0 
0.0577854 0.2756 0.0518589 0.922059 -0.361891 0.137269 0 
0.0577782 0.275265 0.051944 0.896964 -0.283174 0.339512 0 
0.0574639 0.275073 0.0521002 0.530887 0.365289 0.764672 0 
0.0573853 0.275025 0.0521393 0.539707 0.354942 0.763369 0 
0.0579615 0.275041 0.0517819 0.448421 0.350181 0.82237 0 
0.0577258 0.274897 0.0518991 0.437493 0.355364 0.826024 0 
0.0571416 0.275033 0.0519145 0.637794 0.230358 0.734952 0 
0.057071 0.274833 0.0522954 0.569085 0.407432 0.714242 0 
0.0569102 0.274569 0.0524161 -0.0876022 0.828631 0.552899 0 
0.0565959 0.274377 0.0525723 -0.00134521 0.848828 0.528668 0 
0.0568065 0.274613 0.0532863 -0.074898 0.846489 0.527112 0 
0.0568396 0.274369 0.052797 -0.0838465 0.845571 0.527238 0 
0.0569193 0.27419 0.0535052 -0.148899 0.759534 0.633196 0 
0.0571212 0.274058 0.0532372 -0.0602653 0.845116 0.531176 0 
0.0566188 0.27415 0.0528509 -0.074898 0.846489 0.527112 0 
0.0563951 0.274282 0.0535874 -0.148899 0.759534 0.633196 0 
0.057099 0.273798 0.0533856 -0.148899 0.759534 0.633196 0 
0.0607229 0.278994 0.0593793 0.0469199 -0.644083 0.763515 0 
0.0604487 0.278634 0.058641 -0.373353 -0.745076 0.552693 0 
0.0606025 0.278822 0.0589255 -0.0588476 -0.744925 0.664548 0 
0.0604652 0.279857 0.060178 -0.384735 -0.341471 0.857541 0 
0.0609149 0.279138 0.0601992 0.069182 -0.40831 0.910218 0 
0.0595093 0.279233 0.0592799 -0.610027 -0.48903 0.623471 0 
0.0600942 0.279617 0.0599046 -0.276966 -0.339172 0.899028 0 
0.0602106 0.279362 0.0600809 -0.264609 -0.353305 0.897306 0 
0.0596933 0.279529 0.0597579 -0.46307 -0.443434 0.767419 0 
0.0597232 0.279377 0.0596313 -0.546934 -0.513277 0.66137 0 
0.0596893 0.279101 0.0594804 -0.584948 -0.41924 0.694315 0 
0.0597941 0.27883 0.0593574 -0.554571 -0.520859 0.648966 0 
0.0600495 0.278838 0.0598815 -0.331516 -0.477446 0.813721 0 
0.0592997 0.278769 0.059313 -0.631142 -0.4864 0.604214 0 
0.0597385 0.278554 0.059675 -0.46979 -0.550039 0.690474 0 
0.0595813 0.278458 0.0597531 -0.56765 -0.447794 0.690835 0 
0.0591555 0.278045 0.0576204 -0.769047 -0.311776 0.557999 0 
0.0589383 0.277993 0.0576317 -0.772482 -0.308673 0.554971 0 
0.0586239 0.277801 0.0577879 -0.820937 -0.275723 0.500039 0 
0.0582173 0.278 0.0561894 -0.912489 -0.208364 0.352063 0 
0.0581802 0.277817 0.0564012 -0.915891 -0.201467 0.34721 0 
0.0581835 0.277725 0.0560385 -0.950104 0.0111777 0.311733 0 
0.0580678 0.277493 0.0562893 -0.934912 -0.0295777 0.353646 0 
0.0582996 0.277209 0.0558947 -0.945651 -0.0214634 0.324476 0 
0.0582479 0.277361 0.0564899 -0.961921 0.048784 0.268938 0 
0.0583374 0.276905 0.0561101 -0.944241 0.104916 0.312091 0 
0.0584737 0.277781 0.0574607 -0.851617 -0.248325 0.46161 0 
0.0586004 0.277509 0.0568691 -0.944057 -0.0556851 0.325046 0 
0.0585633 0.277325 0.0570809 -0.949832 -0.0136935 0.312461 0 
0.0585785 0.277509 0.0573376 -0.925476 -0.110729 0.362262 0 
0.0587099 0.277178 0.0574506 -0.927679 0.0193535 0.372878 0 
0.0586302 0.277357 0.0567425 -0.955037 0.0161031 0.296049 0 
0.0585931 0.277174 0.0569543 -0.956751 0.0702554 0.282299 0 
0.0595759 0.277998 0.0584084 -0.662585 -0.471358 0.582068 0 
0.0598266 0.278066 0.058228 0.541973 -0.729769 -0.416776 0 
0.0602129 0.27849 0.0587581 -0.449321 -0.679828 0.579607 0 
0.0602697 0.278538 0.0591876 -0.366719 -0.666015 0.64957 0 
0.0599772 0.278346 0.0588752 -0.415215 -0.703054 0.577331 0 
0.0600339 0.278394 0.0593047 -0.366719 -0.666015 0.64957 0 
0.0603323 0.277882 0.0582516 0.25982 -0.965565 0.0132931 0 
0.0605647 0.278118 0.0584971 0.555584 -0.817737 0.15044 0 
0.059947 0.278238 0.0586818 -0.311505 -0.811178 0.494929 0 
0.0597931 0.27805 0.0583972 -0.568125 -0.665326 0.48433 0 
0.0598833 0.278114 0.0586575 -0.813372 -0.0207141 0.581375 0 
0.059374 0.27813 0.0586764 -0.651088 -0.53332 0.54005 0 
0.0591034 0.277937 0.0578955 -0.747316 -0.330885 0.576224 0 
0.0594675 0.278102 0.0585741 -0.654186 -0.52974 0.53983 0 
0.0591751 0.27791 0.0582617 -0.716497 -0.390367 0.578139 0 
0.0587891 0.277746 0.0580517 -0.751878 -0.317174 0.577996 0 
0.0596818 0.278506 0.0592456 -0.528666 -0.57258 0.626629 0 
0.0595133 0.278654 0.0593443 -0.592194 -0.531456 0.605691 0 
0.0597415 0.278202 0.0589923 -0.348727 -0.744492 0.569317 0 
0.0598247 0.27819 0.0596579 -0.366719 -0.666015 0.64957 0 
0.0581355 0.277037 0.0563781 -0.961686 0.0774939 0.262971 0 
0.0582403 0.276765 0.056255 -0.946025 0.110436 0.304697 0 
0.0585567 0.27751 0.0578062 -0.863517 -0.172703 0.473827 0 
0.058436 0.277078 0.0570324 -0.955956 0.0757066 0.283579 0 
0.060514 0.27905 0.0600525 -0.153603 -0.553269 0.818718 0 
0.0603791 0.279214 0.0599821 -0.0886348 -0.611725 0.786089 0 
0.0606257 0.278854 0.0595242 0.165104 -0.607401 0.777049 0 
0.060203 0.278766 0.059846 -0.00137137 -0.618487 0.785794 0 
0.060353 0.278526 0.0598531 -0.00137137 -0.618487 0.785794 0 
0.0599971 0.27847 0.0598365 -0.178819 -0.643443 0.744315 0 
0.0604534 0.278574 0.0593455 0.012521 -0.727612 0.685875 0 
0.0602176 0.27843 0.0594627 -0.3514 -0.671745 0.652132 0 
0.0601321 0.278306 0.0599069 -0.139846 -0.663138 0.735317 0 
0.0602587 0.278034 0.0593153 0.149709 -0.825626 0.543994 0 
0.0599633 0.278194 0.0596856 -0.0588476 -0.744925 0.664548 0 
0.0601314 0.277786 0.0592668 0.276063 -0.864793 0.419432 0 
0.0598171 0.277595 0.0594229 0.285324 -0.891825 0.351053 0 
0.0598357 0.277687 0.0593171 -0.162067 -0.874577 0.457 0 
0.0584531 0.277137 0.0558593 -0.962997 -0.00604138 0.269446 0 
0.0582174 0.276993 0.0559764 -0.94067 0.100071 0.324231 0 
0.0581235 0.276761 0.0557587 -0.949399 -0.129161 0.286284 0 
0.0564877 0.274151 0.0556621 0.776516 -0.610658 -0.155303 0 
0.056252 0.274007 0.0557792 0.504806 -0.797816 -0.329637 0 
0.0564321 0.273875 0.0559797 0.581255 -0.791789 -0.187649 0 
0.0562935 0.273871 0.0559519 0.581255 -0.791789 -0.187649 0 
0.0561964 0.273731 0.0560968 0.663055 -0.744305 -0.0797988 0 
0.0563764 0.273599 0.0562974 0.663055 -0.744305 -0.0797988 0 
0.0556812 0.273444 0.0572682 0.719736 -0.670628 -0.17955 0 
0.056032 0.273299 0.0562601 0.663055 -0.744305 -0.0797988 0 
0.0558668 0.273355 0.0559963 0.581255 -0.791789 -0.187649 0 
0.0558897 0.273128 0.0562749 0.663055 -0.744305 -0.0797988 0 
0.0556947 0.273335 0.0561377 0.581255 -0.791789 -0.187649 0 
0.0554106 0.273251 0.0564873 0.630637 -0.773638 -0.0614907 0 
0.0555638 0.272919 0.0561317 0.542532 -0.822064 -0.172829 0 
0.0559803 0.273451 0.0568552 0.663055 -0.744305 -0.0797988 0 
0.0561673 0.273396 0.0566506 0.663055 -0.744305 -0.0797988 0 
0.0561822 0.27332 0.0565873 0.663055 -0.744305 -0.0797988 0 
0.0559017 0.273404 0.0568943 0.677569 -0.72264 -0.136716 0 
0.0556245 0.273395 0.0568387 0.630637 -0.773638 -0.0614907 0 
0.0560851 0.27318 0.0567321 0.663055 -0.744305 -0.0797988 0 
0.0561265 0.273044 0.0569049 0.677583 -0.717172 -0.162925 0 
0.0558493 0.273036 0.0568493 0.677583 -0.717172 -0.162925 0 
0.0552385 0.273231 0.0566287 0.630637 -0.773638 -0.0614907 0 
0.0562509 0.273644 0.0576361 0.565116 -0.802739 -0.190403 0 
0.0562509 0.273644 0.0576361 0.565116 -0.802739 -0.190403 0 
0.05587 0.272673 0.0582377 0.464121 -0.773535 -0.431551 0 
0.0557129 0.272577 0.0583158 0.448607 -0.774867 -0.445345 0 
0.0553986 0.272385 0.058472 0.148899 -0.759534 -0.633196 0 
0.0559795 0.272341 0.0588192 0.146809 -0.820057 -0.553131 0 
0.0545266 0.272269 0.0588796 0.146809 -0.820057 -0.553131 0 
0.0551061 0.272193 0.0581596 0.148899 -0.759534 -0.633196 0 
0.0557391 0.272257 0.0582318 0.148899 -0.759534 -0.633196 0 
0.055702 0.272073 0.0584435 0.146809 -0.820057 -0.553131 0 
0.0556315 0.271873 0.0588245 -0.0823518 -0.796067 -0.599579 0 
0.0548147 0.271773 0.0585944 0.132552 -0.781906 -0.609142 0 
0.0553564 0.27141 0.0602632 -0.999685 0.0250673 -0.00100269 0 
0.055427 0.27161 0.0598823 -0.976826 -0.206986 -0.0544699 0 
0.0553899 0.271426 0.060094 -0.998614 0.0429624 -0.0303881 0 
0.0553411 0.271226 0.0600065 -0.998159 0.0348563 -0.0496439 0 
0.0554415 0.271274 0.0594989 -0.894881 -0.343956 -0.284397 0 
0.0556816 0.271098 0.0597663 -0.994423 0.0962345 -0.0431396 0 
0.0557264 0.270871 0.0595764 -0.965116 0.160201 0.20709 0 
0.0557155 0.270367 0.0597041 -0.924251 0.148714 0.351632 0 
0.0553564 0.27141 0.0602632 -0.999685 0.0250673 -0.00100269 0 
0.0553342 0.271151 0.0604117 -0.99919 0.033958 0.0216097 0 
0.0553342 0.271151 0.0604117 -0.99919 0.033958 0.0216097 0 
0.055439 0.270879 0.0602886 -0.998522 0.045054 0.0303853 0 
0.0551433 0.270779 0.0603389 -0.998214 0.0536448 0.0262965 0 
0.0552786 0.270875 0.0607293 -0.998017 0.0560921 0.0285752 0 
0.0554248 0.270467 0.060779 -0.996852 0.077663 0.0159581 0 
0.0553859 0.270998 0.0598166 -0.991203 -0.131791 -0.0121824 0 
0.0554907 0.270727 0.0596935 -0.965116 0.160201 0.20709 0 
0.0552102 0.270811 0.0600005 -0.996811 0.00741517 -0.0794483 0 
0.0555136 0.270499 0.0599721 -0.996811 0.00741517 -0.0794483 0 
0.0553681 0.270419 0.0603495 -0.989745 0.137813 0.0375853 0 
0.0554129 0.270191 0.0601596 -0.96762 -0.0790662 -0.239709 0 
0.0555595 0.270044 0.0605294 -0.992881 0.110818 0.0436554 0 
0.0551782 0.26982 0.0610239 -0.996335 0.0446445 0.0729557 0 
0.053587 0.268996 0.0611635 0.148899 -0.759534 -0.633196 0 
0.0537191 0.269184 0.0619166 -0.713011 -0.695442 0.0893094 0 
0.0545129 0.268505 0.061655 0.313277 -0.79671 -0.516828 0 
0.0539024 0.26896 0.0617544 0.313277 -0.79671 -0.516828 0 
0.0539439 0.268825 0.0619272 0.313277 -0.79671 -0.516828 0 
0.0540673 0.268645 0.0616982 0.313277 -0.79671 -0.516828 0 
0.0540567 0.268401 0.062146 0.394077 -0.697466 -0.598535 0 
0.0544692 0.268505 0.0625921 0.294219 -0.702588 -0.647924 0 
0.054267 0.268377 0.06254 0.290015 -0.703407 -0.648929 0 
0.0526935 0.270147 0.0625727 0.148899 -0.759534 -0.633196 0 
0.0525512 0.269975 0.0625875 0.148899 -0.759534 -0.633196 0 
0.0531422 0.268648 0.0616338 0.298458 -0.800626 -0.519539 0 
0.0530298 0.268324 0.0615219 0.285123 -0.747055 -0.600511 0 
0.0536514 0.268632 0.0616148 0.313277 -0.79671 -0.516828 0 
0.05324 0.268301 0.0619159 0.371414 -0.734646 -0.567756 0 
0.0543121 0.268409 0.0626702 0.30138 -0.70107 -0.646274 0 
0.0540312 0.268233 0.0626572 0.376684 -0.676057 -0.63329 0 
0.0540127 0.268141 0.062763 0.374026 -0.654134 -0.657429 0 
0.0537769 0.267998 0.0628802 0.406466 -0.675232 -0.615506 0 
0.0541797 0.267371 0.0642011 0.0135496 -0.957092 -0.289468 0 
0.0549916 0.267531 0.0637267 0.322291 -0.694787 -0.642962 0 
0.0545271 0.267319 0.0635557 0.1754 -0.748884 -0.639068 0 
0.0550931 0.267351 0.0639663 0.163844 -0.986455 0.00790972 0 
0.0538446 0.267542 0.0629689 0.3975 -0.700985 -0.592126 0 
0.0539462 0.267362 0.0632085 0.0826838 -0.776068 -0.625206 0 
0.0537181 0.266807 0.0633475 -0.0539006 -0.866555 -0.496162 0 
0.0544416 0.267195 0.064 0.10414 -0.931848 -0.347583 0 
0.0545649 0.267015 0.063771 0.197324 -0.89015 -0.410726 0 
0.0539956 0.267075 0.0637231 -0.102178 -0.84477 -0.525283 0 
0.0538686 0.267087 0.0639946 0.0165136 -0.938735 -0.344245 0 
0.0538832 0.266751 0.0636113 0.0135496 -0.957092 -0.289468 0 
0.0550859 0.267015 0.0640514 0.189091 -0.91702 0.351169 0 
0.0531276 0.267386 0.0644082 -0.539757 -0.395384 -0.743191 0 
0.0530042 0.267566 0.0646371 -0.474256 -0.242465 -0.84634 0 
0.0528918 0.267242 0.0645253 -0.547999 -0.425486 -0.72018 0 
0.0537453 0.267267 0.0642236 -0.0297372 -0.932198 -0.360726 0 
0.0532738 0.266979 0.0644578 -0.481659 -0.48497 -0.729937 0 
0.0531167 0.266883 0.0645359 -0.537382 -0.434866 -0.722573 0 
0.0522362 0.267666 0.0644946 -0.41555 -0.328393 -0.848219 0 
0.0522254 0.267162 0.0646223 -0.462397 -0.446058 -0.766304 0 
0.0528809 0.266739 0.064653 -0.584653 -0.409091 -0.700589 0 
0.0527653 0.266507 0.0649039 -0.471671 -0.484911 -0.736469 0 
0.0526681 0.266367 0.0650488 -0.51308 -0.496368 -0.700263 0 
0.0536995 0.266715 0.0634533 0.0140445 -0.933319 -0.358773 0 
0.053618 0.267019 0.0641751 -0.067497 -0.933047 -0.353367 0 
0.0533972 0.266799 0.0642289 -0.469564 -0.546432 -0.693485 0 
0.0533186 0.266751 0.0642679 -0.400899 -0.585675 -0.70446 0 
0.0524739 0.266088 0.0653387 -0.340088 -0.626479 -0.70133 0 
0.0528897 0.2661 0.0654221 -0.383579 -0.614056 -0.689784 0 
0.0527925 0.26596 0.065567 -0.251682 -0.656906 -0.710725 0 
0.052332 0.266176 0.0656735 -0.329551 -0.644492 -0.689947 0 
0.0526769 0.265728 0.0658178 0.934392 -0.265564 -0.237462 0 
0.0522054 0.26544 0.066052 0.589996 -0.532518 -0.606901 0 
0.0526813 0.265409 0.0662023 0.589996 -0.532518 -0.606901 0 
0.0524455 0.265265 0.0663194 0.786915 0.324024 0.525142 0 
0.0523899 0.264989 0.0666371 0.563411 -0.560028 -0.607402 0 
0.0527995 0.266036 0.0651618 -0.38032 -0.600938 -0.703015 0 
0.0524481 0.26566 0.0655297 0.931697 -0.243848 -0.26922 0 
0.0528082 0.265397 0.0659308 0.831725 -0.344325 -0.435516 0 
0.0530032 0.265189 0.066068 0.846213 -0.305879 -0.436304 0 
0.0532619 0.265105 0.0662295 0.86356 -0.291929 -0.411146 0 
0.0528574 0.264849 0.0661254 0.522758 -0.542929 -0.65723 0 
0.0526446 0.264477 0.0665212 0.58713 -0.503014 -0.634235 0 
0.0527566 0.264541 0.0663129 0.823433 0.336643 0.45676 0 
0.0525689 0.264077 0.0658775 0.75064 -0.363108 -0.551989 0 
0.0519151 0.264793 0.067234 0.750919 0.422289 0.507733 0 
0.0516794 0.264649 0.0673511 0.680626 0.47995 0.553531 0 
0.0517394 0.264605 0.067418 0.7434 0.509336 0.433513 0 
0.052304 0.264605 0.0667613 0.819682 0.333243 0.465908 0 
0.0523801 0.264258 0.067512 0.818204 0.452792 0.35429 0 
0.0528046 0.263631 0.0683644 -0.999486 -0.0193976 0.0255231 0 
0.0523331 0.263343 0.0685987 -0.146226 -0.35512 -0.923313 0 
0.0526038 0.264126 0.0667755 0.591494 -0.517346 -0.618456 0 
0.0527053 0.263946 0.0670151 0.916415 0.347408 0.198723 0 
0.0527501 0.263718 0.0668251 0.95271 0.302507 0.02887 0 
0.0527283 0.263718 0.0672937 0.933986 0.334053 0.126804 0 
0.0526497 0.26367 0.0673327 0.948167 0.301989 0.0989047 0 
0.0527996 0.263431 0.0673398 0.954939 0.22161 0.197435 0 
0.0526726 0.263443 0.0676113 -0.237371 0.556968 0.79589 0 
