0.0612 0.2859 0.0575 0.217269 0.496833 0.840209 1 
0.0609 0.2862 0.0573 0.21637 0.437217 0.872941 1 
0.0609 0.2861 0.0575 0.173479 0.568709 0.804037 1 
0.0612 0.2861 0.0576 0.108671 0.447385 0.887714 1 
0.0612 0.2861 0.0573 0.130559 0.457675 0.879482 1 
0.0627 0.285 0.0572 0.999999 0.000977516 0.000977516 1 
0.0624 0.2852 0.0576 0.215373 0.175734 0.96059 1 
0.0633 0.2853 0.0572 0.999999 0.000977516 0.000977516 1 
0.0638 0.2858 0.0572 0.999999 0.000977516 0.000977516 1 
0.062 0.2865 0.0566 -0.0678068 0.705479 0.705479 1 
0.0618 0.287 0.0566 -0.0152874 0.64624 0.762981 1 
0.0611 0.2873 0.0561 0.176576 0.807421 0.562931 1 
0.0612 0.2874 0.0563 -0.00137821 0.751123 0.660161 1 
0.0612 0.2876 0.0563 0.0296262 0.706796 0.706796 1 
0.0612 0.2876 0.0564 0.0324449 0.706734 0.706734 1 
0.0611 0.2865 0.0572 0.149714 0.672956 0.724373 1 
0.0615 0.2867 0.0575 0.083152 0.713356 0.695851 1 
0.0609 0.2868 0.0576 0.191053 0.594557 0.781025 1 
0.0612 0.287 0.0576 0.120431 0.685415 0.718125 1 
0.0614 0.287 0.0575 0.120431 0.685415 0.718125 1 
0.0624 0.287 0.0572 -0.035237 0.65259 0.756892 1 
0.062 0.2868 0.0573 -0.00972279 0.695874 0.718098 1 
0.0623 0.2865 0.0576 0.102295 0.537411 0.837093 1 
0.0618 0.2868 0.0573 0.0267445 0.688318 0.724916 1 
0.0627 0.2867 0.0566 0.163484 0.565445 0.808421 1 
0.0629 0.2867 0.0567 0.186426 0.484708 0.854578 1 
0.0624 0.2868 0.0566 -0.0768375 0.679939 0.729231 1 
0.0626 0.287 0.0564 -0.174882 0.600682 0.780126 1 
0.0629 0.2873 0.0567 0.113146 0.491255 0.863635 1 
0.0626 0.2879 0.0566 -0.0688499 0.512862 0.855706 1 
0.0626 0.2867 0.0573 0.239045 0.396429 0.886398 1 
0.0627 0.2865 0.0576 0.2929 0.383957 0.875664 1 
0.063 0.2874 0.057 0.113146 0.491255 0.863635 1 
0.0629 0.2874 0.0569 0.113146 0.491255 0.863635 1 
0.0605 0.2895 0.0558 -0.0654163 -0.00103835 0.997858 1 
0.0606 0.2894 0.0558 -0.0150127 -0.00900763 0.999847 1 
0.0609 0.2891 0.0553 0.0771781 -0.00951511 0.996972 1 
0.0611 0.2889 0.0556 0.146045 0.315293 0.937689 1 
0.0612 0.2892 0.0556 0.03069 0.0560886 0.997954 1 
0.0612 0.2894 0.0558 0.0771781 -0.00951511 0.996972 1 
0.0612 0.2895 0.0559 0.0771781 -0.00951511 0.996972 1 
0.0615 0.2894 0.0558 0.03069 0.0560886 0.997954 1 
0.0615 0.2894 0.0559 0.0961556 0.433397 0.896059 1 
0.0617 0.2892 0.0555 0.0271812 0.371477 0.928044 1 
0.0617 0.2892 0.0558 0.0271812 0.371477 0.928044 1 
0.0621 0.2892 0.0556 -0.00384496 0.388341 0.921508 1 
0.0624 0.2892 0.0554 -0.0305703 0.423997 0.905147 1 
0.0627 0.2888 0.0558 0.00134636 0.531813 0.846861 1 
0.0632 0.2888 0.0558 -0.119546 0.609538 0.783691 1 
0.0636 0.2895 0.0553 -0.999999 -0.000977516 -0.000977516 1 
0.0632 0.2892 0.0559 -0.117052 0.635638 0.763062 1 
0.0638 0.2892 0.0559 -0.999999 -0.000977516 -0.000977516 1 
0.0635 0.2894 0.0559 -0.999999 -0.000977516 -0.000977516 1 
0.0611 0.29 0.0554 0.0771781 -0.00951511 0.996972 1 
0.0614 0.2897 0.0555 0.0771781 -0.00951511 0.996972 1 
0.0615 0.2897 0.0558 0.03069 0.0560886 0.997954 1 
0.0609 0.29 0.0556 -0.0150127 -0.00900763 0.999847 1 
0.0624 0.2882 0.0564 -0.128577 0.422467 0.897212 1 
0.0635 0.2892 0.056 -0.999999 -0.000977516 -0.000977516 1 
0.0606 0.2861 0.0578 0.162841 0.470918 0.867017 1 
0.0605 0.2865 0.0576 0.0995844 0.267714 0.958338 1 
0.0623 0.2852 0.0582 0.256722 0.101915 0.961097 1 
0.0617 0.2853 0.0584 0.0786058 0.355725 0.931279 1 
0.0614 0.2858 0.0578 0.0766459 0.375162 0.923785 1 
0.0611 0.2861 0.0578 0.143727 0.477639 0.86672 1 
0.0609 0.2861 0.0579 0.0144379 0.426574 0.904337 1 
0.0624 0.2861 0.0578 0.248568 0.385504 0.888595 1 
0.0674 0.2894 0.0575 0.999999 0.000977516 0.000977516 1 
0.0648 0.2871 0.0597 0.54221 -0.315089 0.778927 1 
0.0648 0.288 0.0594 0.461678 -0.390898 0.796274 1 
0.0647 0.2871 0.0603 0.498973 -0.336368 0.798675 1 
0.065 0.287 0.0602 0.38568 -0.36382 0.847872 1 
0.0642 0.2876 0.0602 0.91941 -0.381152 0.0969957 1 
0.0642 0.2879 0.0602 0.934211 -0.325122 0.146785 1 
0.0644 0.2879 0.0602 0.935486 -0.320071 0.149733 1 
0.0644 0.2874 0.0605 0.91941 -0.381152 0.0969957 1 
0.0642 0.2876 0.0606 0.91941 -0.381152 0.0969957 1 
0.0641 0.2877 0.0605 0.939265 -0.334225 0.0779418 1 
0.0647 0.288 0.0606 0.948357 -0.297602 0.109782 1 
0.0651 0.288 0.0608 0.30279 -0.384954 0.871853 1 
0.066 0.2876 0.0596 0.522563 -0.13613 0.841663 1 
0.0663 0.2876 0.0593 0.758069 -0.638453 -0.133073 1 
0.066 0.288 0.0593 0.52239 0.0515425 0.851147 1 
0.0662 0.288 0.0596 0.585898 0.0349581 0.80963 1 
0.0663 0.2876 0.0596 0.741127 -0.670274 -0.0382609 1 
0.0668 0.2892 0.0582 0.934547 -0.245933 0.257176 1 
0.0666 0.2888 0.0585 0.930206 -0.314732 0.188839 1 
0.0668 0.2888 0.0588 0.937035 -0.29291 0.190183 1 
0.0665 0.2882 0.059 0.94259 -0.297875 0.150978 1 
0.0665 0.2883 0.059 0.94259 -0.297875 0.150978 1 
0.0665 0.288 0.0591 0.94259 -0.297875 0.150978 1 
0.0665 0.2882 0.0591 0.94259 -0.297875 0.150978 1 
0.0665 0.2883 0.0591 0.94259 -0.297875 0.150978 1 
0.0666 0.2886 0.0588 0.94259 -0.297875 0.150978 1 
0.0666 0.2886 0.059 0.94259 -0.297875 0.150978 1 
0.0668 0.2888 0.059 0.94259 -0.297875 0.150978 1 
0.0666 0.2888 0.0591 0.94259 -0.297875 0.150978 1 
0.0668 0.2889 0.0584 0.923804 -0.326797 0.199474 1 
0.0669 0.2891 0.0584 0.937485 -0.255678 0.236118 1 
0.0668 0.2889 0.0588 0.931568 -0.316093 0.17963 1 
0.0669 0.2891 0.0587 0.925428 -0.332817 0.181154 1 
0.0668 0.2892 0.059 0.937787 -0.313508 0.149225 1 
0.0666 0.2889 0.059 0.94259 -0.297875 0.150978 1 
0.0668 0.2889 0.059 0.947991 -0.276441 0.157774 1 
0.0668 0.2891 0.0588 0.923319 -0.341501 0.175669 1 
0.0665 0.2892 0.059 0.939425 -0.314048 0.137311 1 
0.0647 0.288 0.06 0.465991 -0.395045 0.791702 1 
0.0647 0.2882 0.0602 0.0189665 -0.335074 0.942001 1 
0.0645 0.288 0.0603 0.948357 -0.297602 0.109782 1 
0.0647 0.2882 0.0603 0.948357 -0.297602 0.109782 1 
0.0648 0.2882 0.0602 0.41825 -0.392805 0.819006 1 
0.0648 0.2882 0.0603 0.41825 -0.392805 0.819006 1 
0.065 0.2885 0.0602 0.429549 -0.372487 0.822642 1 
0.065 0.2886 0.0602 0.422629 -0.416201 0.805085 1 
0.0648 0.2883 0.0606 0.948357 -0.297602 0.109782 1 
0.065 0.2885 0.0605 0.374237 -0.36492 0.852514 1 
0.065 0.2888 0.0605 0.900868 -0.434043 -0.00655654 1 
0.065 0.2886 0.0608 0.900868 -0.434043 -0.00655654 1 
0.0653 0.2885 0.0608 0.339124 -0.446382 0.828093 1 
0.0647 0.2888 0.0605 0.900868 -0.434043 -0.00655654 1 
0.0648 0.2891 0.0606 0.7956 -0.154325 -0.585837 1 
0.065 0.2888 0.0608 0.809916 -0.27415 -0.518534 1 
0.0648 0.2891 0.0608 0.800545 -0.0494164 -0.597232 1 
0.065 0.2892 0.0608 0.858918 -0.0342471 -0.510967 1 
0.065 0.2894 0.0606 0.890895 -0.0119139 -0.454052 1 
0.0663 0.2882 0.0594 0.434831 -0.849545 -0.298656 1 
0.0662 0.2882 0.0594 0.434831 -0.849545 -0.298656 1 
0.0662 0.2882 0.0596 0.598948 0.0761253 0.797161 1 
0.0663 0.288 0.06 0.658898 0.0528833 0.750371 1 
0.0665 0.288 0.0593 0.939967 -0.295026 0.171527 1 
0.0665 0.2882 0.0596 0.939967 -0.295026 0.171527 1 
0.0665 0.2886 0.0593 0.94259 -0.297875 0.150978 1 
0.0665 0.2885 0.0594 0.94259 -0.297875 0.150978 1 
0.0665 0.2886 0.0594 0.94259 -0.297875 0.150978 1 
0.0665 0.2888 0.0594 0.94259 -0.297875 0.150978 1 
0.0665 0.2885 0.0596 0.939967 -0.295026 0.171527 1 
0.0665 0.2888 0.0596 0.94259 -0.297875 0.150978 1 
0.0665 0.2882 0.0597 0.941478 -0.291899 0.168562 1 
0.0665 0.2883 0.0599 0.810829 -0.317693 0.491555 1 
0.0665 0.2886 0.0596 0.94259 -0.297875 0.150978 1 
0.0665 0.2891 0.0593 0.947991 -0.276441 0.157774 1 
0.065 0.2882 0.0608 0.216573 -0.364831 0.905536 1 
0.0552 0.2871 0.0632 0.999999 0.000977516 0.000977516 1 
0.0558 0.2868 0.0638 0.672614 -0.0499819 -0.738304 1 
0.055 0.2876 0.0635 0.999999 0.000977516 0.000977516 1 
0.0561 0.2871 0.0635 0.243251 -0.367088 -0.897817 1 
0.0561 0.2865 0.0639 0.613553 -0.215909 -0.759563 1 
0.0564 0.2868 0.0636 0.664261 -0.220378 -0.714276 1 
0.0567 0.287 0.0639 0.794796 -0.193741 -0.575121 1 
0.0564 0.2874 0.0635 0.184472 -0.453063 -0.872183 1 
0.0564 0.2874 0.0638 0.00138104 -0.711237 -0.702951 1 
0.0555 0.2847 0.0641 0.447089 -0.414808 -0.792493 1 
0.0555 0.2847 0.0642 0.424743 -0.40551 -0.809416 1 
0.0558 0.2847 0.0642 0.4182 -0.343018 -0.841099 1 
0.057 0.2841 0.0648 0.255276 -0.499723 -0.827714 1 
0.0573 0.2843 0.0648 0.508746 -0.309051 -0.803533 1 
0.057 0.2847 0.0645 0.60924 -0.0824862 -0.788684 1 
0.057 0.2847 0.0647 0.633196 -0.110699 -0.766034 1 
0.0569 0.2847 0.0648 0.607962 -0.129322 -0.783364 1 
0.0573 0.2835 0.0656 0.912859 0.211323 -0.34933 1 
0.0572 0.284 0.0654 0.30429 -0.427859 -0.851084 1 
0.0576 0.284 0.0654 0.0682913 -0.486401 -0.871063 1 
0.0564 0.2841 0.0651 0.504503 -0.279585 -0.816889 1 
0.0564 0.2846 0.0651 0.418195 -0.386393 -0.822079 1 
0.0567 0.2844 0.065 0.28706 -0.509806 -0.810984 1 
0.0567 0.2847 0.065 0.615253 -0.100837 -0.781854 1 
0.057 0.2844 0.065 0.631271 -0.101062 -0.76895 1 
0.0572 0.2841 0.065 0.464696 -0.365688 -0.80643 1 
0.057 0.2844 0.065 0.631271 -0.101062 -0.76895 1 
0.0572 0.2844 0.0651 0.548139 -0.265431 -0.793152 1 
0.0573 0.2843 0.0648 0.508746 -0.309051 -0.803533 1 
0.057 0.2846 0.0648 0.633643 -0.120199 -0.76423 1 
0.057 0.2847 0.065 0.615952 -0.16496 -0.770319 1 
0.0569 0.2847 0.065 0.637604 -0.139523 -0.757624 1 
0.0572 0.2841 0.0653 0.430159 -0.376191 -0.820636 1 
0.0573 0.2841 0.0656 0.609408 -0.229112 -0.759032 1 
0.057 0.2846 0.0654 0.598461 -0.168175 -0.783302 1 
0.0572 0.2838 0.0657 0.573283 -0.327821 -0.75092 1 
0.0573 0.2838 0.0656 0.358403 -0.457162 -0.813972 1 
0.0569 0.2844 0.0657 0.633875 -0.206126 -0.745462 1 
0.0573 0.2841 0.0657 0.608 -0.23601 -0.758047 1 
0.0559 0.285 0.0642 0.500389 -0.217494 -0.838038 1 
0.0559 0.285 0.0645 0.531046 -0.195171 -0.824559 1 
0.0567 0.2849 0.0644 0.477807 -0.215541 -0.851612 1 
0.0561 0.2855 0.0641 0.577828 -0.187527 -0.794323 1 
0.0566 0.2856 0.0642 0.547052 -0.176323 -0.818318 1 
0.0564 0.2853 0.0644 0.51605 -0.117087 -0.848518 1 
0.0563 0.2852 0.0644 0.485237 -0.125269 -0.865363 1 
0.0563 0.2849 0.0647 0.518334 -0.164857 -0.839137 1 
0.0566 0.2852 0.0644 0.553077 -0.108873 -0.825986 1 
0.0567 0.2849 0.0647 0.607678 -0.119761 -0.785102 1 
0.0567 0.2849 0.0648 0.607678 -0.119761 -0.785102 1 
0.0566 0.285 0.0647 0.598652 -0.0913198 -0.795787 1 
0.0567 0.2853 0.0647 0.580088 -0.116018 -0.806249 1 
0.0566 0.2855 0.0647 0.56457 -0.11878 -0.816794 1 
0.0569 0.2853 0.0645 0.575396 -0.115665 -0.809655 1 
0.0561 0.2858 0.0641 0.571995 -0.217389 -0.790926 1 
0.0567 0.2859 0.0642 0.600297 -0.148203 -0.785926 1 
0.0563 0.2864 0.0641 0.763771 -0.192095 -0.616242 1 
0.0561 0.2864 0.0642 0.68127 -0.223958 -0.696932 1 
0.0566 0.2861 0.0642 0.669515 -0.152643 -0.726945 1 
0.0566 0.2861 0.0644 0.675172 -0.130244 -0.726072 1 
0.0566 0.2853 0.065 0.594936 -0.106708 -0.796659 1 
0.057 0.285 0.065 0.631213 -0.113825 -0.767212 1 
0.0573 0.285 0.0651 0.631102 -0.152127 -0.760636 1 
0.0573 0.2852 0.0651 0.643012 -0.123256 -0.755873 1 
0.0573 0.2853 0.0651 0.636917 -0.107379 -0.763418 1 
0.0567 0.2864 0.0648 0.743761 -0.095354 -0.66161 1 
0.057 0.2861 0.0654 0.638815 -0.0352547 -0.768552 1 
0.0573 0.2861 0.0654 0.657582 -0.0499249 -0.751727 1 
0.0567 0.2868 0.0642 0.828041 -0.124573 -0.546654 1 
0.0567 0.2865 0.065 0.777567 -0.0556424 -0.626334 1 
0.0578 0.2852 0.0644 0.63655 -0.0467843 -0.769815 1 
0.0578 0.285 0.0648 0.661166 -0.143077 -0.73647 1 
0.0578 0.2855 0.0654 0.624185 -0.00413368 -0.781265 1 
0.0579 0.2856 0.0656 0.720408 -0.185862 -0.668182 1 
0.0576 0.2856 0.0656 0.628191 -0.0124806 -0.777959 1 
0.0581 0.2856 0.0656 -0.0169491 0.405475 -0.913949 1 
0.0575 0.2876 0.0599 0.105119 0.224169 0.968865 1 
0.0576 0.288 0.06 -0.0192517 0.365783 0.930501 1 
0.0575 0.288 0.0602 0.0359859 0.271756 0.961693 1 
0.0573 0.288 0.0603 0.108153 0.225213 0.968288 1 
0.0579 0.2879 0.06 -0.073348 0.361406 0.929519 1 
0.0576 0.2876 0.0603 0.039705 0.132728 0.990357 1 
0.0584 0.2876 0.0602 -0.137885 0.326283 0.935162 1 
0.0584 0.2879 0.06 -0.182052 0.342935 0.921549 1 
0.0587 0.2874 0.0602 -0.176017 0.306297 0.935521 1 
0.0588 0.2876 0.06 -0.177829 0.362772 0.914753 1 
0.0596 0.287 0.0608 -0.448438 0.167982 0.877887 1 
0.0594 0.2874 0.0603 -0.398235 0.145972 0.905594 1 
0.0594 0.2879 0.0602 -0.362561 0.225691 0.90422 1 
0.0594 0.2876 0.0605 -0.425878 0.172967 0.888094 1 
0.0597 0.2876 0.0605 -0.452224 0.145925 0.879886 1 
0.0599 0.2877 0.0608 -0.463577 0.0119547 0.885976 1 
0.0597 0.288 0.0606 -0.45012 0.14237 0.881545 1 
0.0563 0.2903 0.0578 0.216605 0.95811 -0.18737 1 
0.0566 0.2901 0.0576 0.206655 0.965692 -0.157266 1 
0.0566 0.2903 0.0579 0.327139 0.942004 -0.0748874 1 
0.0566 0.2903 0.0582 0.322924 0.945977 -0.0291265 1 
0.0567 0.2903 0.0582 0.404966 0.912845 -0.0521244 1 
0.0572 0.2901 0.0579 0.384572 0.920562 -0.0683386 1 
0.0576 0.29 0.0582 0.470062 0.881875 -0.0365755 1 
0.057 0.29 0.0581 0.379863 0.924025 -0.0433753 1 
0.0569 0.2903 0.0584 0.379863 0.924025 -0.0433753 1 
0.057 0.2903 0.0582 0.379863 0.924025 -0.0433753 1 
0.0567 0.2904 0.0584 0.414398 0.906751 -0.077956 1 
0.0573 0.2904 0.0579 0.384572 0.920562 -0.0683386 1 
0.057 0.2904 0.0581 0.390154 0.918403 -0.065696 1 
0.0576 0.2898 0.0588 -0.333779 0.562749 0.756244 1 
0.0576 0.29 0.0587 -0.374622 0.574202 0.727977 1 
0.057 0.2903 0.0584 0.38397 0.922319 -0.0435429 1 
0.057 0.2903 0.0588 0.43596 0.899747 -0.0198766 1 
0.0573 0.2901 0.0584 0.462458 0.885355 -0.0477464 1 
0.0573 0.2903 0.0584 0.462458 0.885355 -0.0477464 1 
0.0573 0.2903 0.0588 -0.454451 0.44142 0.773707 1 
0.0576 0.29 0.059 -0.337665 0.567084 0.751265 1 
0.0576 0.29 0.0591 -0.333779 0.562749 0.756244 1 
0.0573 0.2903 0.059 -0.415076 0.520076 0.746481 1 
0.0576 0.2894 0.0587 0.453913 0.857729 0.241379 1 
0.0584 0.2894 0.0588 -0.805717 -0.523009 0.277996 1 
0.0579 0.2895 0.0588 -0.424585 0.4375 0.792667 1 
0.0581 0.2894 0.0591 -0.803053 -0.135079 0.580395 1 
0.0582 0.2894 0.059 -0.803053 -0.135079 0.580395 1 
0.0579 0.2903 0.0584 -0.435288 0.464634 0.771129 1 
0.0578 0.29 0.0584 -0.435288 0.464634 0.771129 1 
0.0581 0.2897 0.0587 -0.186371 0.685415 0.703898 1 
0.0579 0.2901 0.0585 -0.402385 0.546915 0.734147 1 
0.0578 0.2898 0.059 0.444102 0.871866 0.206455 1 
0.0579 0.29 0.0588 -0.333779 0.562749 0.756244 1 
0.0579 0.2897 0.059 0.612911 0.790005 0.015219 1 
0.0581 0.2897 0.059 -0.362585 0.507619 0.781572 1 
0.0582 0.2897 0.0591 -0.162103 0.637806 0.752945 1 
0.0582 0.29 0.0588 -0.303777 0.62202 0.721672 1 
0.0582 0.29 0.0591 -0.300055 0.61776 0.72687 1 
0.0578 0.2886 0.06 -0.348477 0.433625 0.830983 1 
0.0581 0.2886 0.0599 -0.34347 0.421888 0.83907 1 
0.0585 0.2885 0.0596 -0.344796 0.432962 0.832862 1 
0.059 0.2888 0.0596 -0.516192 0.283984 0.808021 1 
0.0585 0.2882 0.0599 -0.228803 0.394132 0.890118 1 
0.0588 0.2885 0.0599 -0.290672 0.365976 0.884065 1 
0.0588 0.2886 0.0597 -0.345977 0.342929 0.873326 1 
0.059 0.2888 0.0599 -0.463831 0.238759 0.853144 1 
0.059 0.2886 0.06 -0.335162 0.31412 0.888254 1 
0.0582 0.2892 0.0594 -0.619471 0.292928 0.728319 1 
0.0579 0.2894 0.0594 -0.414934 0.440766 0.795962 1 
0.0582 0.2894 0.0596 -0.587182 0.316917 0.744836 1 
0.0582 0.2889 0.0596 -0.490471 0.361823 0.792794 1 
0.0584 0.2888 0.06 -0.30368 0.39219 0.868312 1 
0.0585 0.2889 0.0596 -0.588272 0.24629 0.770245 1 
0.0588 0.2891 0.0596 -0.606766 0.215705 0.765053 1 
0.0588 0.2891 0.0594 -0.683814 0.162958 0.711227 1 
0.0585 0.2894 0.0594 -0.655374 0.185715 0.732116 1 
0.0585 0.2894 0.0594 -0.655374 0.185715 0.732116 1 
0.0587 0.2894 0.0596 -0.757934 0.0768078 0.647794 1 
0.0585 0.2891 0.0597 -0.592266 0.235969 0.770415 1 
0.0588 0.2892 0.0599 -0.639492 0.192618 0.744277 1 
0.0591 0.2889 0.0599 -0.470158 0.222229 0.854146 1 
0.0588 0.2895 0.0596 -0.82351 -0.124774 0.55341 1 
0.0588 0.2894 0.0599 -0.671844 0.193059 0.71509 1 
0.0588 0.2895 0.0599 -0.706137 0.140023 0.694092 1 
0.0576 0.288 0.06 -0.0192517 0.365783 0.930501 1 
0.0578 0.2882 0.0602 -0.161676 0.404906 0.899951 1 
0.0579 0.2883 0.0603 -0.169532 0.37753 0.910346 1 
0.0582 0.2882 0.06 -0.198857 0.38465 0.901388 1 
0.0579 0.2886 0.06 -0.355855 0.434933 0.827164 1 
0.0584 0.2886 0.0602 -0.253271 0.37176 0.893112 1 
0.0585 0.288 0.0602 -0.214334 0.316533 0.92405 1 
0.0585 0.2883 0.06 -0.234489 0.379017 0.895188 1 
0.059 0.2882 0.0602 -0.233005 0.334311 0.913206 1 
0.0591 0.2882 0.0602 -0.269314 0.307163 0.912755 1 
0.0588 0.2886 0.0602 -0.269322 0.33702 0.902155 1 
0.059 0.2886 0.0605 -0.302512 0.282052 0.910458 1 
0.0588 0.2888 0.06 -0.325861 0.325861 0.887484 1 
0.0591 0.2889 0.06 -0.420763 0.265825 0.86735 1 
0.0591 0.2892 0.0602 -0.559975 0.163639 0.812189 1 
0.059 0.2892 0.06 -0.628965 0.0919369 0.771978 1 
0.0591 0.2894 0.0602 -0.635878 0.101329 0.765109 1 
0.0597 0.288 0.0602 -0.450479 0.154988 0.879231 1 
0.0597 0.2883 0.0608 -0.485682 0.113182 0.866777 1 
0.0593 0.2886 0.0605 -0.297713 0.277381 0.91347 1 
0.0593 0.2888 0.0603 -0.367738 0.23002 0.901032 1 
0.0593 0.2892 0.0602 -0.50021 0.157883 0.851389 1 
0.0579 0.2897 0.0593 -0.256471 0.593188 0.763119 1 
0.0578 0.29 0.0593 0.544174 0.831498 0.111737 1 
0.0578 0.29 0.0594 0.41639 0.870634 0.261947 1 
0.0584 0.2903 0.0597 -0.0293252 0.800158 0.599071 1 
0.0585 0.2897 0.0594 -0.822433 -0.205228 0.530553 1 
0.0587 0.2898 0.0596 -0.816339 -0.131382 0.562432 1 
0.0587 0.2898 0.0597 -0.788116 -0.107137 0.606131 1 
0.0585 0.29 0.0599 -0.740798 -0.058748 0.669154 1 
0.0543 0.2799 0.0632 0.0500899 0.154929 0.986655 1 
0.0564 0.2799 0.0624 0.147908 0.121015 0.981569 1 
0.0569 0.2799 0.0623 0.0365265 0.0344393 0.998739 1 
0.0575 0.2796 0.0623 0.041138 -0.273006 0.961132 1 
0.0546 0.279 0.0627 0.148721 0.107611 0.983007 1 
0.0549 0.2788 0.063 0.150973 0.0620276 0.98659 1 
0.055 0.279 0.063 0.177368 0.134599 0.974897 1 
0.0558 0.2784 0.063 0.196105 0.0104435 0.980527 1 
0.0555 0.279 0.0632 0.230552 0.195498 0.953219 1 
0.0546 0.2797 0.063 0.114773 0.20306 0.972417 1 
0.0546 0.2799 0.0632 0.114714 0.205476 0.971916 1 
0.0549 0.2797 0.063 0.153733 0.20024 0.967611 1 
0.0559 0.2799 0.0627 0.171587 0.136518 0.975664 1 
0.0555 0.2793 0.063 0.221526 0.176425 0.959062 1 
0.0555 0.2793 0.0632 0.221526 0.176425 0.959062 1 
0.0553 0.2794 0.0632 0.224975 0.182377 0.957144 1 
0.0558 0.2794 0.0632 0.206655 0.157266 0.965692 1 
0.0553 0.2797 0.0632 0.221526 0.176425 0.959062 1 
0.0558 0.2799 0.063 0.186028 0.135408 0.973169 1 
0.0558 0.2796 0.0632 0.192259 0.138783 0.971481 1 
0.0546 0.279 0.0633 0.0490966 0.0730994 0.996115 1 
0.0547 0.279 0.0632 0.121289 0.0727732 0.989946 1 
0.0549 0.2788 0.0632 0.135926 0.0638967 0.988656 1 
0.055 0.279 0.0632 0.170866 0.130955 0.976553 1 
0.0549 0.2791 0.0633 0.117055 0.107596 0.98728 1 
0.0552 0.279 0.0632 0.190941 0.149934 0.970083 1 
0.0546 0.2793 0.0635 0.0755453 0.126684 0.989062 1 
0.0549 0.2794 0.0633 0.134869 0.180245 0.974332 1 
0.0552 0.2793 0.0632 0.221879 0.182021 0.957934 1 
0.0561 0.2785 0.0627 0.213937 0.169312 0.962062 1 
0.0563 0.2788 0.0626 0.282752 0.170744 0.943874 1 
0.0564 0.279 0.0627 0.203226 0.154037 0.96694 1 
0.0561 0.2785 0.063 0.266923 0.122285 0.955928 1 
0.0563 0.2791 0.0629 0.20563 0.134106 0.969398 1 
0.0561 0.2791 0.063 0.187402 0.166724 0.968031 1 
0.0566 0.2791 0.0629 0.184884 0.110434 0.976536 1 
0.0564 0.2788 0.0632 0.26357 0.136421 0.954945 1 
0.0564 0.2799 0.0624 0.147908 0.121015 0.981569 1 
0.0564 0.2796 0.0627 0.144557 0.115403 0.982744 1 
0.0564 0.2797 0.0626 0.147597 0.118321 0.981945 1 
0.0563 0.2793 0.063 0.202748 0.13134 0.970383 1 
0.0561 0.2796 0.063 0.188869 0.138166 0.972234 1 
0.0564 0.2794 0.063 0.173765 0.128761 0.976333 1 
0.0561 0.2793 0.063 0.166661 0.139093 0.976155 1 
0.0561 0.2797 0.063 0.186028 0.135408 0.973169 1 
0.0576 0.2797 0.0624 0.00625382 -0.328951 0.944326 1 
0.0573 0.2799 0.0626 -0.00953521 -0.0773411 0.996959 1 
0.0561 0.2787 0.0632 0.260692 0.174245 0.949567 1 
0.0561 0.279 0.0632 0.221879 0.182021 0.957934 1 
0.0547 0.2802 0.063 0.123614 0.210271 0.969797 1 
0.0555 0.2803 0.0627 0.182148 0.197873 0.963156 1 
0.0558 0.2802 0.0626 0.19375 0.170344 0.966149 1 
0.0559 0.2802 0.0627 0.1874 0.192642 0.963208 1 
0.0552 0.28 0.063 0.192287 0.232627 0.953368 1 
0.0552 0.2802 0.0629 0.192287 0.232627 0.953368 1 
0.0558 0.28 0.0629 0.183842 0.14327 0.972459 1 
0.0553 0.2805 0.063 0.231068 0.290607 0.928523 1 
0.0564 0.28 0.0624 0.145123 0.123172 0.981717 1 
0.0561 0.2802 0.0627 0.159838 0.180298 0.970538 1 
0.0564 0.2802 0.0626 0.122541 0.110644 0.986277 1 
0.0564 0.2805 0.0627 0.0673943 -0.0673943 0.995448 1 
0.0564 0.2803 0.0629 0.0680457 0.007328 0.997655 1 
0.0569 0.28 0.0626 0.0173554 -0.0275645 0.999469 1 
0.0575 0.2803 0.0626 -0.0384178 -0.406699 0.912754 1 
0.0573 0.2802 0.0627 0.0203406 -0.230926 0.972759 1 
0.057 0.2802 0.0629 0.0129084 0.00496477 0.999904 1 
0.057 0.2803 0.0629 0.0352197 -0.139743 0.989561 1 
0.0575 0.28 0.0629 0.028035 -0.254753 0.9666 1 
0.0576 0.2803 0.063 -0.0829084 -0.395514 0.91471 1 
0.057 0.2805 0.063 0.0276589 -0.229689 0.972871 1 
0.0578 0.2796 0.0626 -0.0351238 -0.365548 0.93013 1 
0.0578 0.2799 0.0627 -0.0891161 -0.407192 0.908984 1 
0.0582 0.2799 0.0626 -0.19305 -0.55787 0.807163 1 
0.0581 0.2799 0.0626 -0.196939 -0.560283 0.804548 1 
0.0578 0.28 0.0627 -0.0890913 -0.401596 0.911473 1 
0.0576 0.2805 0.0627 -0.0996159 -0.55294 0.827245 1 
0.0582 0.2805 0.0627 -0.223031 -0.546041 0.807525 1 
0.0578 0.2802 0.0629 -0.150874 -0.487776 0.859833 1 
0.0578 0.2805 0.063 -0.150841 -0.577973 0.801994 1 
0.0581 0.2805 0.063 -0.220104 -0.546413 0.808076 1 
0.0579 0.2805 0.0632 -0.194567 -0.599021 0.776735 1 
0.0578 0.2806 0.0633 -0.150841 -0.577973 0.801994 1 
0.0582 0.2805 0.0632 -0.212993 -0.540911 0.813664 1 
0.0578 0.2808 0.0633 -0.0641266 -0.585689 0.807995 1 
0.0608 0.2588 0.0365 -0.292041 -0.354942 0.888104 0 
0.0609 0.2573 0.0358 -0.759955 -0.625935 0.17514 0 
0.0612 0.2573 0.0362 -0.499729 -0.61751 0.607414 0 
0.0614 0.2576 0.0364 -0.615765 -0.57865 0.534788 0 
0.0614 0.2573 0.0365 -0.459676 -0.749651 0.476152 0 
0.0612 0.2576 0.0365 -0.63773 -0.597346 0.48629 0 
0.0615 0.2575 0.0367 -0.633633 -0.596657 0.492452 0 
0.0615 0.2575 0.0368 -0.633633 -0.596657 0.492452 0 
0.0621 0.257 0.0362 -0.102469 -0.832742 0.544097 0 
0.062 0.2576 0.0365 -0.451737 -0.72642 0.517926 0 
0.0621 0.2573 0.0364 -0.0759307 -0.89046 0.448682 0 
0.0612 0.2578 0.0362 -0.507383 -0.514081 0.691581 0 
0.0612 0.2578 0.0367 -0.668452 -0.484167 0.564583 0 
0.0612 0.2578 0.0365 -0.652049 -0.517258 0.554326 0 
0.0612 0.2579 0.0367 -0.687491 -0.444455 0.574296 0 
0.0611 0.2584 0.0367 -0.717142 -0.31103 0.623672 0 
0.0615 0.2581 0.0365 -0.696932 -0.368964 0.61494 0 
0.0618 0.2576 0.0365 -0.626939 -0.653547 0.424057 0 
0.0621 0.2578 0.0368 -0.510785 -0.571473 0.642275 0 
0.0624 0.2578 0.0367 -0.314325 -0.739873 0.5948 0 
0.0609 0.2585 0.0368 -0.80174 -0.257869 0.539182 0 
0.0611 0.2585 0.0367 -0.733422 -0.289214 0.61518 0 
0.0614 0.2576 0.0374 -0.641692 -0.540638 0.544006 0 
0.0615 0.2576 0.0377 -0.456267 -0.660167 0.596657 0 
0.0612 0.2578 0.037 -0.668452 -0.484167 0.564583 0 
0.0618 0.2578 0.0368 -0.666924 -0.492213 0.55941 0 
0.0618 0.2579 0.0371 -0.712182 -0.36837 0.597578 0 
0.0621 0.2579 0.037 -0.689074 -0.391632 0.609756 0 
0.0623 0.2579 0.0368 -0.958561 0.257622 -0.121618 0 
0.0618 0.2582 0.0374 -0.75826 -0.284546 0.586579 0 
0.0621 0.2582 0.0373 -0.771154 -0.280276 0.571636 0 
0.0621 0.2581 0.0376 -0.768336 -0.315996 0.556602 0 
0.0611 0.2585 0.0368 -0.733422 -0.289214 0.61518 0 
0.0611 0.2585 0.037 -0.711821 -0.314751 0.627887 0 
0.0609 0.2588 0.037 -0.798859 -0.268379 0.538328 0 
0.0609 0.2588 0.0368 -0.758943 -0.281621 0.587107 0 
0.0611 0.259 0.037 -0.735657 -0.299712 0.607438 0 
0.0612 0.259 0.0371 -0.782403 -0.282929 0.554795 0 
0.0612 0.2591 0.0371 -0.769145 -0.277527 0.575669 0 
0.0612 0.2591 0.0374 -0.81041 -0.283722 0.51258 0 
0.0617 0.2591 0.037 -0.608443 -0.329371 0.722019 0 
0.0612 0.2578 0.0379 -0.75569 -0.434399 0.490133 0 
0.0615 0.2581 0.0379 -0.744049 -0.377748 0.551087 0 
0.062 0.2579 0.0376 -0.609121 -0.507882 0.609121 0 
0.0618 0.2581 0.0376 -0.747316 -0.330885 0.576224 0 
0.0618 0.2584 0.0379 -0.751574 -0.232816 0.617197 0 
0.0615 0.259 0.0376 -0.595866 -0.289147 0.749225 0 
0.0621 0.2591 0.0377 -0.558352 -0.28313 0.779795 0 
0.0617 0.2587 0.038 -0.714758 -0.226783 0.661582 0 
0.0608 0.2603 0.0376 0.88362 -0.161054 0.439634 0 
0.0614 0.2593 0.037 -0.648068 -0.315145 0.693319 0 
0.0614 0.2596 0.0371 -0.248939 -0.389061 0.886939 0 
0.0615 0.2594 0.037 -0.605407 -0.285931 0.742782 0 
0.0612 0.2594 0.0373 -0.503946 -0.362262 0.784095 0 
0.0612 0.2593 0.0374 -0.596649 -0.30717 0.741389 0 
0.0611 0.2597 0.0374 -0.242696 -0.429617 0.869786 0 
0.0611 0.2597 0.0376 -0.355364 -0.437493 0.826024 0 
0.0611 0.2599 0.0374 -0.168399 -0.455409 0.87421 0 
0.0612 0.2597 0.0373 -0.242696 -0.429617 0.869786 0 
0.0617 0.2594 0.0368 -0.558202 -0.323339 0.764109 0 
0.062 0.2594 0.037 -0.532395 -0.324553 0.781806 0 
0.0617 0.2596 0.0371 -0.491229 -0.372045 0.787576 0 
0.0609 0.2603 0.0374 -0.0686847 -0.511631 0.856456 0 
0.0609 0.26 0.0374 -0.260059 -0.478571 0.838653 0 
0.0609 0.2606 0.0374 0.964897 -0.0639919 0.254713 0 
0.0609 0.2599 0.0376 -0.171032 -0.451699 0.875623 0 
0.0609 0.26 0.0376 -0.188931 -0.471583 0.861345 0 
0.0609 0.2603 0.0377 -0.271969 -0.539221 0.797041 0 
0.0609 0.2606 0.0376 -0.237545 -0.560481 0.793368 0 
0.0609 0.2608 0.0377 -0.567225 -0.51673 0.641284 0 
0.0609 0.2606 0.0379 -0.141901 -0.607935 0.781204 0 
0.0609 0.2603 0.0382 -0.352012 -0.562894 0.747822 0 
0.0609 0.2606 0.0382 -0.293121 -0.626285 0.72239 0 
0.0609 0.2608 0.0382 -0.478536 -0.579281 0.659876 0 
0.0624 0.2602 0.0379 -0.907111 0.417943 0.0497231 0 
0.0621 0.2602 0.0383 -0.322101 -0.549655 0.770799 0 
0.0624 0.2603 0.0382 -0.472118 -0.61997 0.626691 0 
0.0624 0.2608 0.0383 -0.497477 -0.795003 0.347114 0 
0.0609 0.2609 0.0379 -0.488561 -0.559075 0.669883 0 
0.0611 0.2609 0.0379 -0.169421 -0.660895 0.731105 0 
0.0614 0.2611 0.0379 -0.247768 -0.670708 0.699115 0 
0.0615 0.2612 0.0379 -0.101534 -0.693077 0.713678 0 
0.0611 0.2609 0.038 -0.384753 -0.629146 0.675382 0 
0.0611 0.2609 0.0382 -0.233828 -0.673235 0.701483 0 
0.0611 0.2612 0.0382 -0.41323 -0.642249 0.645568 0 
0.0612 0.2612 0.038 -0.172958 -0.690301 0.702546 0 
0.0608 0.2621 0.04 -0.214971 -0.77173 0.598516 0 
0.0621 0.2605 0.0386 -0.472724 -0.721526 0.505898 0 
0.0618 0.2602 0.0389 -0.463367 -0.660758 0.5905 0 
0.0621 0.2605 0.0394 -0.50543 -0.742505 0.439576 0 
0.0624 0.2605 0.0389 -0.550931 -0.828565 0.0997749 0 
0.0611 0.2609 0.0385 -0.315303 -0.667796 0.674264 0 
0.0611 0.2612 0.0385 -0.276601 -0.682709 0.676314 0 
0.0611 0.2612 0.0386 -0.276601 -0.682709 0.676314 0 
0.0611 0.2614 0.0385 -0.268889 -0.692111 0.669836 0 
0.0612 0.2615 0.0386 -0.308436 -0.705688 0.637865 0 
0.0611 0.2614 0.0386 -0.33682 -0.685029 0.645978 0 
0.0612 0.2614 0.0388 -0.192724 -0.686099 0.701517 0 
0.0612 0.2612 0.0392 -0.216499 -0.711797 0.668186 0 
0.0609 0.2614 0.0388 -0.548296 -0.622527 0.558419 0 
0.0611 0.2615 0.0389 -0.34838 -0.685311 0.639515 0 
0.0614 0.2614 0.0392 -0.220462 -0.705167 0.673896 0 
0.0623 0.2609 0.0388 -0.51745 -0.729059 0.448016 0 
0.0609 0.2618 0.0388 -0.882737 -0.34555 0.318389 0 
0.0611 0.2618 0.0391 -0.480337 -0.67448 0.560672 0 
0.0611 0.262 0.0392 -0.376978 -0.696339 0.610737 0 
0.0618 0.2609 0.0394 -0.466911 -0.681121 0.563975 0 
0.0612 0.2618 0.0392 -0.382552 -0.714207 0.586142 0 
0.0612 0.2618 0.0394 -0.435633 -0.662629 0.609218 0 
0.0611 0.262 0.0394 -0.279208 -0.713178 0.642977 0 
0.0612 0.2621 0.0394 -0.279208 -0.713178 0.642977 0 
0.0609 0.2621 0.0395 0.848027 -0.440233 0.295033 0 
0.0609 0.2623 0.0395 -0.0977667 -0.780674 0.617243 0 
0.0612 0.2624 0.0395 -0.10431 -0.759556 0.642023 0 
0.0609 0.2623 0.0398 -0.0823979 -0.793622 0.602806 0 
0.0623 0.2618 0.0398 0.0324011 -0.646613 0.76213 0 
0.0624 0.2609 0.0386 -0.497514 -0.738833 0.454539 0 
0.0624 0.2623 0.04 0.099694 -0.830783 0.547595 0 
0.0615 0.2623 0.0403 0.361733 -0.757531 0.543411 0 
0.0617 0.262 0.0403 0.523811 -0.684468 0.507076 0 
0.0606 0.2642 0.0413 -0.845337 -0.492737 0.206437 0 
0.0611 0.2624 0.0397 -0.0796567 -0.774843 0.627116 0 
0.0611 0.2624 0.0398 -0.079576 -0.76827 0.635161 0 
0.0615 0.2624 0.04 0.483299 -0.740619 0.466804 0 
0.0614 0.2627 0.04 0.40518 -0.749665 0.523289 0 
0.0611 0.2626 0.0403 0.397431 -0.717354 0.572234 0 
0.0612 0.2627 0.0403 0.327432 -0.75648 0.56615 0 
0.0612 0.2626 0.0401 -0.381313 -0.655331 0.652029 0 
0.0614 0.2627 0.0403 0.308232 -0.777766 0.54779 0 
0.0615 0.2629 0.04 0.294902 -0.769934 0.565893 0 
0.0615 0.2629 0.0403 0.200927 -0.792972 0.575173 0 
0.0609 0.2626 0.0404 0.0463504 -0.813238 0.580082 0 
0.0612 0.2626 0.0406 0.190928 -0.792734 0.578895 0 
0.0612 0.2627 0.0406 0.261404 -0.793604 0.549418 0 
0.0612 0.2627 0.0407 0.228084 -0.789761 0.569435 0 
0.0614 0.2626 0.0407 0.218064 -0.787195 0.576864 0 
0.0612 0.263 0.0406 -0.00136648 -0.802126 0.597153 0 
0.0611 0.263 0.0407 -0.00688471 -0.794495 0.607231 0 
0.0614 0.2629 0.0404 0.190928 -0.792734 0.578895 0 
0.0623 0.2626 0.0401 0.0691272 -0.842224 0.534678 0 
0.0618 0.263 0.0401 0.206879 -0.798401 0.56547 0 
0.0624 0.2629 0.0403 0.0638081 -0.818162 0.571437 0 
0.0621 0.2627 0.0404 0.173114 -0.817398 0.549448 0 
0.0623 0.263 0.0406 0.0977392 -0.792125 0.602482 0 
0.0612 0.2627 0.041 0.213511 -0.806427 0.551442 0 
0.0612 0.2632 0.0409 0.0208964 -0.773167 0.633858 0 
0.0612 0.263 0.041 0.0208964 -0.773167 0.633858 0 
0.0612 0.2629 0.0412 0.00413733 -0.762647 0.646802 0 
0.0612 0.2632 0.0415 -0.402105 -0.670174 0.623841 0 
0.0624 0.2632 0.0409 0.264771 -0.794313 0.546776 0 
0.0612 0.2635 0.0409 -0.387832 -0.694796 0.605677 0 
0.0612 0.2632 0.041 -0.0209394 -0.758005 0.651912 0 
0.0611 0.2635 0.0411 0.3657 -0.631366 0.683843 0 
0.0612 0.2636 0.0411 -0.417497 -0.666998 0.617098 0 
0.0612 0.2632 0.0412 -0.514754 -0.626144 0.585638 0 
0.0612 0.2635 0.0413 -0.311555 -0.721581 0.618267 0 
0.0611 0.2636 0.0413 0.502162 -0.54247 0.673468 0 
0.0621 0.2632 0.0411 0.265172 -0.78924 0.55388 0 
0.0624 0.2632 0.0411 0.172963 -0.813679 0.554986 0 
0.0624 0.2633 0.0413 0.266788 -0.809726 0.522655 0 
0.0623 0.2636 0.0415 0.147504 -0.812017 0.564687 0 
0.0626 0.2626 0.0401 0.0178893 -0.818777 0.573832 0 
0.0626 0.2629 0.0403 0.0584065 -0.784927 0.61683 0 
0.0626 0.263 0.0406 0.144744 -0.801315 0.580468 0 
0.0626 0.263 0.0409 0.169073 -0.824419 0.540137 0 
0.0606 0.2644 0.0418 -0.559061 -0.705048 0.4363 0 
0.0608 0.2641 0.0421 -0.240093 -0.754803 0.610433 0 
0.0603 0.2651 0.0431 -0.0921917 -0.686316 0.721437 0 
0.0608 0.2653 0.0433 -0.126643 -0.660031 0.740487 0 
0.0606 0.2653 0.0434 -0.0767286 -0.63844 0.765838 0 
0.0614 0.2633 0.0416 -0.0381099 -0.774902 0.630931 0 
0.0612 0.2636 0.0418 0.0321995 -0.788189 0.614591 0 
0.0612 0.2636 0.0416 -0.0208881 -0.775646 0.630822 0 
0.0612 0.2638 0.0418 -0.004115 -0.794195 0.607649 0 
0.0623 0.2638 0.0416 0.100453 -0.79926 0.59253 0 
0.0624 0.2639 0.0418 0.291076 -0.774611 0.561474 0 
0.0624 0.2638 0.0416 0.226513 -0.805892 0.54702 0 
0.0626 0.2638 0.0418 -0.354264 -0.612207 0.706895 0 
0.0626 0.2638 0.0422 -0.0410291 -0.756917 0.652222 0 
0.0609 0.2641 0.0418 0.188211 -0.778857 0.598297 0 
0.0609 0.2642 0.0422 -0.11342 -0.776261 0.620125 0 
0.0624 0.2641 0.0422 -0.251834 -0.695314 0.67314 0 
0.0621 0.2642 0.0424 0.287836 -0.761732 0.580443 0 
0.0609 0.2642 0.0424 -0.165345 -0.769084 0.617391 0 
0.0615 0.2644 0.043 -0.118414 -0.825971 0.551135 0 
0.0611 0.2647 0.043 -0.135959 -0.760475 0.634974 0 
0.062 0.2647 0.0427 -0.057369 -0.849342 0.524717 0 
0.0623 0.2644 0.0425 0.134574 -0.808921 0.572308 0 
0.0615 0.265 0.043 -0.275479 -0.740451 0.613061 0 
0.0624 0.2648 0.0427 0.20349 -0.806309 0.555389 0 
0.0618 0.2651 0.043 -0.273574 -0.776445 0.567706 0 
0.0624 0.265 0.043 -0.188262 -0.86719 0.461019 0 
0.0621 0.2653 0.0428 -0.352153 -0.843603 0.405367 0 
0.0626 0.2642 0.0424 -0.0947475 -0.776929 0.622418 0 
0.0624 0.2642 0.0424 0.520504 -0.655262 0.547455 0 
0.0626 0.2647 0.0425 0.0378621 -0.797909 0.601587 0 
0.0626 0.2647 0.043 0.275565 -0.795203 0.540108 0 
0.0626 0.2648 0.0428 0.172106 -0.827604 0.534276 0 
0.062 0.2647 0.0433 -0.168974 -0.86544 0.471658 0 
0.0612 0.2648 0.0433 -0.240818 -0.694122 0.678382 0 
0.0624 0.265 0.0433 -0.0475788 -0.890404 0.452678 0 
0.0624 0.265 0.0435 -0.0475788 -0.890404 0.452678 0 
0.0624 0.2648 0.0439 0.00635163 -0.931149 0.364584 0 
0.0621 0.2648 0.0441 0.0696971 -0.937623 0.340595 0 
0.0624 0.265 0.0441 0.0254155 -0.889544 0.456142 0 
0.0621 0.2653 0.0442 -0.188523 -0.831009 0.523339 0 
0.0626 0.2647 0.0433 -0.188262 -0.86719 0.461019 0 
0.0626 0.2647 0.0436 -0.0790634 -0.889117 0.4508 0 
0.0626 0.2654 0.0442 -0.668004 -0.651591 0.359442 0 
0.0623 0.2657 0.0445 -0.877304 -0.409409 0.250444 0 
0.0623 0.2656 0.0447 -0.893974 -0.379754 0.237901 0 
0.0617 0.2665 0.0447 0.782201 -0.540053 -0.31065 0 
0.0618 0.2656 0.0454 -0.0523119 -0.810128 0.583914 0 
0.0606 0.2665 0.0448 0.213934 -0.972086 0.0963329 0 
0.0602 0.2665 0.0456 -0.177078 -0.899786 0.398785 0 
0.0603 0.2665 0.0457 -0.216087 -0.8718 0.439626 0 
0.0608 0.2674 0.0469 -0.429563 -0.802816 0.413475 0 
0.0606 0.268 0.0469 -0.465908 -0.819682 0.333243 0 
0.0606 0.268 0.048 -0.3054 -0.805433 0.507945 0 
0.0605 0.2681 0.0478 -0.355196 -0.760671 0.543337 0 
0.0612 0.2663 0.0448 -0.214495 -0.914122 0.344055 0 
0.0615 0.2662 0.0451 0.0849028 -0.949605 0.301731 0 
0.0617 0.2663 0.0451 0.58621 -0.676396 0.445921 0 
0.0621 0.2662 0.0451 0.769771 -0.544786 0.332657 0 
0.0617 0.2659 0.0453 0.111317 -0.845719 0.521888 0 
0.0618 0.266 0.0454 0.570236 -0.644249 0.50968 0 
0.0617 0.2663 0.0454 0.4273 -0.758008 0.492787 0 
0.0617 0.2663 0.0456 0.341736 -0.743397 0.574959 0 
0.0615 0.2668 0.0454 0.37062 0.0540762 0.927209 0 
0.0617 0.2665 0.045 0.779173 -0.549724 0.301153 0 
0.062 0.2666 0.0448 0.835081 -0.50227 0.224419 0 
0.0618 0.2668 0.0451 0.708526 -0.130321 0.693547 0 
0.0618 0.2665 0.0453 0.695131 -0.34024 0.633269 0 
0.0618 0.2665 0.0454 0.696989 -0.390512 0.601421 0 
0.062 0.2666 0.0456 0.842582 -0.322393 0.431414 0 
0.0621 0.2665 0.0454 0.837592 -0.35358 0.416439 0 
0.062 0.2657 0.0457 0.509581 -0.778123 0.367222 0 
0.0618 0.2659 0.0459 0.15326 -0.868471 0.471455 0 
0.0621 0.2659 0.0457 0.643961 -0.728569 0.233455 0 
0.0618 0.2662 0.0457 0.398776 -0.789479 0.466584 0 
0.0621 0.2662 0.0462 0.676439 -0.599987 0.427137 0 
0.0621 0.2663 0.046 0.595335 -0.67538 0.435245 0 
0.0612 0.2665 0.0459 -0.0534986 -0.879298 0.473257 0 
0.0612 0.2671 0.0463 0.319665 -0.766233 0.557406 0 
0.0618 0.2665 0.0457 0.647313 -0.569972 0.506081 0 
0.062 0.2666 0.0457 0.875854 -0.336633 0.345772 0 
0.0617 0.2665 0.0459 0.428804 -0.827545 0.362348 0 
0.0618 0.2668 0.0459 0.803485 -0.335714 0.491638 0 
0.0624 0.2666 0.0457 0.777914 -0.472595 0.41413 0 
0.0621 0.2668 0.0457 0.833059 -0.334165 0.440847 0 
0.0618 0.2665 0.046 0.546788 -0.745917 0.380303 0 
0.0618 0.2668 0.046 0.812586 -0.397513 0.426248 0 
0.0618 0.2665 0.0463 0.229857 -0.752118 0.617644 0 
0.0623 0.2665 0.0463 0.620791 -0.644217 0.446769 0 
0.0624 0.2662 0.0448 0.764868 -0.497409 0.409343 0 
0.0624 0.2662 0.0451 0.754817 -0.471966 0.455521 0 
0.0624 0.2662 0.0454 0.73922 -0.531778 0.413239 0 
0.0627 0.2662 0.0457 0.617561 -0.673853 0.405636 0 
0.0624 0.2657 0.046 0.562798 -0.742241 0.36378 0 
0.0612 0.2671 0.0465 -0.277726 -0.869601 0.408242 0 
0.0612 0.2671 0.0468 -0.356293 -0.825017 0.438637 0 
0.0617 0.2665 0.0465 0.254685 -0.707106 0.659649 0 
0.0621 0.2669 0.0468 -0.339786 -0.851792 0.398744 0 
0.0624 0.2671 0.0471 -0.114119 -0.919829 0.375356 0 
0.0609 0.2675 0.0471 -0.193687 -0.842313 0.502985 0 
0.0609 0.2678 0.0469 -0.292705 -0.913064 0.283967 0 
0.0623 0.2674 0.0469 -0.0915965 -0.941187 0.325234 0 
0.0624 0.2677 0.0471 -0.00837731 -0.968178 0.250123 0 
0.0609 0.2675 0.0474 -0.204343 -0.863611 0.460891 0 
0.0609 0.2675 0.0475 -0.242696 -0.869786 0.429617 0 
0.0615 0.2675 0.0475 -0.211861 -0.898582 0.384272 0 
0.0612 0.2677 0.0472 -0.17189 -0.871205 0.459843 0 
0.0614 0.2677 0.0475 -0.243819 -0.881039 0.405368 0 
0.0614 0.2675 0.0477 -0.243819 -0.881039 0.405368 0 
0.0614 0.2672 0.048 -0.191897 -0.919685 0.342572 0 
0.0612 0.2677 0.0477 -0.395698 -0.805813 0.440554 0 
0.062 0.2677 0.0475 -0.14363 -0.949033 0.280549 0 
0.0624 0.2677 0.0474 0.0343524 -0.979636 0.197822 0 
0.0621 0.2674 0.0478 -0.090758 -0.922481 0.375223 0 
0.0623 0.2677 0.0477 -0.0220878 -0.92119 0.388485 0 
0.0626 0.2677 0.0474 0.00802734 -0.982776 0.184629 0 
0.0626 0.2674 0.0477 -0.0448717 -0.944869 0.324358 0 
0.0608 0.2688 0.0487 -0.417562 -0.663774 0.620521 0 
0.0624 0.2675 0.0483 -0.0711511 -0.922279 0.37992 0 
0.0621 0.2677 0.0481 -0.082879 -0.917104 0.389939 0 
0.0623 0.2677 0.0481 -0.0436208 -0.91868 0.392587 0 
0.0621 0.2677 0.0483 -0.108127 -0.891697 0.439529 0 
0.0618 0.2677 0.0487 -0.341698 -0.808949 0.478377 0 
0.0624 0.2678 0.0486 0.0498595 -0.901513 0.42987 0 
0.0621 0.2678 0.0487 -0.522951 -0.715529 0.463185 0 
0.0609 0.2688 0.0484 -0.441616 -0.671589 0.594931 0 
0.0609 0.2686 0.0487 -0.449602 -0.586656 0.673568 0 
0.0612 0.2683 0.0489 -0.355037 -0.66917 0.652809 0 
0.0615 0.2683 0.0492 -0.601885 -0.520959 0.605257 0 
0.0609 0.2686 0.0489 -0.405948 -0.651174 0.641232 0 
0.0623 0.2681 0.0489 0.0768078 -0.757934 0.647794 0 
0.0623 0.2683 0.049 -0.0352264 -0.759481 0.649575 0 
0.0621 0.2684 0.049 0.0799139 -0.719225 0.690166 0 
0.0621 0.2688 0.0493 -0.409577 -0.638409 0.651675 0 
0.0606 0.2701 0.0498 -0.0732858 -0.981549 0.176607 0 
0.0606 0.2701 0.0501 -0.0644601 -0.892841 0.445735 0 
0.0606 0.2701 0.0502 -0.0816186 -0.892272 0.444061 0 
0.0605 0.2701 0.0506 -0.314347 -0.786666 0.531359 0 
0.0611 0.2689 0.0487 -0.405948 -0.651174 0.641232 0 
0.0621 0.2691 0.0495 -0.279072 -0.719209 0.636284 0 
0.0609 0.2695 0.0501 -0.278908 -0.789452 0.546786 0 
0.0609 0.2695 0.0504 -0.301755 -0.807313 0.507138 0 
0.0621 0.2691 0.0498 -0.191894 -0.756831 0.624807 0 
0.062 0.2692 0.0498 0.0738499 -0.748635 0.658857 0 
0.062 0.2692 0.0501 0.270881 -0.600373 0.752447 0 
0.0621 0.2691 0.0501 0.23678 -0.616255 0.751109 0 
0.0621 0.2689 0.0504 0.255071 -0.647974 0.717683 0 
0.0612 0.2697 0.0502 -0.318187 -0.812088 0.489152 0 
0.062 0.2698 0.0501 -0.318509 -0.809742 0.492818 0 
0.0621 0.2698 0.0501 -0.318509 -0.809742 0.492818 0 
0.0621 0.2698 0.0504 -0.277493 -0.810529 0.515791 0 
0.0621 0.2701 0.0502 -0.318509 -0.809742 0.492818 0 
0.0623 0.2692 0.0505 -0.270602 -0.80555 0.527127 0 
0.0621 0.2695 0.051 -0.29036 -0.775879 0.560092 0 
0.0609 0.2698 0.0505 -0.309051 -0.803533 0.508746 0 
0.0609 0.27 0.0505 -0.237403 -0.837804 0.491655 0 
0.0609 0.2698 0.0507 -0.352956 -0.821454 0.447922 0 
0.0615 0.2697 0.0504 -0.318187 -0.812088 0.489152 0 
0.0612 0.27 0.0507 -0.446493 -0.780956 0.436751 0 
0.0611 0.2701 0.0508 -0.321688 -0.782614 0.532946 0 
0.0609 0.2701 0.051 -0.150329 -0.862566 0.483095 0 
0.062 0.2698 0.0506 -0.330533 -0.790405 0.515759 0 
0.0621 0.2698 0.0506 -0.288354 -0.798883 0.527862 0 
0.062 0.2698 0.051 -0.230929 -0.798179 0.556401 0 
0.0618 0.27 0.051 -0.376182 -0.760507 0.529261 0 
0.062 0.27 0.0511 -0.176032 -0.816968 0.549159 0 
0.0618 0.2704 0.051 0.0369991 -0.861942 0.505655 0 
0.0576 0.274 0.0546 0.689111 0.592802 0.416788 0 
0.0576 0.274 0.0547 0.727249 0.552445 0.407325 0 
0.0575 0.2739 0.0552 0.810234 0.564617 0.157254 0 
0.0575 0.2746 0.0552 0.880142 0.473297 -0.0366161 0 
0.0573 0.274 0.0553 0.837535 0.487154 0.247419 0 
0.0575 0.2742 0.0552 0.779259 0.238931 0.579369 0 
0.0575 0.2739 0.0558 -0.527399 -0.415676 0.740988 0 
0.057 0.2749 0.0553 -0.269769 -0.340528 0.900703 0 
0.0573 0.2751 0.0554 -0.30902 -0.379044 0.872257 0 
0.0621 0.2704 0.0523 0.0725408 -0.901969 0.425664 0 
0.0627 0.2704 0.052 0.0492451 -0.820282 0.569836 0 
0.0611 0.2706 0.0514 -0.307692 -0.776405 0.55002 0 
0.0612 0.2707 0.0519 -0.499409 -0.703181 0.50609 0 
0.0612 0.2706 0.0517 -0.330482 -0.762527 0.556177 0 
0.0615 0.2707 0.0519 -0.0950387 -0.755923 0.647725 0 
0.062 0.2707 0.0519 -0.145839 -0.76528 0.626958 0 
0.0621 0.2706 0.0519 -0.00683978 -0.819406 0.573173 0 
0.0612 0.2706 0.052 -0.493509 -0.716169 0.493509 0 
0.0615 0.2707 0.052 -0.369872 -0.744633 0.555623 0 
0.0615 0.271 0.052 -0.143225 -0.679943 0.719141 0 
0.0624 0.2707 0.0522 0.0617661 -0.679427 0.731138 0 
0.0621 0.271 0.0522 0.0758442 -0.579564 0.81139 0 
0.0623 0.271 0.0522 0.0938035 -0.56715 0.818255 0 
0.0624 0.2712 0.0522 0.123819 -0.451157 0.883813 0 
0.0606 0.2728 0.054 0.482295 0.864051 -0.144251 0 
0.06 0.2731 0.0541 0.544067 0.810737 -0.216094 0 
0.0599 0.2734 0.0543 0.78806 0.435294 0.435294 0 
0.0603 0.2728 0.054 0.524878 0.821748 -0.221887 0 
0.0585 0.2742 0.0542 -0.184288 -0.912869 0.364291 0 
0.0591 0.2728 0.0558 0.433833 0.417706 0.798318 0 
0.0579 0.2736 0.0555 0.343744 0.698891 0.62721 0 
0.0579 0.2736 0.0558 -0.682454 -0.413458 0.602751 0 
0.0579 0.2734 0.0558 -0.718413 -0.68903 0.0954946 0 
0.0591 0.2728 0.0555 0.445345 0.448607 0.774867 0 
0.059 0.2733 0.0555 0.42429 0.499646 0.755203 0 
0.0588 0.2728 0.0559 0.461091 0.544321 0.700792 0 
0.06 0.273 0.0546 0.0125253 0.716726 -0.697242 0 
0.0593 0.2733 0.0546 0.647826 0.523309 0.553597 0 
0.0597 0.2733 0.0546 0.683775 0.583954 0.437549 0 
0.0599 0.2734 0.0546 0.608304 0.739225 0.288984 0 
0.0594 0.2731 0.0549 0.660951 0.499497 0.560042 0 
0.0594 0.2734 0.0549 0.630079 0.538861 0.559132 0 
0.0597 0.2733 0.0549 0.592613 0.485171 0.642977 0 
0.06 0.2734 0.0549 0.482045 0.727209 0.488671 0 
0.06 0.2736 0.0549 0.396536 0.820144 0.412461 0 
0.0597 0.2725 0.0554 0.58462 0.517229 0.625055 0 
0.0594 0.2722 0.0558 0.408948 0.683787 0.604315 0 
0.0593 0.2725 0.0559 0.559592 0.549448 0.620454 0 
0.0606 0.2724 0.0555 -0.107448 0.945811 -0.306427 0 
0.0602 0.2722 0.0556 0.202813 0.848809 0.488253 0 
0.0578 0.274 0.0547 0.689111 0.592802 0.416788 0 
0.0582 0.274 0.0546 0.301886 0.875317 0.377737 0 
0.0576 0.274 0.055 0.85754 0.465694 0.218529 0 
0.0578 0.274 0.0552 -0.634647 -0.450449 0.627949 0 
0.0585 0.2746 0.0547 -0.134896 -0.57368 0.807895 0 
0.0579 0.2739 0.0553 0.230123 0.408282 0.883374 0 
0.0579 0.2742 0.0554 -0.0662763 -0.320985 0.944762 0 
0.0582 0.2743 0.0553 -0.0583598 -0.328112 0.942835 0 
0.0581 0.274 0.0558 -0.285137 -0.183204 0.940815 0 
0.0587 0.274 0.0556 0.313101 0.582849 0.749836 0 
0.0578 0.2749 0.0555 0.407932 -0.0064751 0.91299 0 
0.0579 0.2745 0.0556 0.861656 0.204587 0.464428 0 
0.0585 0.2749 0.0559 0.0425658 -0.232287 0.971715 0 
0.0594 0.274 0.055 -0.109721 -0.589568 0.800232 0 
0.0597 0.274 0.0553 0.68612 0.380081 0.620305 0 
0.0596 0.2742 0.0553 0.68647 0.644075 0.337528 0 
0.0594 0.274 0.0554 0.286786 -0.0036611 0.957988 0 
0.0594 0.2725 0.056 0.359349 0.641578 0.677677 0 
0.0612 0.2724 0.0546 -0.153841 0.814014 -0.560102 0 
0.0612 0.2725 0.0546 -0.285254 0.744209 -0.603973 0 
0.0614 0.2727 0.0546 -0.268808 0.79385 -0.545477 0 
0.0612 0.2728 0.055 0.55065 0.700373 -0.454161 0 
0.0615 0.2733 0.0552 0.391726 0.791512 -0.469104 0 
0.0609 0.2725 0.0552 0.500548 0.720057 -0.480593 0 
0.0612 0.2731 0.0552 0.325338 0.804617 -0.496736 0 
0.0614 0.2733 0.0554 0.132547 0.89077 -0.434696 0 
0.0614 0.2733 0.0558 -0.683761 0.667673 -0.29442 0 
0.0614 0.2733 0.0559 -0.672682 0.679104 -0.293797 0 
0.0617 0.2734 0.0553 -0.720167 0.664412 -0.199788 0 
0.0617 0.2734 0.0556 -0.727349 0.659689 -0.189141 0 
0.0615 0.273 0.056 -0.544589 0.772706 -0.326111 0 
0.0614 0.2733 0.0563 -0.675093 0.642242 -0.363006 0 
0.0615 0.2734 0.0566 -0.992717 -0.0460945 -0.111301 0 
0.0615 0.2734 0.057 -0.979568 -0.0198956 -0.200127 0 
0.0609 0.2739 0.057 -0.987966 -0.0640025 -0.140806 0 
0.0614 0.2737 0.0569 -0.988083 -0.0711606 -0.136488 0 
0.0611 0.2743 0.0572 -0.999999 -0.000977516 -0.000977516 0 
0.0614 0.2743 0.057 -0.987531 -0.0497818 -0.149345 0 
0.0615 0.2737 0.0572 -0.987966 -0.0640025 -0.140806 0 
0.0609 0.274 0.0576 -0.999999 -0.000977516 -0.000977516 0 
0.0615 0.2745 0.0572 -0.999999 -0.000977516 -0.000977516 0 
0.0543 0.2784 0.0542 0.0123496 0.821932 0.569452 0 
0.055 0.2779 0.0543 0.159761 0.47342 0.866227 0 
0.0547 0.2781 0.0542 0.136321 0.735535 0.66363 0 
0.0531 0.2784 0.0543 -0.339398 0.492366 0.801489 0 
0.0537 0.279 0.0543 -0.255015 0.829959 0.496121 0 
0.054 0.2775 0.055 -0.116431 0.268184 0.956306 0 
0.0534 0.2781 0.0546 -0.353151 0.584245 0.730713 0 
0.0535 0.2784 0.0547 -0.339056 0.595375 0.728402 0 
0.0535 0.2778 0.0549 -0.218345 0.426293 0.877838 0 
0.0537 0.2778 0.0549 -0.109515 0.339362 0.934259 0 
0.054 0.2778 0.055 -0.209229 0.2991 0.931001 0 
0.0543 0.2779 0.055 -0.0972588 0.329081 0.93928 0 
0.054 0.2784 0.055 -0.200059 0.554363 0.807873 0 
0.0543 0.2776 0.0554 -0.109172 0.240179 0.96457 0 
0.0543 0.2782 0.0553 -0.0866482 0.419487 0.903616 0 
0.0543 0.2782 0.0555 -0.179937 0.319423 0.930372 0 
0.0559 0.2767 0.0552 -0.233866 0.0502016 0.970972 0 
0.0559 0.2766 0.0554 -0.232838 0.0426666 0.971579 0 
0.0559 0.2766 0.0558 -0.231785 -0.0376195 0.972039 0 
0.0567 0.2752 0.0554 -0.196929 -0.221043 0.955175 0 
0.0567 0.2754 0.0556 -0.204433 -0.228803 0.951765 0 
0.057 0.2752 0.0555 -0.347089 -0.368685 0.862323 0 
0.057 0.2754 0.0558 -0.344366 -0.311283 0.885728 0 
0.0575 0.2754 0.0556 -0.33161 -0.340695 0.879751 0 
0.057 0.2757 0.0558 -0.350364 -0.419495 0.837418 0 
0.0576 0.2757 0.0558 -0.417287 -0.404497 0.81379 0 
0.0561 0.2763 0.0558 -0.233995 -0.0948626 0.967599 0 
0.0567 0.2761 0.0556 -0.305194 -0.326036 0.894739 0 
0.0567 0.2763 0.0558 -0.330154 -0.354497 0.874832 0 
0.0564 0.2764 0.0558 -0.283192 -0.265942 0.921454 0 
0.0566 0.2767 0.0559 -0.387591 -0.31712 0.865568 0 
0.0569 0.2761 0.0556 -0.34097 -0.381084 0.859368 0 
0.0569 0.2763 0.0558 -0.37428 -0.41534 0.8291 0 
0.0555 0.2775 0.0552 -0.108776 0.198798 0.973985 0 
0.0556 0.2775 0.0549 0.899024 0.366378 -0.239838 0 
0.055 0.2779 0.0546 0.0835969 0.415243 0.905861 0 
0.0547 0.2782 0.0547 0.0370867 0.506851 0.861235 0 
0.055 0.2779 0.0549 0.105352 0.445287 0.889169 0 
0.0547 0.2782 0.055 0.0370867 0.506851 0.861235 0 
0.0558 0.2779 0.0546 0.761975 0.591595 0.263457 0 
0.0555 0.2781 0.0544 0.606787 0.794767 0.0124398 0 
0.0552 0.2778 0.0549 0.254624 0.498446 0.828685 0 
0.0555 0.2776 0.055 0.114176 0.276909 0.954089 0 
0.0553 0.2778 0.055 -0.476088 -0.0884766 0.874935 0 
0.0552 0.2775 0.0554 -0.0320297 0.202855 0.978685 0 
0.0558 0.2769 0.0554 -0.223209 0.0810535 0.971395 0 
0.0553 0.2775 0.0553 -0.0343995 0.202839 0.978608 0 
0.0556 0.2772 0.0555 -0.176188 0.128705 0.975906 0 
0.0558 0.2769 0.0558 -0.238641 0.0737162 0.968306 0 
0.0546 0.2779 0.0552 -0.0401775 0.353821 0.93445 0 
0.0544 0.2778 0.0553 -0.0675474 0.28166 0.957134 0 
0.055 0.2779 0.0552 0.151358 0.498157 0.853774 0 
0.0546 0.2784 0.0554 0.0370867 0.506851 0.861235 0 
0.0573 0.2757 0.056 -0.3697 -0.436341 0.820322 0 
0.0576 0.2758 0.056 -0.418366 -0.411955 0.809483 0 
0.0561 0.2767 0.056 -0.29518 -0.126887 0.946979 0 
0.0569 0.2763 0.056 -0.378969 -0.417024 0.82612 0 
0.0538 0.2787 0.0546 -0.120714 0.698949 0.70491 0 
0.0537 0.2785 0.0546 -0.046934 0.740988 0.669876 0 
0.0543 0.2785 0.0544 -0.00661809 0.885501 0.46459 0 
0.0541 0.2785 0.0549 -0.0292921 0.796465 0.603974 0 
0.0543 0.2787 0.0549 -0.0292921 0.796465 0.603974 0 
0.0543 0.2785 0.0552 -0.0097132 0.672986 0.739591 0 
0.0546 0.2784 0.0546 0.122674 0.784821 0.60746 0 
0.0546 0.2784 0.0549 0.0456994 0.522081 0.851671 0 
0.0544 0.2787 0.0552 0.0181984 0.698541 0.715339 0 
0.055 0.2785 0.055 0.304208 0.814899 0.493353 0 
0.0546 0.2785 0.0553 0.136321 0.735535 0.66363 0 
0.0552 0.2785 0.0552 0.432511 0.825414 0.362802 0 
0.0552 0.2785 0.0556 0.496573 0.799945 0.336903 0 
0.0552 0.2784 0.0555 0.350617 0.591973 0.725697 0 
0.0576 0.2755 0.0555 -0.308519 -0.397545 0.864161 0 
0.0576 0.2755 0.0558 -0.421392 -0.389589 0.818932 0 
0.0579 0.2754 0.0559 -0.225171 -0.322697 0.919328 0 
0.0597 0.2755 0.0584 0.677467 0.631313 -0.377469 0 
0.0597 0.2755 0.0587 0.890237 0.432972 -0.141466 0 
0.0597 0.2758 0.0587 0.80686 0.571215 -0.150634 0 
0.0597 0.2757 0.0588 0.80686 0.571215 -0.150634 0 
0.0597 0.2758 0.059 0.71466 0.671441 -0.19603 0 
0.0597 0.2761 0.059 0.71466 0.671441 -0.19603 0 
0.0591 0.2764 0.06 0.73116 0.605265 -0.314738 0 
0.0599 0.276 0.0594 0.71466 0.671441 -0.19603 0 
0.06 0.2757 0.0594 0.80686 0.571215 -0.150634 0 
0.06 0.276 0.0596 0.71466 0.671441 -0.19603 0 
0.0599 0.2757 0.0596 0.80686 0.571215 -0.150634 0 
0.0597 0.2758 0.06 0.72175 0.676546 -0.146158 0 
0.0602 0.2758 0.0599 0.814902 0.570867 -0.100229 0 
