0.055151 0.280367 0.0571623 -0.997239 0.0729687 -0.0137477 1 
0.05512 0.280072 0.0571208 -0.983614 -0.176606 0.0362569 1 
0.0549241 0.280087 0.0571583 -0.983614 -0.176606 0.0362569 1 
0.0551097 0.279973 0.0571069 -0.983614 -0.176606 0.0362569 1 
0.0548159 0.279996 0.0571633 -0.974317 -0.216379 0.0623465 1 
0.0547604 0.27983 0.0569411 -0.999627 0.00301395 -0.0271256 1 
0.0550822 0.279862 0.056477 -0.989745 0.0587625 -0.130199 1 
0.0550017 0.279854 0.056593 -0.989745 0.0587625 -0.130199 1 
0.0548408 0.279838 0.0568251 -0.996479 0.0290864 -0.078641 1 
0.0547222 0.279649 0.0568161 -0.93245 0.298664 -0.203316 1 
0.0546304 0.28011 0.0572147 -0.993386 -0.093588 0.0665264 1 
0.0546201 0.280012 0.0572009 -0.985069 -0.151274 0.0821884 1 
0.0545994 0.279815 0.0571732 -0.957505 -0.25875 0.127405 1 
0.0547222 0.279649 0.0568161 -0.93245 0.298664 -0.203316 1 
0.0546651 0.280561 0.0561492 -0.952019 0.241718 -0.187703 1 
0.0550266 0.279696 0.0562548 -0.966005 0.165118 -0.198922 1 
0.0546313 0.280024 0.0556583 -0.961454 0.241342 -0.13176 1 
0.0547175 0.280514 0.0564409 -0.956941 0.256676 -0.135578 1 
0.054459 0.280478 0.0561729 -0.968176 0.214153 -0.129518 1 
0.0544423 0.279954 0.0562981 -0.790084 0.536751 -0.296084 1 
0.0543693 0.279804 0.0559787 -0.818649 0.530974 -0.218816 1 
0.055117 0.280313 0.0554114 -0.976067 0.180753 -0.120918 1 
0.0554361 0.279621 0.055758 -0.990459 0.030493 -0.134395 1 
0.0554681 0.279349 0.0555031 -0.997149 0.0180527 -0.0732729 1 
0.0552577 0.279621 0.0558928 -0.973162 0.0727713 -0.218314 1 
0.0551391 0.279432 0.0558839 -0.948234 0.186382 -0.257125 1 
0.0549988 0.279613 0.0561437 -0.94447 0.229587 -0.235086 1 
0.0551812 0.279287 0.0561618 -0.857342 0.264385 -0.441661 1 
0.0552267 0.279326 0.0558512 -0.95436 0.147746 -0.259554 1 
0.0551431 0.279105 0.0560367 -0.845185 0.266333 -0.463389 1 
0.0551327 0.279007 0.0560229 -0.836065 0.320361 -0.44538 1 
0.0551886 0.279144 0.0557263 -0.891354 0.23799 -0.38581 1 
0.0549533 0.279574 0.0564542 -0.948559 0.219738 -0.227927 1 
0.0546595 0.279597 0.0565106 -0.919666 0.303677 -0.248986 1 
0.0546595 0.279597 0.0565106 -0.919666 0.303677 -0.248986 1 
0.0549988 0.279613 0.0561437 -0.94447 0.229587 -0.235086 1 
0.0548803 0.279424 0.0561348 -0.902548 0.293956 -0.314636 1 
0.0547051 0.279636 0.0562001 -0.910937 0.340334 -0.233165 1 
0.0556775 0.279645 0.0554099 -0.984459 -0.0921061 -0.149523 1 
0.0553527 0.279372 0.0554247 -0.999476 0.0132448 -0.0295462 1 
0.0545024 0.279737 0.0556355 -0.8994 0.435626 -0.0361905 1 
0.0557039 0.278409 0.0555165 -0.702605 0.3085 -0.641228 1 
0.0557853 0.277849 0.055104 -0.505577 0.505577 -0.699131 1 
0.0549067 0.278187 0.0562413 -0.62252 0.354559 -0.69768 1 
0.0553442 0.278167 0.0553368 -0.854171 0.478876 0.202659 1 
0.0548543 0.278234 0.0559496 -0.753384 0.418547 -0.50718 1 
0.0550504 0.27819 0.0553932 -0.579609 0.790654 0.197281 1 
0.0550184 0.278462 0.055648 -0.940317 0.339026 -0.0294249 1 
0.0549874 0.278167 0.0556064 -0.751669 0.657173 0.0558382 1 
0.0545047 0.278119 0.0563026 -0.563838 0.38959 -0.728222 1 
0.0544136 0.278042 0.0569237 -0.467351 -0.604709 -0.644911 1 
0.054515 0.278218 0.0563165 -0.5721 0.41954 -0.704761 1 
0.0542633 0.278096 0.0566507 -0.737085 0.292596 -0.609174 1 
0.0543192 0.278233 0.0563541 -0.684643 0.416091 -0.598441 1 
0.0547564 0.278242 0.0559684 -0.806203 0.453589 -0.379861 1 
0.0541856 0.278811 0.055956 -0.961777 0.273218 -0.0183779 1 
0.0542668 0.27828 0.0560624 -0.992515 0.0989105 0.0716248 1 
0.0542041 0.278228 0.0557568 -0.151563 0.979615 0.131848 1 
0.0555019 0.277971 0.0551742 -0.788579 0.592565 0.16435 1 
0.054844 0.278136 0.0559357 -0.709407 0.418368 -0.567195 1 
0.0550123 0.278009 0.0552682 -0.317176 0.913872 0.253451 1 
0.0549565 0.277871 0.0555649 0.0299053 0.99352 0.109653 1 
0.0549216 0.277902 0.0553704 0.0625773 0.973016 0.222088 1 
0.0543263 0.278119 0.0564375 -0.676875 0.362202 -0.640819 1 
0.054746 0.278143 0.0559546 -0.732253 0.457865 -0.504147 1 
0.0547606 0.277887 0.0556025 0.20306 0.972417 0.114773 1 
0.0544669 0.277909 0.0556589 0.29266 0.943317 0.156539 1 
0.0544174 0.278197 0.0558165 -0.962294 0.251201 -0.104345 1 
0.0539235 0.27859 0.0562764 -0.947169 0.169379 0.272362 1 
0.0538188 0.278683 0.055693 -0.965808 0.146492 0.213904 1 
0.0536753 0.278652 0.0560223 -0.959898 -0.00364058 0.280324 1 
0.0540992 0.277867 0.0569523 -0.508325 -0.823517 -0.251845 1 
0.0548359 0.27927 0.0543699 0.882767 -0.401801 -0.243471 1 
0.054675 0.279255 0.054602 0.925865 -0.240355 -0.291555 1 
0.0548505 0.279014 0.0540179 0.568989 -0.820305 0.0578873 1 
0.0547565 0.278695 0.0541896 -0.0732691 -0.886141 -0.457586 1 
0.0546835 0.278545 0.0538701 -0.208808 -0.824562 -0.52583 1 
0.0543364 0.2787 0.0551912 -0.942776 0.271134 0.19406 1 
0.0543368 0.278671 0.0546725 -0.199996 -0.923388 -0.327654 1 
0.054043 0.278694 0.0547289 -0.506837 -0.818736 -0.269793 1 
0.053945 0.278702 0.0547476 -0.555255 -0.788052 -0.26583 1 
0.0540747 0.27845 0.0549928 -0.454705 -0.86289 -0.2206 1 
0.0546234 0.278762 0.0545327 0.163879 -0.907747 -0.386185 1 
0.0544413 0.27906 0.0539958 0.559053 -0.817077 0.140875 1 
0.0542534 0.278422 0.0543392 -0.280732 -0.857536 -0.431069 1 
0.0541476 0.279083 0.0540522 0.559053 -0.817077 0.140875 1 
0.0540049 0.278512 0.0546039 -0.372516 -0.857869 -0.353967 1 
0.054169 0.278741 0.0543024 -0.316332 -0.839915 -0.440995 1 
0.0539176 0.27859 0.0541177 0.588244 -0.788886 0.177841 1 
0.0550744 0.279053 0.0535725 0.685279 -0.66923 0.287271 1 
0.0548084 0.279159 0.05374 0.641401 -0.71178 0.286311 1 
0.0553061 0.277986 0.0552118 -0.451444 0.865392 0.217473 1 
0.055002 0.27791 0.0552544 0.0346066 0.977339 0.208833 1 
0.0545297 0.278415 0.0541855 -0.198529 -0.858302 -0.473185 1 
0.053854 0.278624 0.0553686 -0.970104 -0.218811 0.104979 1 
0.0537037 0.278678 0.0550958 -0.760475 -0.634974 -0.135959 1 
0.0669421 0.283646 0.0438438 0.174545 -0.156708 0.972099 1 
0.0667777 0.284381 0.0416253 -0.174545 0.156708 -0.972099 1 
0.0680599 0.283033 0.0408714 -0.616255 -0.751109 -0.23678 1 
0.067993 0.283336 0.0409319 -0.614805 -0.752472 -0.236223 1 
0.0666269 0.282095 0.0428303 0.798397 -0.573325 -0.184012 1 
0.0675946 0.28297 0.0416649 0.150658 -0.858603 -0.490003 1 
0.067633 0.283123 0.041271 -0.893109 -0.367051 -0.260057 1 
0.0676227 0.283025 0.0412571 0.792042 -0.603114 -0.0944637 1 
0.0677971 0.283351 0.0409694 -0.531122 -0.808365 -0.25388 1 
0.0676785 0.283162 0.0409605 -0.567706 -0.776445 -0.273574 1 
0.0676234 0.282485 0.0414795 0.945807 -0.320416 0.0527593 1 
0.067413 0.282757 0.0418692 -0.0209193 -0.765647 -0.64292 1 
0.0673821 0.282462 0.0418276 0.545141 -0.744862 -0.384709 1 
0.0673675 0.282718 0.0421797 -0.213127 -0.70472 -0.676718 1 
0.0673016 0.282454 0.0419436 0.171012 -0.794526 -0.582652 1 
0.0675739 0.282773 0.0416372 0.290021 -0.787653 -0.543591 1 
0.0672913 0.282355 0.0419298 0.100736 -0.786907 -0.608794 1 
0.0673055 0.282127 0.0420965 0.394043 -0.776735 -0.491338 1 
0.0675779 0.282447 0.04179 0.754392 -0.621173 -0.212221 1 
0.0673297 0.282508 0.0415359 0.867605 -0.490752 -0.0801515 1 
0.0674945 0.282198 0.0414567 0.792972 -0.575173 -0.200927 1 
0.067763 0.282843 0.0409973 0.789869 -0.609899 -0.064275 1 
0.0676931 0.282905 0.0406084 -0.538328 -0.798859 -0.268379 1 
0.0674838 0.28261 0.0407017 0.589199 -0.793095 -0.154421 1 
0.0677669 0.282517 0.0411502 0.226002 -0.890716 -0.394396 1 
0.0676761 0.28241 0.0412524 0.952786 -0.295248 0.070911 1 
0.0671127 0.282837 0.0408046 0.89783 -0.438849 0.0362353 1 
0.0671135 0.282298 0.0410269 0.734581 -0.630318 -0.251179 1 
0.0667062 0.283153 0.0417506 -0.786191 -0.269416 -0.556163 1 
0.0667724 0.283389 0.0414679 -0.866965 -0.389905 -0.310395 1 
0.0670843 0.282811 0.0417311 0.515963 -0.725003 -0.456238 1 
0.0667422 0.282554 0.0416487 0.64376 -0.701844 -0.304939 1 
0.0666656 0.28222 0.0419176 0.428458 -0.777088 -0.46104 1 
0.0670216 0.282759 0.0414255 0.707914 -0.64719 -0.282846 1 
0.0674462 0.281436 0.0425779 0.633627 -0.734252 -0.243703 1 
0.0674007 0.281397 0.0428885 0.741224 -0.635557 -0.215996 1 
0.0673939 0.281482 0.0422862 0.469603 -0.802972 -0.367027 1 
0.066977 0.281699 0.0432185 0.819082 -0.554478 -0.147167 1 
0.0669635 0.281388 0.0432742 0.783266 -0.602859 -0.151842 1 
0.0668442 0.281738 0.0430428 0.772801 -0.611864 -0.168528 1 
0.0671732 0.281656 0.0426621 0.740415 -0.648817 -0.175562 1 
0.0671276 0.281617 0.0429726 0.789456 -0.589441 -0.171226 1 
0.0668794 0.281678 0.0427185 0.7545 -0.628494 -0.189009 1 
0.0671001 0.281505 0.0423427 0.602766 -0.728813 -0.324815 1 
0.0670022 0.281513 0.0423614 0.606238 -0.72587 -0.324944 1 
0.0668164 0.281655 0.0429317 0.781478 -0.594902 -0.188105 1 
0.0666309 0.281769 0.0429832 0.781478 -0.594902 -0.188105 1 
0.0672745 0.281832 0.0420549 0.487638 -0.779249 -0.393675 1 
0.0672087 0.281568 0.0418189 0.576531 -0.761787 -0.295452 1 
0.067236 0.282161 0.0411888 0.704848 -0.650506 -0.282898 1 
0.0670994 0.282044 0.0421202 0.568932 -0.75589 -0.323953 1 
0.0670684 0.281749 0.0420787 0.516545 -0.764226 -0.386187 1 
0.06675 0.281901 0.0419545 0.572003 -0.729345 -0.375326 1 
0.066754 0.281575 0.0421073 0.577091 -0.727494 -0.371104 1 
0.0676652 0.283304 0.0392372 -0.665244 -0.584811 -0.464162 1 
0.0678056 0.282641 0.0402375 -0.310895 -0.915334 -0.255946 1 
0.0678512 0.28268 0.039927 -0.567715 -0.771266 -0.287833 1 
0.0681132 0.282901 0.0396066 -0.445192 -0.8679 -0.220348 1 
0.0680362 0.283077 0.0391343 -0.655654 -0.595287 -0.464491 1 
0.0679629 0.282955 0.0393337 -0.594744 -0.71271 -0.37192 1 
0.0677318 0.28303 0.0396957 -0.478043 -0.859886 -0.179081 1 
0.0676969 0.283061 0.0395012 -0.445192 -0.8679 -0.220348 1 
0.0679383 0.283084 0.0391531 -0.655654 -0.595287 -0.464491 1 
0.0670318 0.28334 0.0401794 -0.638052 -0.71481 -0.286244 1 
0.0669969 0.283371 0.0399849 -0.492495 -0.840139 -0.227188 1 
0.0675138 0.283926 0.0392608 -0.692341 -0.430015 -0.579441 1 
0.0674587 0.28325 0.0397798 -0.423215 -0.891206 -0.163219 1 
0.0674341 0.283379 0.0395992 -0.445192 -0.8679 -0.220348 1 
0.0675118 0.282664 0.0402939 -0.471354 -0.84291 -0.259475 1 
0.0675574 0.282703 0.0399834 0.803115 -0.58972 -0.0850696 1 
0.0674314 0.282656 0.0404099 -0.485976 -0.830662 -0.271712 1 
0.0671511 0.28299 0.0404107 -0.611423 -0.739135 -0.282563 1 
0.0670746 0.282656 0.0406796 0.620586 -0.76856 -0.155524 1 
0.0672946 0.283021 0.0400814 -0.640382 -0.711 -0.290499 1 
0.0668883 0.283308 0.0405087 -0.849635 -0.468291 -0.242535 1 
0.0663094 0.284077 0.0419694 -0.174545 0.156708 -0.972099 1 
0.0669714 0.282651 0.0443997 0.991295 0.0769603 0.106826 1 
0.0673223 0.281716 0.0450103 0.981229 0.0174596 0.192055 1 
0.0670452 0.282262 0.0449416 0.970179 0.0353014 0.239806 1 
0.0674899 0.282128 0.0441204 0.995693 -0.029317 -0.0879511 1 
0.067388 0.282462 0.0439863 0.990929 0.0748088 -0.111638 1 
0.0671612 0.282182 0.0439823 0.989624 -0.0563201 -0.13218 1 
0.067424 0.281863 0.0438843 0.974315 -0.16049 -0.157963 1 
0.067357 0.282167 0.0439447 0.992091 -0.0369932 -0.119948 1 
0.0671302 0.281886 0.0439407 0.954127 -0.197823 -0.224738 1 
0.0670943 0.282485 0.0440427 0.992717 0.0460945 -0.111301 1 
0.0669333 0.282469 0.0442748 0.996845 0.0442802 -0.0658803 1 
0.0669722 0.282111 0.0446221 0.996943 -0.0573702 0.0530404 1 
0.0670529 0.282091 0.0439873 0.977124 -0.0643324 -0.202708 1 
0.0676626 0.281164 0.044347 0.967876 -0.249578 -0.0304364 1 
0.0672315 0.281609 0.0451125 0.944863 0.215929 0.246187 1 
0.0672141 0.281625 0.0450153 0.973036 -0.0550775 0.223982 1 
0.0671791 0.281656 0.0448208 0.991971 -0.0949637 0.0835223 1 
0.0669975 0.281443 0.0450251 0.978191 0.0224193 0.206494 1 
0.0669975 0.281443 0.0450251 0.978191 0.0224193 0.206494 1 
0.06711 0.281179 0.0446542 0.967197 -0.254023 0.0011926 1 
0.0673824 0.281498 0.0443477 0.984533 -0.172786 -0.028991 1 
0.067204 0.281498 0.0444825 0.981352 -0.191625 -0.0150977 1 
0.0672641 0.28128 0.0438199 0.939942 -0.315117 -0.131186 1 
0.0670362 0.281567 0.0441124 0.95243 -0.246527 -0.17917 1 
0.0667959 0.280976 0.0441641 0.884315 -0.390535 -0.255868 1 
0.0668483 0.28093 0.0444558 0.944187 -0.326686 -0.042277 1 
0.066929 0.280909 0.0438209 0.789503 -0.581013 -0.197759 1 
0.0667125 0.280727 0.0438307 0.769946 -0.595736 -0.228651 1 
0.0667975 0.282267 0.0436498 0.968892 -0.121271 -0.215735 1 
0.0673445 0.281288 0.0437039 0.9307 -0.333282 -0.150737 1 
0.0672993 0.28122 0.0434956 0.848675 -0.508619 -0.14511 1 
0.0670159 0.281342 0.0435658 0.844701 -0.510371 -0.161248 1 
0.0665999 0.281473 0.0429416 0.745368 -0.641292 -0.182133 1 
0.0666775 0.28124 0.0423762 0.635305 -0.706433 -0.311994 1 
0.0665023 0.281452 0.0424416 0.683917 -0.664607 -0.300924 1 
0.0669849 0.281046 0.0435243 0.802739 -0.565116 -0.190403 1 
0.0668695 0.281069 0.0434458 0.775999 -0.59775 -0.201299 1 
0.0666602 0.280774 0.0435391 0.738508 -0.600139 -0.30731 1 
0.0666457 0.281484 0.0421123 0.64877 -0.700285 -0.297822 1 
0.0665902 0.281318 0.0418901 0.681385 -0.703115 -0.203329 1 
0.0663729 0.281675 0.0416776 0.721603 -0.690042 -0.0559494 1 
0.0662935 0.281099 0.0414972 0.615061 -0.780257 -0.113572 1 
0.0663915 0.282072 0.0453371 0.475394 -0.867921 -0.143927 1 
0.0665228 0.281196 0.0442482 0.918753 -0.317753 -0.234361 1 
0.0664806 0.281823 0.0427103 0.736388 -0.636327 -0.229828 1 
0.0661868 0.281846 0.0427667 0.701995 -0.673727 -0.230857 1 
0.0662712 0.281527 0.0428035 0.688576 -0.688576 -0.227434 1 
0.0662082 0.281504 0.0430168 0.709775 -0.672501 -0.209671 1 
0.0661772 0.281208 0.0429752 0.682648 -0.679465 -0.268922 1 
0.0665654 0.280994 0.0434884 0.728131 -0.636522 -0.254293 1 
0.0665313 0.280486 0.0435163 0.706473 -0.618368 -0.344263 1 
0.0662375 0.280509 0.0435727 0.729026 -0.557877 -0.396603 1 
0.065839 0.280625 0.0430457 0.769561 -0.526542 -0.361289 1 
0.0662926 0.281185 0.0430536 0.701523 -0.666684 -0.251788 1 
0.0664257 0.281118 0.0427104 0.659649 -0.707106 -0.254685 1 
0.0661113 0.280944 0.0427392 0.631114 -0.726497 -0.27184 1 
0.066055 0.281317 0.0422946 0.659649 -0.707106 -0.254685 1 
0.0660804 0.280648 0.0426976 0.665999 -0.675721 -0.315985 1 
0.0660423 0.280467 0.0425726 0.735619 -0.610612 -0.293286 1 
0.0659504 0.280928 0.0429712 0.692567 -0.650593 -0.311575 1 
0.0658845 0.280664 0.0427352 0.731982 -0.609717 -0.304054 1 
0.0657485 0.28049 0.042629 0.798883 -0.527862 -0.288354 1 
0.0663313 0.28131 0.042141 0.648536 -0.726673 -0.226597 1 
0.0657089 0.281386 0.0420593 0.667006 -0.737682 -0.104542 1 
0.0660273 0.281234 0.0421835 0.615967 -0.765755 -0.184943 1 
0.0659232 0.280788 0.0418225 0.621062 -0.772976 -0.129574 1 
0.0655945 0.280842 0.0416844 0.676116 -0.707202 -0.20672 1 
0.0661639 0.281351 0.041252 0.566921 -0.823744 -0.00683038 1 
0.0659339 0.280858 0.0413175 0.622596 -0.742386 -0.247462 1 
0.0657835 0.280912 0.0410446 0.558566 -0.824137 -0.093816 1 
0.0657661 0.280928 0.0409474 0.558566 -0.824137 -0.093816 1 
0.0656401 0.280881 0.0413739 0.659176 -0.703651 -0.265259 1 
0.0655877 0.280927 0.0410822 0.558566 -0.824137 -0.093816 1 
0.0655422 0.280888 0.0413927 0.659176 -0.703651 -0.265259 1 
0.0652939 0.28095 0.0411386 0.586712 -0.799524 -0.128574 1 
0.065997 0.280399 0.0423643 0.710156 -0.65638 -0.254644 1 
0.0657382 0.280391 0.0426152 0.803901 -0.523873 -0.281601 1 
0.0652106 0.280701 0.0408053 0.298437 -0.939319 0.16916 1 
0.065165 0.280662 0.0411158 0.566128 -0.8029 -0.186686 1 
0.065389 0.280701 0.0406705 0.298437 -0.939319 0.16916 1 
0.0650952 0.280724 0.0407269 0.367491 -0.928607 -0.0513698 1 
0.0577435 0.27296 0.0566462 -0.976528 -0.133788 0.168798 1 
0.0575127 0.273006 0.0564893 -0.977036 -0.0321315 0.21064 1 
0.0572393 0.273254 0.0570922 -0.944326 -0.328951 -0.00625382 1 
0.0573229 0.273475 0.0569067 -0.914831 -0.400821 -0.0492704 1 
0.0573586 0.272905 0.0573236 -0.978107 -0.19949 -0.0592426 1 
0.057414 0.273553 0.0562857 -0.958871 -0.228807 0.167968 1 
0.0577014 0.27217 0.0594073 -0.98786 0.0736511 -0.136781 1 
0.057649 0.272216 0.0591156 -0.988364 0.0215108 -0.150576 1 
0.0576284 0.272019 0.0590879 -0.988364 0.0215108 -0.150576 1 
0.0577857 0.272333 0.0581841 -0.983012 -0.134543 -0.124846 1 
0.0578876 0.271999 0.0583181 -0.986367 -0.138541 -0.0888085 1 
0.057769 0.271809 0.0583092 -0.989311 -0.110962 -0.0946095 1 
0.0578352 0.272045 0.0580264 -0.991427 -0.0487216 -0.121237 1 
0.0575546 0.272408 0.058546 -0.987856 -0.114483 -0.105041 1 
0.0575967 0.272263 0.0588238 -0.987887 -0.0124192 -0.154675 1 
0.0577013 0.272651 0.0581472 -0.975083 -0.184002 -0.123919 1 
0.0577195 0.272097 0.0584668 -0.987878 -0.109764 -0.109764 1 
0.0575237 0.272112 0.0585044 -0.987856 -0.114483 -0.105041 1 
0.0577092 0.271998 0.0584529 -0.987873 -0.112124 -0.107403 1 
0.0574927 0.271817 0.0584629 -0.987856 -0.114483 -0.105041 1 
0.0574781 0.272073 0.0588149 -0.987887 -0.0124192 -0.154675 1 
0.0575134 0.272014 0.0584906 -0.987856 -0.114483 -0.105041 1 
0.0576809 0.272426 0.0576006 -0.993452 -0.109645 -0.0321183 1 
0.0577614 0.272434 0.0574846 -0.994072 -0.104581 -0.0297231 1 
0.0579085 0.272167 0.057827 -0.98334 -0.148406 -0.10497 1 
0.0577796 0.271879 0.0578042 -0.999223 0.0257267 -0.0298429 1 
0.0577479 0.272123 0.0575403 -0.999105 -0.0401288 0.0133763 1 
0.0577238 0.271742 0.0581009 -0.987464 -0.13535 -0.0812098 1 
0.057801 0.271537 0.0580543 -0.995232 -0.00321388 -0.0974877 1 
0.0578712 0.271447 0.0579245 -0.995888 -0.0905353 0.00319536 1 
0.0576721 0.271249 0.0580316 -0.997795 -0.0659613 0.00732903 1 
0.0574649 0.271734 0.0583517 -0.987873 -0.112124 -0.107403 1 
0.0576052 0.271552 0.058092 -0.994302 -0.0984348 -0.0409223 1 
0.0576266 0.27121 0.058342 -0.991072 -0.0489278 -0.124026 1 
0.0578672 0.271773 0.0577716 -0.998879 0.0364554 -0.0302059 1 
0.0577942 0.271623 0.0574522 -0.99983 -0.0130369 0.0130369 1 
0.0579128 0.271812 0.0574611 -0.999296 0.0357987 0.011251 1 
0.0578746 0.271631 0.0573361 -0.999075 -0.00922223 0.0420124 1 
0.0579135 0.271273 0.0576835 -0.997009 -0.0697584 0.0332694 1 
0.0578052 0.271182 0.0576884 -0.996375 -0.0749726 0.0402027 1 
0.0584885 0.272746 0.0568896 -0.976854 -0.209754 0.0419508 1 
0.0580134 0.272527 0.0566315 -0.986388 -0.0287074 0.16191 1 
0.0578008 0.272019 0.0567943 -0.978892 0.0689701 0.19239 1 
0.0577485 0.272066 0.0565026 -0.965332 0.0483285 0.256513 1 
0.0576954 0.272651 0.0559885 -0.954686 0.0706699 0.289104 1 
0.0576413 0.271407 0.0562111 -0.956952 -0.0809235 0.278736 1 
0.0576508 0.272045 0.0560026 -0.941322 0.0803086 0.327817 1 
0.057581 0.272107 0.0556136 -0.926236 0.0708377 0.370227 1 
0.0575691 0.272633 0.0569339 -0.987754 -0.0262034 0.153803 1 
0.0576566 0.272527 0.0569012 -0.989078 -0.0214771 0.145818 1 
0.0576352 0.272869 0.0566511 -0.983429 -0.067946 0.168077 1 
0.0578493 0.272299 0.0569332 -0.993095 -0.00983262 0.116899 1 
0.0576498 0.272612 0.056299 -0.968216 0.0481025 0.245446 1 
0.0575796 0.272703 0.0564289 -0.976654 0.0105521 0.214559 1 
0.0576921 0.272439 0.056058 -0.960182 0.0752334 0.269055 1 
0.0578429 0.271874 0.0570721 -0.996744 0.0117014 0.079782 1 
0.057808 0.271905 0.0568777 -0.983429 0.067946 0.168077 1 
0.0577699 0.271724 0.0567527 -0.978683 0.0540377 0.198138 1 
0.0577032 0.271998 0.0562943 -0.968098 0.0279376 0.249009 1 
0.0573888 0.271824 0.056323 -0.95326 0.0626976 0.295575 1 
0.0570185 0.271513 0.0566482 -0.966714 0.00600444 0.255789 1 
0.0574344 0.271863 0.0560124 -0.939905 0.0399685 0.339088 1 
0.0575006 0.272099 0.0557297 -0.929375 0.0540488 0.365159 1 
0.0573852 0.272122 0.0556512 -0.924178 0.076456 0.374232 1 
0.057319 0.271886 0.055934 -0.929164 0.0704516 0.362892 1 
0.0571893 0.272137 0.0556888 -0.919439 0.108574 0.377946 1 
0.057608 0.272729 0.0555023 -0.914287 0.180582 0.362587 1 
0.0574826 0.272625 0.0548912 -0.803122 0.343283 0.486983 1 
0.057504 0.272283 0.0551413 -0.851352 0.265376 0.452521 1 
0.0572868 0.27264 0.0549288 -0.800206 0.349791 0.487151 1 
0.0573082 0.272298 0.0551789 -0.851352 0.265376 0.452521 1 
0.0574133 0.272177 0.0552435 -0.851352 0.265376 0.452521 1 
0.0573502 0.272153 0.0554568 -0.919345 0.137693 0.368572 1 
0.0572979 0.2722 0.055165 -0.851352 0.265376 0.452521 1 
0.0571195 0.272199 0.0552999 -0.853258 0.287494 0.435085 1 
0.0575751 0.271171 0.0564938 -0.970843 -0.0630739 0.231271 1 
0.0573792 0.271187 0.0565315 -0.965657 -0.0509549 0.254774 1 
0.0459218 0.27022 0.0589488 0.473033 -0.81792 0.327484 1 
0.0455536 0.269255 0.0574212 0.834192 -0.551089 0.0206143 1 
0.0455257 0.269172 0.0573101 0.806585 -0.589047 -0.0494404 1 
0.0457854 0.268641 0.0572816 0.735528 -0.575702 0.357163 1 
0.045729 0.269014 0.056837 0.874008 -0.228587 -0.428787 1 
0.0454178 0.269053 0.0567962 0.583923 -0.74244 -0.328356 1 
0.0457948 0.270741 0.0596718 0.449499 -0.834785 0.317939 1 
0.0457289 0.270476 0.0594357 0.420566 -0.842695 0.33614 1 
0.045501 0.270763 0.0597282 0.449499 -0.834785 0.317939 1 
0.0458414 0.270212 0.0590648 0.472296 -0.819805 0.323815 1 
0.0456456 0.270227 0.0591025 0.466397 -0.820542 0.33043 1 
0.0456765 0.270523 0.059144 0.472955 -0.824922 0.309542 1 
0.0456 0.270188 0.0594129 0.437323 -0.828861 0.348911 1 
0.0456702 0.270098 0.0592831 0.476914 -0.820039 0.316368 1 
0.0453828 0.270546 0.0592004 0.470333 -0.82269 0.319323 1 
0.0453063 0.270211 0.0594693 0.437983 -0.826949 0.3526 1 
0.0453764 0.270121 0.0593394 0.476914 -0.820039 0.316368 1 
0.045027 0.269977 0.0591737 0.506297 -0.793785 0.336999 1 
0.0449291 0.269985 0.0591924 0.498234 -0.800676 0.332687 1 
0.0456591 0.270538 0.0590468 0.476914 -0.820039 0.316368 1 
0.0456242 0.270569 0.0588523 0.466397 -0.820542 0.33043 1 
0.0455233 0.270336 0.0584218 0.47592 -0.810178 0.342217 1 
0.0455622 0.269978 0.0587691 0.536781 -0.763819 0.358395 1 
0.0457057 0.27001 0.0584399 0.513969 -0.770144 0.377776 1 
0.0454575 0.270071 0.0581858 0.595612 -0.737654 0.317982 1 
0.0455098 0.270025 0.0584774 0.513969 -0.770144 0.377776 1 
0.0455098 0.270025 0.0584774 0.513969 -0.770144 0.377776 1 
0.0452055 0.269978 0.0590388 0.497269 -0.78694 0.365307 1 
0.0452891 0.270198 0.0588533 0.538416 -0.786183 0.303355 1 
0.045251 0.270017 0.0587283 0.573861 -0.753896 0.319883 1 
0.0451705 0.270009 0.0588444 0.619625 -0.740064 0.261479 1 
0.0451427 0.269926 0.0587332 0.609717 -0.731982 0.304054 1 
0.045216 0.270048 0.0585338 0.618601 -0.724647 0.303677 1 
0.0453634 0.269752 0.0583574 0.451687 -0.771293 0.448426 1 
0.0451851 0.269752 0.0584923 0.867323 -0.493019 0.0684361 1 
0.0450244 0.269708 0.0582055 0.780111 -0.610068 0.13872 1 
0.0450871 0.26976 0.0585111 0.872559 -0.484138 0.0651992 1 
0.0448603 0.26948 0.0585071 0.705025 0.373055 -0.603133 1 
0.0450038 0.269511 0.0581778 0.688214 -0.691335 0.220041 1 
0.0454265 0.269776 0.0581442 0.726642 -0.637988 0.254879 1 
0.0455699 0.269807 0.0578149 0.697213 -0.65554 0.290105 1 
0.0453638 0.269724 0.0578386 0.646306 -0.710139 0.279268 1 
0.0453741 0.269822 0.0578525 0.712287 -0.65543 0.251117 1 
0.0452658 0.269732 0.0578574 0.658797 -0.706421 0.258757 1 
0.0452452 0.269535 0.0578297 0.601391 -0.744959 0.288731 1 
0.0453257 0.269542 0.0577136 0.707779 -0.683214 0.179632 1 
0.0454556 0.269263 0.0574399 0.748785 -0.659335 0.0678091 1 
0.0452597 0.269278 0.0574776 0.748472 -0.658713 0.0767292 1 
0.0452947 0.269247 0.057672 0.719331 -0.676929 0.155981 1 
0.0451968 0.269255 0.0576909 0.742891 -0.660184 0.110769 1 
0.0451327 0.269799 0.0582006 0.816584 -0.563516 0.125062 1 
0.0449864 0.269526 0.0580805 0.606538 -0.743447 0.281778 1 
0.0449514 0.269557 0.0578861 0.693792 -0.693792 0.193149 1 
0.0450183 0.269254 0.0578256 0.71998 -0.677717 0.14943 1 
0.0447556 0.269573 0.0579237 0.691766 -0.694861 0.196542 1 
0.044903 0.269277 0.0577472 0.735815 -0.671704 0.0859665 1 
0.0449746 0.270024 0.0588819 0.62452 -0.74093 0.246977 1 
0.0449469 0.269941 0.0587709 0.816831 0.226128 -0.53071 1 
0.0448913 0.269775 0.0585487 0.916964 -0.397131 -0.0382618 1 
0.0445975 0.269798 0.058605 0.938103 -0.174947 -0.298926 1 
0.0447246 0.269277 0.057882 0.70167 -0.698665 0.139733 1 
0.0449086 0.270241 0.0573859 0.126972 -0.911127 0.392078 1 
0.0446818 0.269961 0.0573819 0.619239 -0.772175 0.14244 1 
0.0447419 0.269744 0.0567193 0.386161 -0.922424 -0.00384878 1 
0.0444627 0.26951 0.0564236 -0.0370479 -0.998178 -0.0476331 1 
0.0446294 0.270008 0.0570901 0.231798 -0.934215 0.271133 1 
0.0445675 0.269417 0.057007 0.650798 -0.72571 -0.223175 1 
0.0454278 0.26918 0.0573289 0.768525 -0.638314 -0.0438753 1 
0.0451658 0.268959 0.0576493 0.734956 -0.674072 0.0739305 1 
0.0452288 0.268983 0.057436 0.737119 -0.675341 -0.0238686 1 
0.0448895 0.268966 0.0578029 0.723377 -0.681956 0.107989 1 
0.0449101 0.269163 0.0578306 0.736314 -0.664624 0.126951 1 
0.0446936 0.268982 0.0578405 0.728175 -0.682033 0.0677707 1 
0.0448926 0.269179 0.0577333 0.735815 -0.671704 0.0859665 1 
0.0448268 0.268915 0.0574973 0.717545 -0.69472 -0.0499286 1 
0.0446976 0.268655 0.0579934 0.431282 -0.819595 0.377173 1 
0.0448585 0.268671 0.0577613 0.585796 -0.797457 0.144586 1 
0.0448275 0.268375 0.0577197 0.367526 -0.895936 0.249445 1 
0.0447958 0.268619 0.0574557 0.577022 -0.811301 -0.094001 1 
0.0446103 0.268733 0.0575072 0.687909 -0.724786 -0.0382959 1 
0.0447886 0.268733 0.0573724 0.712785 -0.692039 -0.114105 1 
0.0447047 0.268541 0.0580768 0.42681 -0.81046 0.401233 1 
0.0445861 0.268352 0.0580678 0.359104 -0.827363 0.431874 1 
0.044344 0.268867 0.0581935 0.606351 -0.748835 0.267554 1 
0.0446164 0.269186 0.057887 0.70167 -0.698665 0.139733 1 
0.0447285 0.268951 0.0580349 0.608182 -0.744746 0.274714 1 
0.0443999 0.269005 0.0578969 0.893781 -0.427707 -0.134991 1 
0.0446523 0.268588 0.0577851 0.519629 -0.838255 0.165269 1 
0.0451764 0.269029 0.0571443 0.739536 -0.654845 -0.155771 1 
0.0451311 0.268962 0.056936 0.6493 -0.709922 -0.272802 1 
0.045124 0.269076 0.0568526 0.6493 -0.709922 -0.272802 1 
0.0448826 0.269052 0.0572007 0.742373 -0.659061 -0.120505 1 
0.0448723 0.268953 0.0571868 0.709315 -0.688142 -0.152752 1 
0.0450193 0.269169 0.0562692 -0.0012127 -0.959249 -0.28256 1 
0.044554 0.269106 0.0570626 0.650798 -0.72571 -0.223175 1 
0.0442602 0.269129 0.057119 0.681557 -0.691001 -0.240827 1 
0.0444068 0.269372 0.0567202 0.492128 -0.831526 -0.257634 1 
0.0442078 0.269175 0.0568273 0.437577 -0.81628 -0.377112 1 
0.04418 0.269092 0.0567162 0.141141 -0.918118 -0.370322 1 
0.0439871 0.269349 0.0572031 0.74688 -0.582341 -0.321013 1 
0.043949 0.269167 0.0570781 0.687177 -0.614669 -0.387258 1 
0.0441662 0.26881 0.0572907 0.557066 -0.784311 -0.27301 1 
0.0443338 0.269222 0.0564008 0.0317588 -0.946411 -0.321399 1 
0.04404 0.269245 0.0564572 -0.215723 -0.951082 -0.22115 1 
0.0534098 0.262897 0.0498538 -0.938118 -0.328811 -0.108709 1 
0.0534071 0.262174 0.0506645 -0.968852 -0.239422 -0.0632669 1 
0.0536766 0.262252 0.0499087 -0.814759 -0.571634 -0.0969607 1 
0.0533579 0.262433 0.0503033 -0.982598 -0.183434 0.0292092 1 
0.0537076 0.262548 0.0499502 -0.82442 -0.501483 -0.262386 1 
0.0536271 0.26254 0.0500663 -0.814759 -0.571634 -0.0969607 1 
0.0536623 0.262481 0.0497419 -0.82078 -0.535555 -0.198747 1 
0.0534559 0.262426 0.0502845 -0.982598 -0.183434 0.0292092 1 
0.0536168 0.262442 0.0500525 -0.814759 -0.571634 -0.0969607 1 
0.05367 0.261856 0.0505666 -0.990578 -0.1162 0.0724813 1 
0.0532399 0.264584 0.0488164 -0.724352 -0.546152 -0.420751 1 
0.0531771 0.264532 0.0485109 -0.980864 0.0836584 -0.175804 1 
0.0536823 0.263217 0.0495472 -0.886981 -0.460366 -0.0364513 1 
0.0536719 0.263118 0.0495334 -0.790623 -0.602868 -0.107079 1 
0.0533916 0.263452 0.0495341 -0.913682 -0.388002 -0.12099 1 
0.0536089 0.263095 0.0497467 -0.938118 -0.328811 -0.108709 1 
0.0534233 0.263208 0.0497981 -0.875929 -0.472522 -0.0973254 1 
0.0532731 0.263262 0.0495252 -0.934187 -0.356781 0.00126071 1 
0.0535669 0.26324 0.0494689 -0.930926 -0.364387 -0.0244642 1 
0.0535165 0.264548 0.048144 -0.174545 0.156708 -0.972099 1 
0.0531565 0.264335 0.0484832 -0.996364 -0.0664243 -0.0533572 1 
0.0533807 0.264346 0.047519 -0.174545 0.156708 -0.972099 1 
0.0532418 0.263931 0.0469635 -0.174545 0.156708 -0.972099 1 
0.0540713 0.262916 0.0485039 -0.751748 -0.652101 0.0981815 1 
0.0540546 0.262393 0.048629 -0.812536 -0.578343 0.0728284 1 
0.0546355 0.261951 0.0491741 -0.665973 -0.72415 -0.179124 1 
0.0544118 0.261883 0.0491006 -0.720809 -0.692816 0.0209944 1 
0.0543912 0.261686 0.0490729 -0.770335 -0.637566 0.00968105 1 
0.0542933 0.261694 0.0490917 -0.768995 -0.639218 0.006903 1 
0.0536409 0.262823 0.0494918 -0.80522 -0.583894 -0.103383 1 
0.0532567 0.26271 0.0491316 -0.771099 -0.634772 -0.0497025 1 
0.0532532 0.262527 0.0497199 -0.859795 -0.495647 -0.122828 1 
0.0531801 0.262376 0.0494005 -0.79596 -0.600914 -0.0731423 1 
0.0532432 0.262399 0.0491872 -0.79596 -0.600914 -0.0731423 1 
0.0533623 0.262532 0.0481585 -0.801887 -0.59094 0.0881353 1 
0.0533549 0.262674 0.0485939 -0.77374 -0.631769 0.0468503 1 
0.0530398 0.263039 0.0484002 -0.891934 -0.451931 -0.0145784 1 
0.0533898 0.262643 0.0487884 -0.785217 -0.619033 0.0152335 1 
0.0539285 0.262828 0.0477955 -0.880246 -0.467325 -0.0823051 1 
0.0537956 0.262867 0.0476198 -0.919991 -0.381857 -0.08833 1 
0.0539705 0.262683 0.0480734 -0.771018 -0.62599 0.116911 1 
0.0541108 0.262502 0.0478136 -0.796473 -0.557376 0.23444 1 
0.0537336 0.262276 0.0475367 -0.917162 -0.398259 -0.0142699 1 
0.053822 0.261631 0.0477264 -0.878571 -0.451629 0.155384 1 
0.0532605 0.262866 0.0480244 -0.950862 -0.285126 -0.120681 1 
0.0529699 0.263101 0.0480113 -0.947148 -0.27042 -0.172579 1 
0.0534121 0.262216 0.047482 -0.917162 -0.398259 -0.0142699 1 
0.0535275 0.262192 0.0475604 -0.917162 -0.398259 -0.0142699 1 
0.0548069 0.259668 0.0493961 -0.965189 0.0690317 0.25228 1 
0.0547997 0.259782 0.0493128 -0.975983 0.0849216 0.200612 1 
0.0552679 0.260086 0.0489687 -0.988444 0.0999022 0.114006 1 
0.0549599 0.260337 0.0488583 -0.976071 -0.217296 -0.00822202 1 
0.0549115 0.260057 0.0487195 -0.988152 0.0261536 0.151236 1 
0.0546949 0.259875 0.0487294 -0.988444 0.0999022 0.114006 1 
0.0545867 0.259784 0.0487343 -0.988444 0.0999022 0.114006 1 
0.0546426 0.259922 0.0484377 -0.988152 0.0261536 0.151236 1 
0.0545447 0.259929 0.0484565 -0.937948 -0.346495 0.0139613 1 
0.0549221 0.260127 0.0482145 -0.951418 -0.291838 0.0981518 1 
0.0546283 0.26015 0.0482709 -0.951418 -0.291838 0.0981518 1 
0.0547543 0.260196 0.0478444 -0.941215 -0.313738 0.125226 1 
0.0548978 0.260228 0.0475151 -0.92526 -0.352678 0.139688 1 
0.054495 0.260699 0.0473541 -0.885605 -0.456052 0.0878632 1 
0.0544077 0.260776 0.0468679 -0.810765 -0.557118 0.179667 1 
0.0547552 0.260111 0.0462879 0.174545 -0.156708 0.972099 1 
0.0542685 0.26039 0.0468312 -0.79353 -0.584945 0.167775 1 
0.0541637 0.260483 0.0462478 0.174545 -0.156708 0.972099 1 
0.0541955 0.260239 0.0465118 0.174545 -0.156708 0.972099 1 
0.0550421 0.259238 0.0486682 -0.988444 0.0999022 0.114006 1 
0.0549228 0.259588 0.048437 -0.988444 0.0999022 0.114006 1 
0.0546116 0.259626 0.0483961 -0.988152 0.0261536 0.151236 1 
0.0548812 0.259222 0.0489003 -0.975983 0.0849216 0.200612 1 
0.0540218 0.261289 0.0478418 -0.900215 -0.365666 0.236435 1 
0.0541182 0.260444 0.0465583 0.174545 -0.156708 0.972099 1 
0.053182 0.263185 0.0501462 -0.926184 -0.372328 -0.0596256 1 
0.053354 0.26276 0.0501504 -0.983705 -0.173179 0.0483017 1 
0.0525864 0.264365 0.0486932 -0.996757 0.0116766 -0.0796132 1 
0.052485 0.264189 0.0493003 -0.962108 -0.268292 0.0486669 1 
0.0530733 0.263604 0.0494099 -0.957026 -0.286225 0.0466534 1 
0.0530947 0.263262 0.0496601 -0.924128 -0.379905 -0.040751 1 
0.0530317 0.263239 0.0498733 -0.93219 -0.348394 0.0981961 1 
0.0528677 0.263464 0.048396 -0.953234 -0.273675 -0.128244 1 
0.0519478 0.260966 0.0430204 -0.174545 0.156708 -0.972099 1 
0.0504849 0.262996 0.0462809 -0.825926 0.450074 -0.33953 1 
0.0506858 0.262087 0.0460998 -0.82118 0.514977 -0.24589 1 
0.0499149 0.263026 0.046491 -0.833237 0.471908 -0.288129 1 
0.0499707 0.263164 0.0461943 -0.859973 0.482352 -0.166684 1 
0.0500485 0.262449 0.046889 -0.218773 0.52169 -0.824607 1 
0.0500175 0.262153 0.0468474 -0.274394 0.475927 -0.835585 1 
0.0499825 0.262184 0.046653 -0.274086 0.472295 -0.837743 1 
0.0497404 0.262699 0.0467787 -0.218773 0.52169 -0.824607 1 
0.0496568 0.262479 0.0469642 -0.218773 0.52169 -0.824607 1 
0.0497619 0.262357 0.0470288 -0.206063 0.479811 -0.85283 1 
0.0495282 0.262163 0.0464226 -0.241081 0.450321 -0.859704 1 
0.0492625 0.26224 0.0460713 -0.866598 0.492992 -0.0772494 1 
0.0503217 0.262682 0.045026 -0.902076 0.279038 -0.329236 1 
0.0505631 0.262706 0.0446779 0.0618765 0.735323 -0.674886 1 
0.0505742 0.262265 0.0449142 -0.929952 0.0958296 -0.354974 1 
0.0502455 0.262319 0.0447761 -0.899245 0.119618 -0.420773 1 
0.0502693 0.262729 0.0447343 -0.0209415 0.772043 -0.635225 1 
0.0513877 0.261124 0.0437632 -0.387571 0.406554 -0.827346 1 
0.0511702 0.26151 0.0440695 -0.315675 0.469586 -0.824523 1 
0.0508415 0.261563 0.0439314 -0.317939 0.449499 -0.834785 1 
0.05076 0.262123 0.0443439 -0.282127 0.451712 -0.846381 1 
0.0507497 0.262025 0.0443301 -0.282127 0.451712 -0.846381 1 
0.0506828 0.262328 0.0443904 -0.282127 0.451712 -0.846381 1 
0.0506621 0.262131 0.0443627 -0.282127 0.451712 -0.846381 1 
0.0506518 0.262032 0.0443489 -0.282127 0.451712 -0.846381 1 
0.0508971 0.261729 0.0441536 -0.282127 0.451712 -0.846381 1 
0.0507013 0.261745 0.0441912 -0.282127 0.451712 -0.846381 1 
0.0506457 0.261579 0.043969 -0.282127 0.451712 -0.846381 1 
0.0505827 0.261555 0.0441823 -0.282127 0.451712 -0.846381 1 
0.0512229 0.261434 0.0438424 -0.324515 0.47965 -0.815246 1 
0.0511848 0.261253 0.0437174 -0.367377 0.417832 -0.830934 1 
0.0508312 0.261465 0.0439175 -0.30511 0.470964 -0.827708 1 
0.050891 0.261276 0.0437738 -0.30611 0.481926 -0.821002 1 
0.0506044 0.261185 0.0439136 -0.277032 0.465847 -0.840381 1 
0.0506703 0.261449 0.0441496 -0.282127 0.451712 -0.846381 1 
0.0506354 0.26148 0.0439552 -0.287878 0.432587 -0.854397 1 
0.0508106 0.261268 0.0438898 -0.299798 0.491292 -0.817773 1 
0.0506568 0.261138 0.0442053 -0.265953 0.465802 -0.843977 1 
0.0501157 0.262117 0.0463098 -0.815529 0.520385 -0.253202 1 
0.0498992 0.261935 0.0463197 -0.890092 0.406187 0.206759 1 
0.0498569 0.262109 0.0465607 -0.241081 0.450321 -0.859704 1 
0.0498013 0.261943 0.0463385 -0.241081 0.450321 -0.859704 1 
0.0498818 0.261951 0.0462225 -0.835684 0.512291 -0.197965 1 
0.0497838 0.261958 0.0462412 -0.835684 0.512291 -0.197965 1 
0.0498159 0.261686 0.0459864 -0.841806 0.497225 -0.210074 1 
0.0498055 0.261588 0.0459726 -0.817774 0.537569 -0.205586 1 
0.0494797 0.261883 0.0462838 -0.241081 0.450321 -0.859704 1 
0.0495221 0.261709 0.0460428 -0.862259 0.481635 -0.156641 1 
0.0494911 0.261414 0.0460012 -0.103029 0.567388 -0.81698 1 
0.0492181 0.261633 0.0460853 -0.103029 0.567388 -0.81698 1 
0.049176 0.261778 0.0458075 -0.824921 0.553354 -0.115343 1 
0.0495435 0.261367 0.0462929 -0.103029 0.567388 -0.81698 1 
0.0493972 0.261095 0.0461729 0.451033 0.233813 -0.861337 1 
0.0491974 0.261436 0.0460576 0.394933 0.354347 -0.847624 1 
0.0492013 0.26111 0.0462105 0.449859 0.127103 -0.884009 1 
0.0491561 0.261043 0.0460022 0.356996 0.130945 -0.924882 1 
0.0493313 0.26083 0.0459368 0.288802 0.112092 -0.950804 1 
0.0504033 0.262123 0.0446136 0.303914 0.881503 -0.361371 1 
0.0504207 0.262107 0.0447108 0.303914 0.881503 -0.361371 1 
0.0502248 0.262122 0.0447484 -0.893924 0.081517 -0.440744 1 
0.0498364 0.262365 0.0447541 -0.855024 0.107776 -0.507266 1 
0.0504869 0.262343 0.044428 -0.302981 0.449033 -0.840578 1 
0.0501725 0.262169 0.0444567 -0.302981 0.449033 -0.840578 1 
0.0504249 0.261752 0.0443449 -0.282127 0.451712 -0.846381 1 
0.0503373 0.261858 0.0443775 -0.282127 0.451712 -0.846381 1 
0.050327 0.26176 0.0443636 -0.282127 0.451712 -0.846381 1 
0.0503064 0.261563 0.0443359 -0.282127 0.451712 -0.846381 1 
0.0501415 0.261873 0.0444151 -0.302981 0.449033 -0.840578 1 
0.0501105 0.261578 0.0443735 -0.282127 0.451712 -0.846381 1 
0.0500746 0.262176 0.0444755 -0.299003 0.444631 -0.844334 1 
0.0498684 0.262093 0.0444993 -0.592907 0.475334 -0.650015 1 
0.0501312 0.261775 0.0444013 -0.282127 0.451712 -0.846381 1 
0.0503733 0.261259 0.0442755 -0.287878 0.432587 -0.854397 1 
0.0492593 0.262027 0.0461408 -0.888217 0.459331 0.00926605 1 
0.0487338 0.261773 0.0562734 -0.174545 0.156708 -0.972099 1 
0.0480725 0.262208 0.0558443 0.607743 0.0947322 -0.788463 1 
0.0484233 0.261273 0.0564549 -0.174545 0.156708 -0.972099 1 
0.0482829 0.261936 0.0554546 0.874115 0.331035 -0.355443 1 
0.0479532 0.262557 0.055613 0.6587 0.251159 -0.709248 1 
0.0481636 0.262285 0.0552234 0.605423 0.263983 -0.75085 1 
0.0477968 0.262158 0.0549603 0.442095 0.270764 -0.855125 1 
0.0481996 0.261687 0.0551214 0.868119 0.408974 -0.281264 1 
0.0479058 0.26171 0.0551778 0.760793 0.647874 -0.0381102 1 
0.048048 0.264252 0.0564836 0.739766 0.420134 -0.52558 1 
0.04795 0.26426 0.0565023 0.759136 0.40324 -0.510989 1 
0.0478977 0.264306 0.0562107 0.783764 0.338188 -0.520906 1 
0.0471625 0.265129 0.0552398 0.815508 0.470302 -0.337288 1 
0.0470895 0.264979 0.0549204 0.728813 0.324815 -0.602766 1 
0.0473944 0.264516 0.0551003 0.673401 0.117436 -0.72989 1 
0.0471985 0.264531 0.0551379 0.647576 0.149441 -0.747203 1 
0.0471181 0.264523 0.0552539 0.674113 0.165865 -0.719764 1 
0.0463888 0.265828 0.0551816 0.160745 -0.0930629 -0.982599 1 
0.0465505 0.265305 0.055172 0.823305 0.404514 -0.398168 1 
0.0464806 0.265367 0.0547831 0.89053 0.42578 -0.160209 1 
0.0469736 0.265059 0.0558796 0.739973 0.292473 -0.605723 1 
0.046922 0.264567 0.0558103 0.771752 0.381814 -0.508544 1 
0.0469881 0.264803 0.0555275 0.796406 0.485535 -0.360546 1 
0.0469571 0.264507 0.0554859 0.667033 0.133407 -0.732987 1 
0.0469357 0.264849 0.0552358 0.65336 0.142688 -0.743479 1 
0.0469318 0.265176 0.0550829 0.747423 0.369641 -0.552018 1 
0.0469357 0.264849 0.0552358 0.65336 0.142688 -0.743479 1 
0.0468029 0.264888 0.0550601 0.707135 0.287023 -0.646203 1 
0.0470895 0.264979 0.0549204 0.728813 0.324815 -0.602766 1 
0.0471109 0.264637 0.0551705 0.651057 0.15935 -0.742114 1 
0.0469047 0.264554 0.0551942 0.661194 0.199752 -0.723133 1 
0.0469222 0.264538 0.0552915 0.643443 0.178819 -0.744315 1 
0.046638 0.265198 0.0551393 0.768105 0.371873 -0.521272 1 
0.0463268 0.265237 0.0550985 0.661519 0.261752 -0.702765 1 
0.0465235 0.264683 0.0552833 0.681326 0.19312 -0.706045 1 
0.0462773 0.265524 0.0552561 0.669946 0.352172 -0.653566 1 
0.0463578 0.265532 0.0551401 0.782087 0.443887 -0.437383 1 
0.0462678 0.264887 0.0554646 0.640296 0.243847 -0.728395 1 
0.0462289 0.265244 0.0551173 0.660089 0.268808 -0.701445 1 
0.0478492 0.264026 0.0560718 0.75626 0.229217 -0.612805 1 
0.0475554 0.264049 0.0561282 0.73786 0.209707 -0.64155 1 
0.047524 0.264264 0.0553454 0.772288 0.222208 -0.595143 1 
0.0478606 0.263557 0.0557892 0.699052 0.210183 -0.683483 1 
0.047665 0.263544 0.055308 0.725049 0.196335 -0.660119 1 
0.0475351 0.263824 0.0555817 0.754189 0.12993 -0.643674 1 
0.0475629 0.263907 0.0556928 0.775222 0.135925 -0.616892 1 
0.0473001 0.264225 0.0557907 0.748884 0.1754 -0.639068 1 
0.0475105 0.263953 0.055401 0.722896 0.133204 -0.677996 1 
0.0472303 0.264287 0.0554018 0.67577 0.152691 -0.721124 1 
0.0471323 0.264295 0.0554206 0.67577 0.152691 -0.721124 1 
0.0472374 0.264173 0.0554852 0.683585 0.123611 -0.719328 1 
0.047189 0.263893 0.0553463 0.699842 0.142978 -0.699842 1 
0.0471858 0.263681 0.0554158 0.711779 0.142958 -0.687702 1 
0.0473499 0.263909 0.0551143 0.703145 0.140027 -0.697122 1 
0.0478296 0.263262 0.0557477 0.695605 0.241332 -0.676677 1 
0.0476166 0.263264 0.0551692 0.682102 0.176274 -0.709693 1 
0.0477328 0.262702 0.05547 0.490652 0.261578 -0.831167 1 
0.0476698 0.262679 0.0556833 0.584796 0.277342 -0.762295 1 
0.0476134 0.263052 0.0552387 0.608292 0.198657 -0.76845 1 
0.0474176 0.263067 0.0552763 0.604048 0.174976 -0.777502 1 
0.0469127 0.263901 0.0555 0.686807 0.13676 -0.713858 1 
0.0468738 0.264258 0.0551526 0.653686 0.152476 -0.741246 1 
0.0467235 0.264312 0.0548797 0.651474 0.189436 -0.73464 1 
0.0467029 0.264115 0.054852 0.639263 0.162473 -0.751628 1 
0.0466925 0.264017 0.0548381 0.649324 0.149149 -0.745743 1 
0.0469774 0.262817 0.0552126 0.52446 0.158972 -0.836462 1 
0.0463686 0.263205 0.0550754 0.643406 0.0737386 -0.761966 1 
0.0463162 0.263252 0.0547837 0.62578 0.0918978 -0.774567 1 
0.0475237 0.262378 0.0550444 0.404543 0.210363 -0.889996 1 
0.0467713 0.262734 0.0552364 0.480639 0.128459 -0.867459 1 
0.047301 0.26414 0.0542343 0.648336 0.088873 -0.756149 1 
0.04693 0.264367 0.0543372 0.620749 0.185458 -0.761759 1 
0.0462908 0.26392 0.0543806 0.65825 0.0410522 -0.751679 1 
0.0460672 0.263852 0.0543071 0.548717 0.240938 -0.800536 1 
0.0461196 0.263806 0.0545989 0.653142 0.0498039 -0.755596 1 
0.0460322 0.263884 0.0541127 0.856363 -0.472424 -0.208467 1 
0.051512 0.261386 0.0533473 -0.990416 -0.129085 0.049121 1 
0.0513553 0.261015 0.0532134 -0.945281 -0.292619 0.144287 1 
0.051177 0.261015 0.0533483 -0.975774 -0.190183 0.108143 1 
0.051114 0.260992 0.0535615 -0.990377 -0.131063 0.0444473 1 
0.0513133 0.26116 0.0529356 -0.935078 -0.296828 0.193705 1 
0.0511029 0.261432 0.0533253 -0.990302 -0.0513998 0.129071 1 
0.0510611 0.261549 0.0525286 -0.92423 -0.272841 0.267127 1 
0.051226 0.261238 0.0524494 -0.90666 -0.298301 0.298301 1 
0.0510294 0.261792 0.0522646 -0.916284 -0.259107 0.305428 1 
0.0511871 0.261596 0.0521021 -0.903094 -0.313799 0.293174 1 
0.0503261 0.262372 0.0515578 -0.800612 -0.170375 0.57445 1 
0.0508093 0.261908 0.0516028 -0.831715 -0.139846 0.537302 1 
0.0508555 0.261408 0.0515147 -0.84307 -0.210389 0.494944 1 
0.0505928 0.261727 0.0516126 -0.81511 -0.169627 0.553915 1 
0.0505404 0.261773 0.051321 -0.79885 -0.144838 0.583833 1 
0.0502014 0.261729 0.051169 -0.786564 -0.0152596 0.617321 1 
0.0504012 0.261387 0.0512843 -0.79885 -0.144838 0.583833 1 
0.0534991 0.258381 0.0537451 0.0461568 -0.924455 -0.378486 1 
0.0536632 0.258609 0.0534435 0.0166458 -0.930887 -0.364928 1 
0.0533489 0.258435 0.0534722 -0.0794409 -0.882212 -0.464102 1 
0.053055 0.258458 0.0535285 -0.127103 -0.884009 -0.449859 1 
0.0530376 0.258473 0.0534313 -0.114763 -0.838207 -0.53314 1 
0.0532647 0.258725 0.0529165 -0.0955954 -0.851798 -0.515074 1 
0.0529115 0.258908 0.0525978 -0.138498 -0.796735 -0.588244 1 
0.0531141 0.258808 0.0531624 -0.120175 -0.852808 -0.50821 1 
0.0528068 0.25852 0.0532744 -0.120175 -0.852808 -0.50821 1 
0.0529852 0.25852 0.0531396 -0.120175 -0.852808 -0.50821 1 
0.0528315 0.25839 0.0534551 -0.0873883 -0.835203 -0.542954 1 
0.0532163 0.258445 0.0527777 -0.0955954 -0.851798 -0.515074 1 
0.0530728 0.258414 0.053107 -0.0987551 -0.848721 -0.519538 1 
0.0523446 0.259151 0.0527383 -0.738314 -0.551689 0.387983 1 
0.0524218 0.258946 0.0526918 -0.706773 -0.567735 0.422077 1 
0.0527894 0.258535 0.0531772 -0.119998 -0.851552 -0.510353 1 
0.0523977 0.258566 0.0532524 -0.14705 -0.821402 -0.551067 1 
0.0527577 0.258779 0.0529133 -0.125288 -0.803319 -0.582222 1 
0.052737 0.258582 0.0528856 -0.125288 -0.803319 -0.582222 1 
0.0523454 0.258612 0.0529607 -0.727329 -0.445675 0.521887 1 
0.0521281 0.258969 0.0527482 -0.733419 -0.552935 0.395423 1 
0.0520302 0.258977 0.052767 -0.738314 -0.551689 0.387983 1 
0.0521495 0.258627 0.0529983 -0.714156 -0.517722 0.47111 1 
0.0524838 0.259537 0.0527749 -0.404241 -0.757748 -0.512257 1 
0.0522462 0.259669 0.0520159 -0.080765 0.412039 0.90758 1 
0.0523232 0.259493 0.0524882 -0.748806 -0.432826 0.501947 1 
0.0520048 0.259645 0.052364 -0.412425 0.0523927 0.909484 1 
0.0520853 0.259653 0.052248 -0.412425 0.0523927 0.909484 1 
0.0526323 0.258675 0.0523021 -0.72693 -0.465301 0.505042 1 
0.0526807 0.258955 0.0524409 -0.72693 -0.465301 0.505042 1 
0.0523655 0.25932 0.0522472 -0.729639 -0.648741 0.216247 1 
0.052555 0.258879 0.0523487 -0.706293 -0.54343 0.453689 1 
0.0521138 0.259197 0.0525815 -0.371263 -0.773329 -0.513932 1 
0.0522715 0.259001 0.0524189 -0.738314 -0.551689 0.387983 1 
0.0521067 0.259311 0.0524981 -0.199926 -0.68347 -0.702067 1 
0.0520718 0.259342 0.0523036 -0.755381 -0.496487 0.427667 1 
0.0519564 0.259366 0.0522252 -0.774912 -0.595491 0.211902 1 
0.0522192 0.259047 0.0521272 -0.71777 -0.603838 0.346678 1 
0.0519254 0.25907 0.0521836 -0.721561 -0.601029 0.343678 1 
0.0512585 0.260456 0.0529358 -0.797199 -0.41712 0.436446 1 
0.0513041 0.260494 0.0526253 -0.804885 -0.403246 0.435377 1 
0.0515383 0.260632 0.0521938 -0.799483 -0.416632 0.432718 1 
0.05142 0.260414 0.051666 -0.732745 -0.299832 0.610888 1 
0.0512755 0.26095 0.0522918 -0.869853 -0.362311 0.334794 1 
0.0511921 0.260702 0.0519585 -0.853531 -0.336146 0.398108 1 
0.0513777 0.260588 0.0519071 -0.828171 -0.32844 0.454158 1 
0.0511262 0.260437 0.0517225 -0.778674 -0.241873 0.578934 1 
0.051049 0.260642 0.051769 -0.843541 -0.292531 0.450404 1 
0.0517142 0.259881 0.0523509 -0.633222 -0.333703 0.698335 1 
0.051746 0.259637 0.0526149 -0.754278 -0.435477 0.491349 1 
0.0514977 0.259699 0.0523607 -0.659481 -0.348559 0.666027 1 
0.0515493 0.260192 0.0524301 -0.728867 -0.371804 0.574904 1 
0.0511331 0.260352 0.0523247 -0.838122 -0.366383 0.404123 1 
0.051497 0.260238 0.0521384 -0.67543 -0.273046 0.685011 1 
0.051424 0.260088 0.051819 -0.667486 -0.247743 0.702201 1 
0.0516198 0.260072 0.0517813 -0.593096 -0.215249 0.775825 1 
0.0516412 0.25973 0.0520315 -0.623387 -0.226544 0.748376 1 
0.0516412 0.25973 0.0520315 -0.623387 -0.226544 0.748376 1 
0.0514104 0.259777 0.0518746 -0.506441 -0.145327 0.84994 1 
0.0513784 0.260049 0.0521294 -0.675367 -0.265379 0.68808 1 
0.0511199 0.260012 0.0518615 -0.637331 -0.233323 0.734418 1 
0.0510985 0.260354 0.0516114 -0.777947 -0.22826 0.585402 1 
0.0513827 0.259694 0.0517635 -0.385363 0.0381417 0.921977 1 
0.0510992 0.259815 0.0518338 -0.600149 -0.239746 0.763114 1 
0.0510889 0.259717 0.0518199 -0.569624 -0.193947 0.798695 1 
0.0513553 0.261015 0.0532134 -0.945281 -0.292619 0.144287 1 
0.0511039 0.260865 0.0530288 -0.896956 -0.35137 0.268346 1 
0.0509782 0.260789 0.0529365 -0.90133 -0.328963 0.281758 1 
0.0512299 0.260911 0.0526023 -0.88811 -0.341118 0.308058 1 
0.051241 0.260471 0.0528386 -0.792625 -0.421335 0.440706 1 
0.0509579 0.260564 0.05239 -0.869106 -0.335686 0.363277 1 
0.0510024 0.26117 0.0523759 -0.899028 -0.276966 0.339172 1 
0.0511673 0.26086 0.0522968 -0.874961 -0.342376 0.342376 1 
0.0508944 0.261051 0.051862 -0.888263 -0.295089 0.35201 1 
0.050877 0.261066 0.0517648 -0.877757 -0.276471 0.391289 1 
0.050888 0.260626 0.0520011 -0.870311 -0.306361 0.385619 1 
0.0505594 0.26068 0.0518629 -0.867256 -0.258814 0.425303 1 
0.0510632 0.260414 0.0519357 -0.847091 -0.305077 0.43516 1 
0.0510005 0.260362 0.0516302 -0.802438 -0.261222 0.536523 1 
0.0507737 0.260081 0.0516262 -0.712957 -0.186323 0.676 1 
0.050987 0.260051 0.0516858 -0.65519 -0.126859 0.744737 1 
0.0507531 0.259884 0.0515984 -0.650174 -0.142648 0.746274 1 
0.0507929 0.261356 0.0512091 -0.796623 -0.157524 0.58359 1 
0.0501744 0.261107 0.0512803 -0.778562 -0.119665 0.616054 1 
0.050507 0.260726 0.0515713 -0.870079 -0.251825 0.42373 1 
0.0506822 0.260514 0.051506 -0.842362 -0.217041 0.493275 1 
0.0507388 0.260112 0.0514317 -0.763304 -0.168443 0.623694 1 
0.0518129 0.259334 0.0525544 -0.766359 -0.56157 0.311983 1 
0.0517994 0.259023 0.0526101 -0.290096 -0.726041 -0.623465 1 
0.0517015 0.259031 0.0526289 -0.418275 -0.773075 -0.476866 1 
0.051272 0.258851 0.0520603 -0.666256 -0.745136 0.0295801 1 
0.0516102 0.259435 0.0519899 -0.353197 0.113187 0.928677 1 
0.0513692 0.259383 0.0518192 -0.396694 0.0464358 0.916775 1 
0.0512712 0.25939 0.0518379 -0.442187 0.030726 0.896397 1 
0.0510896 0.259178 0.0520423 -0.520825 -0.00946954 0.853611 1 
0.0496343 0.268725 0.0581465 -0.990578 -0.0724813 0.1162 1 
0.050051 0.26899 0.0559542 -0.999448 -0.0234804 0.0234804 1 
0.0500617 0.26906 0.0554493 -0.987531 0.0497818 0.149345 1 
0.0499879 0.269449 0.0549074 -0.920253 0.349159 0.1767 1 
0.0501645 0.26962 0.0578856 -0.99972 -0.00502372 0.0231091 1 
0.049839 0.269887 0.057678 -0.998814 0.0364531 0.032287 1 
0.0498009 0.269705 0.0575531 -0.99948 -0.0314557 -0.0071029 1 
0.0497231 0.27042 0.0568584 -0.995202 0.0976951 -0.00536786 1 
0.0495177 0.269798 0.0571045 -0.994143 -0.0818178 -0.0706099 1 
0.0497985 0.268954 0.057845 -0.993007 -0.110582 0.0413288 1 
0.049582 0.268772 0.0578549 -0.993007 -0.110582 0.0413288 1 
0.0497461 0.269 0.0575533 -0.995026 -0.0996097 0.00107107 1 
0.0498446 0.268935 0.0564968 -0.999439 -0.0333483 -0.00303167 1 
0.0496826 0.269487 0.0570253 -0.995924 -0.0690244 -0.0580682 1 
