0.0551367 0.267171 0.0522823 -0.93624 0.347672 0.0507835 1 
0.0552406 0.267238 0.0522139 -0.93533 0.349277 0.0562506 1 
0.0552051 0.266785 0.0521529 -0.922118 0.386275 -0.02211 1 
0.054998 0.266722 0.0519225 -0.897378 0.409205 0.165118 1 
0.0551124 0.267058 0.051988 -0.928907 0.345416 0.133487 1 
0.0548307 0.266441 0.0519764 -0.926978 0.375114 0.00127157 1 
0.054845 0.266357 0.0517695 -0.886597 0.451026 0.10257 1 
0.0549103 0.266395 0.0516137 -0.940303 0.329304 0.085963 1 
0.0546378 0.266294 0.0515391 -0.934874 0.338605 0.106573 1 
0.0545316 0.266331 0.0521452 -0.913953 0.405769 0.00648193 1 
0.0546621 0.266407 0.0518334 -0.930622 0.361982 0.0539682 1 
0.0545092 0.266042 0.0516805 -0.891379 0.450453 0.0503527 1 
0.0550508 0.266668 0.0518031 -0.893154 0.415454 0.172261 1 
0.055011 0.266886 0.0515188 -0.920892 0.357424 0.155584 1 
0.0551795 0.26692 0.0516617 -0.90298 0.382864 0.195044 1 
0.0551148 0.266953 0.0514503 -0.926338 0.334939 0.172375 1 
0.0549494 0.266496 0.0513338 -0.941345 0.315572 0.119515 1 
0.0548194 0.266492 0.0512783 -0.944887 0.306053 0.116273 1 
0.0561498 0.267588 0.0520383 -0.971308 0.237799 0.00354924 1 
0.0557057 0.267877 0.0517943 -0.949416 0.224754 0.219306 1 
0.0553051 0.267595 0.0514939 -0.917244 0.24335 0.315348 1 
0.0553423 0.267872 0.0513844 -0.926753 0.175256 0.332285 1 
0.0556098 0.268573 0.0516028 -0.918161 0.156073 0.364171 1 
0.0550972 0.267851 0.0506993 -0.967201 0.0976074 0.234511 1 
0.0553659 0.268304 0.0511146 -0.911918 0.123909 0.39122 1 
0.0554156 0.268673 0.0509686 -0.911026 0.0803446 0.404446 1 
0.0552623 0.267846 0.0521144 -0.947653 0.233836 0.217427 1 
0.0553151 0.267792 0.0519951 -0.945228 0.242823 0.21813 1 
0.0554681 0.268157 0.052148 -0.960925 0.20223 0.189013 1 
0.0554084 0.267591 0.0517927 -0.938004 0.273758 0.212614 1 
0.0554811 0.268321 0.0517443 -0.927432 0.186609 0.32411 1 
0.0554158 0.268283 0.0519 -0.939896 0.197946 0.278231 1 
0.0555202 0.268422 0.0514644 -0.916608 0.177088 0.358426 1 
0.0552292 0.267289 0.0515158 -0.925844 0.313341 0.211257 1 
0.0552541 0.267473 0.0514428 -0.9164 0.262035 0.302571 1 
0.0551893 0.267507 0.0512314 -0.923575 0.229823 0.306907 1 
0.0553286 0.268027 0.051224 -0.935177 0.173181 0.308955 1 
0.0549772 0.268043 0.0511449 -0.920633 0.146687 0.361827 1 
0.0544586 0.267778 0.0511198 -0.942258 0.156816 0.295904 1 
0.0551059 0.268295 0.0510036 -0.926499 0.0960313 0.363837 1 
0.0553118 0.268606 0.0510371 -0.918357 0.0770933 0.388172 1 
0.0552328 0.268723 0.0510325 -0.908257 0.0778506 0.411106 1 
0.0550269 0.268412 0.050999 -0.912153 0.0861554 0.400691 1 
0.0550499 0.268773 0.0510965 -0.894039 0.0873247 0.439396 1 
0.0556719 0.269034 0.0514205 -0.862523 0.131915 0.488521 1 
0.0556693 0.269529 0.0510267 -0.736641 0.0617457 0.673459 1 
0.0555163 0.269164 0.0508738 -0.798375 0.0731008 0.597706 1 
0.0554865 0.269579 0.0510906 -0.732433 0.0647534 0.677753 1 
0.0553335 0.269214 0.0509377 -0.798375 0.0731008 0.597706 1 
0.0553739 0.269067 0.0508547 -0.798375 0.0731008 0.597706 1 
0.0552576 0.268908 0.0509596 -0.88248 0.109071 0.45753 1 
0.0552949 0.269184 0.0508501 -0.798375 0.0731008 0.597706 1 
0.0550996 0.269142 0.0509506 -0.788242 0.0976196 0.607573 1 
0.0548913 0.26754 0.0506657 -0.962871 0.147631 0.22602 1 
0.0547085 0.26759 0.0507296 -0.959823 0.132254 0.247485 1 
0.0433473 0.269493 0.0530436 0.0848498 -0.812544 -0.576691 1 
0.0430584 0.270432 0.0514834 0.57735 -0.57735 -0.57735 1 
0.0430322 0.270495 0.0513595 0.555026 -0.528033 -0.64275 1 
0.0431012 0.270181 0.0508628 0.397637 -0.825373 -0.400805 1 
0.0432791 0.270731 0.0509428 0.826201 -0.0844815 -0.557005 1 
0.0430172 0.270898 0.0510022 0.367921 -0.286829 -0.884513 1 
0.04323 0.26919 0.053883 0.0582869 -0.803222 -0.592821 1 
0.0431391 0.269287 0.0535477 0.0264121 -0.810433 -0.585236 1 
0.0429557 0.269265 0.0539788 0.0582869 -0.803222 -0.592821 1 
0.0432435 0.269425 0.053112 0.0849067 -0.810211 -0.579956 1 
0.0430607 0.269475 0.0531759 0.07597 -0.812735 -0.577659 1 
0.0431764 0.269563 0.0534383 0.0853183 -0.799678 -0.594336 1 
0.042932 0.269223 0.0533172 0.0433586 -0.821016 -0.569256 1 
0.0429972 0.269261 0.0531613 0.0882304 -0.805645 -0.585792 1 
0.0429021 0.269638 0.0535341 0.081964 -0.806698 -0.585252 1 
0.0426577 0.269298 0.0534131 0.0433278 -0.823227 -0.566056 1 
0.042723 0.269336 0.0532572 0.0882304 -0.805645 -0.585792 1 
0.0423964 0.269537 0.0531052 0.121486 -0.821128 -0.557665 1 
0.042305 0.269562 0.0531371 0.112266 -0.817938 -0.564246 1 
0.0431888 0.269656 0.0534018 0.0882304 -0.805645 -0.585792 1 
0.0432137 0.26984 0.0533288 0.07597 -0.812735 -0.577659 1 
0.0431476 0.270121 0.0529206 0.0848091 -0.820779 -0.564915 1 
0.0429823 0.269664 0.0528041 0.152553 -0.836822 -0.525791 1 
0.0432023 0.269891 0.0526308 0.126747 -0.846436 -0.517186 1 
0.0430568 0.270218 0.0525852 0.225953 -0.813124 -0.536447 1 
0.0430195 0.269941 0.0526946 0.126747 -0.846436 -0.517186 1 
0.0430195 0.269941 0.0526946 0.126747 -0.846436 -0.517186 1 
0.0425917 0.269579 0.0530048 0.108422 -0.837017 -0.536327 1 
0.0427851 0.269798 0.0530748 0.160515 -0.802574 -0.574553 1 
0.0427204 0.269831 0.0528634 0.199579 -0.815076 -0.543892 1 
0.0426166 0.269764 0.0529318 0.259587 -0.778761 -0.571092 1 
0.0425904 0.269827 0.0528079 0.243473 -0.804858 -0.541224 1 
0.0427452 0.270016 0.0527905 0.253673 -0.804594 -0.536915 1 
0.0428248 0.26997 0.0524277 0.0507055 -0.88118 -0.470054 1 
0.0426295 0.269928 0.0525281 0.612684 -0.602557 -0.511414 1 
0.0425368 0.2702 0.0523632 0.47737 -0.681717 -0.554419 1 
0.0425381 0.269953 0.0525601 0.622315 -0.598704 -0.50426 1 
0.0422395 0.269914 0.0523616 0.911127 0.392078 -0.126972 1 
0.0424597 0.270141 0.0521883 0.348525 -0.747303 -0.565746 1 
0.0429411 0.27013 0.0523228 0.392692 -0.76746 -0.506752 1 
0.0431611 0.270357 0.0521495 0.351705 -0.791738 -0.499454 1 
0.0429398 0.270377 0.052126 0.289298 -0.788851 -0.542236 1 
0.0429783 0.270406 0.0522134 0.375601 -0.765835 -0.521939 1 
0.0428483 0.270402 0.0521579 0.308455 -0.775133 -0.551383 1 
0.0427712 0.270343 0.051983 0.23444 -0.796473 -0.557376 1 
0.042875 0.270411 0.0519146 0.378685 -0.719665 -0.581962 1 
0.042967 0.270457 0.0515153 0.449502 -0.633313 -0.629971 1 
0.0427841 0.270507 0.0515792 0.449472 -0.639954 -0.623245 1 
0.0427593 0.270322 0.0516521 0.3975 -0.700985 -0.592126 1 
0.0426679 0.270347 0.0516842 0.43555 -0.665841 -0.605765 1 
0.0426668 0.270204 0.0524187 0.530256 -0.661557 -0.530256 1 
0.0424721 0.270234 0.0521518 0.241064 -0.791623 -0.561446 1 
0.0424969 0.270418 0.0520789 0.357521 -0.729735 -0.582808 1 
0.0424726 0.270305 0.0517845 0.398555 -0.696231 -0.597006 1 
0.0423141 0.270468 0.0521427 0.35667 -0.731256 -0.581422 1 
0.0423936 0.270422 0.05178 0.431349 -0.647856 -0.62787 1 
0.0424337 0.269814 0.0529957 0.266583 -0.768201 -0.582066 1 
0.0424075 0.269877 0.0528718 0.947717 0.225647 -0.225647 1 
0.0423552 0.270002 0.0526239 0.717343 -0.490989 -0.494317 1 
0.042081 0.270077 0.0527198 0.870994 -0.187803 -0.453982 1 
0.0421983 0.27038 0.0518803 0.376318 -0.691833 -0.616241 1 
0.042803 0.271148 0.0523847 -0.276992 -0.77716 -0.565064 1 
0.0425044 0.27111 0.0521862 0.276533 -0.695329 -0.66336 1 
0.042646 0.271525 0.0516411 0.0490239 -0.558872 -0.827803 1 
0.0423847 0.271764 0.0513332 -0.351177 -0.398001 -0.847508 1 
0.0425416 0.271387 0.0520768 -0.162493 -0.72742 -0.666675 1 
0.0423102 0.27121 0.051552 0.408184 -0.392301 -0.824309 1 
0.0429409 0.27052 0.0513914 0.501027 -0.541244 -0.675298 1 
0.0425521 0.270259 0.0514217 0.432309 -0.639283 -0.635945 1 
0.0426684 0.270419 0.0513169 0.455845 -0.562709 -0.689611 1 
0.0422655 0.270242 0.0515541 0.410281 -0.666084 -0.622897 1 
0.0423426 0.270301 0.051729 0.423458 -0.679193 -0.599483 1 
0.0420826 0.270292 0.051618 0.425027 -0.63504 -0.64504 1 
0.042355 0.270393 0.0516925 0.431349 -0.647856 -0.62787 1 
0.0422642 0.270489 0.0513572 0.438846 -0.541519 -0.717057 1 
0.041942 0.270019 0.0514285 0.0345799 -0.836834 -0.546363 1 
0.0421498 0.270154 0.0512917 0.237329 -0.69627 -0.677409 1 
0.042034 0.270066 0.0510293 -0.0181718 -0.745045 -0.666766 1 
0.0421484 0.270401 0.0510948 0.283182 -0.505347 -0.815127 1 
0.0420042 0.27048 0.0512462 0.399143 -0.553544 -0.730941 1 
0.0421994 0.270523 0.0511458 0.448953 -0.488421 -0.748255 1 
0.041891 0.269897 0.0513776 0.0260325 -0.850852 -0.52476 1 
0.0417225 0.269864 0.0512346 -0.0485108 -0.857947 -0.511442 1 
0.0416411 0.270085 0.0517678 0.242154 -0.782703 -0.573357 1 
0.0420684 0.270375 0.0518249 0.376318 -0.691833 -0.616241 1 
0.0420578 0.270107 0.0516909 0.244762 -0.787293 -0.565916 1 
0.0418084 0.270367 0.0517138 0.707758 -0.419351 -0.568527 1 
0.0419283 0.270174 0.0512681 0.159668 -0.707099 -0.688852 1 
0.0427057 0.270696 0.0512074 0.49656 -0.447069 -0.744015 1 
0.042692 0.270851 0.051047 0.424461 -0.343015 -0.837958 1 
0.042743 0.270973 0.051098 0.424461 -0.343015 -0.837958 1 
0.0424315 0.270771 0.0513033 0.489451 -0.479496 -0.728369 1 
0.0423928 0.270741 0.0512158 0.457034 -0.453758 -0.764999 1 
0.0428175 0.271526 0.0508791 -0.249973 -0.20353 -0.94662 1 
0.042182 0.27103 0.0513262 0.408184 -0.392301 -0.824309 1 
0.0419078 0.271105 0.051422 0.452336 -0.372418 -0.810368 1 
0.0422175 0.271483 0.0513871 0.237686 -0.351426 -0.905541 1 
0.0419451 0.271382 0.0513125 0.219738 -0.227927 -0.948559 1 
0.0419189 0.271444 0.0511886 -0.0855616 -0.167508 -0.982151 1 
0.0417107 0.271238 0.0516927 0.566839 -0.284213 -0.773251 1 
0.041646 0.271272 0.0514813 0.517797 -0.221477 -0.826338 1 
0.0416758 0.270857 0.0512645 0.315159 -0.342301 -0.885158 1 
0.0421776 0.271701 0.0511028 -0.206547 -0.180235 -0.961693 1 
0.0419033 0.271776 0.0511986 -0.458897 -0.168604 -0.872345 1 
0.0499485 0.270742 0.040908 -0.939473 0.291085 -0.180721 1 
0.0495138 0.269761 0.0407434 -0.948766 0.305844 -0.0793892 1 
0.0499664 0.270307 0.0403603 -0.909648 0.127155 -0.395438 1 
0.0496407 0.270188 0.0407724 -0.964949 0.261619 0.0206862 1 
0.0500822 0.270395 0.0406227 -0.855127 0.294287 -0.426793 1 
0.0499783 0.270328 0.0406911 -0.909648 0.127155 -0.395438 1 
0.0500685 0.27055 0.0404623 -0.877621 0.227973 -0.421675 1 
0.0497321 0.270164 0.0407405 -0.964949 0.261619 0.0206862 1 
0.0499398 0.270298 0.0406037 -0.909648 0.127155 -0.395438 1 
0.0496724 0.269598 0.0403853 -0.960707 0.259197 0.0992945 1 
0.0505973 0.272408 0.0417776 -0.741358 0.366606 -0.562129 1 
0.050596 0.272655 0.0415807 -0.826496 0.547572 0.130654 1 
0.0503758 0.271033 0.0409651 -0.953111 0.153728 -0.260668 1 
0.0503372 0.271003 0.0408776 -0.895268 0.11103 -0.431471 1 
0.0501911 0.271258 0.0411993 -0.933404 0.266083 -0.240742 1 
0.0502209 0.270844 0.0409825 -0.939473 0.291085 -0.180721 1 
0.0500766 0.270923 0.0411339 -0.932005 0.194226 -0.306011 1 
0.0500225 0.271225 0.0410563 -0.971217 0.187607 -0.146767 1 
0.0502968 0.27115 0.0409605 -0.964214 0.204847 -0.168313 1 
0.0509989 0.272832 0.0413435 0.125591 0.923298 -0.362971 1 
0.0505188 0.272596 0.0414058 -0.918966 0.387288 0.074219 1 
0.0509578 0.273298 0.0408622 0.125591 0.923298 -0.362971 1 
0.050827 0.273612 0.0402425 0.125591 0.923298 -0.362971 1 
0.0508818 0.271596 0.0400953 -0.924511 -0.0933987 -0.369534 1 
0.0506641 0.271264 0.0397309 -0.950292 -0.0162336 -0.310937 1 
0.0509185 0.270406 0.0395641 -0.804493 0.0671602 -0.590152 1 
0.0507095 0.270519 0.0395041 -0.891515 -0.0587062 -0.449171 1 
0.0506323 0.27046 0.0393292 -0.915752 -0.00645806 -0.401691 1 
0.0505409 0.270485 0.0393611 -0.914378 -0.00646661 -0.40481 1 
0.0502215 0.270915 0.0406152 -0.903158 0.1222 -0.411548 1 
0.0499198 0.2713 0.0403903 -0.901306 0.0416401 -0.431176 1 
0.0497152 0.270742 0.0405536 -0.919118 0.198073 -0.340572 1 
0.0496753 0.27096 0.0402692 -0.907704 0.0865134 -0.410595 1 
0.0497916 0.27112 0.0401644 -0.907704 0.0865134 -0.410595 1 
0.0501902 0.271968 0.0397038 -0.948041 -0.0368048 -0.316014 1 
0.0501261 0.271682 0.0400565 -0.925905 -0.0325564 -0.376352 1 
0.0500049 0.272122 0.0403053 -0.960073 0.143157 -0.240347 1 
0.0501013 0.271498 0.0401294 -0.925357 0.00382906 -0.379077 1 
0.0508917 0.272183 0.039665 -0.938193 0.186533 -0.291545 1 
0.0508251 0.272393 0.0396239 -0.944935 0.243455 -0.218697 1 
0.0508158 0.271877 0.039687 -0.938638 -0.0889515 -0.333236 1 
0.0509463 0.271953 0.0393752 -0.967209 -0.142956 -0.209927 1 
0.0505936 0.272216 0.0390992 -0.965588 0.175917 -0.191554 1 
0.0504163 0.271738 0.0386519 -0.988281 -0.00111418 -0.152643 1 
0.0502393 0.272265 0.0399251 -0.933479 0.325824 -0.149852 1 
0.0500546 0.272491 0.0401594 -0.912716 0.373319 -0.166077 1 
0.0502932 0.272354 0.0390711 -0.965588 0.175917 -0.191554 1 
0.0503722 0.272237 0.0390757 -0.965588 0.175917 -0.191554 1 
0.0502695 0.269131 0.0377631 -0.919284 0.188972 0.345264 1 
0.0503205 0.269253 0.0378141 -0.911227 0.242703 0.332808 1 
0.0509306 0.269493 0.0378073 -0.897001 0.322801 0.301975 1 
0.0507584 0.269811 0.0380051 -0.960808 0.275753 -0.0284409 1 
0.0506551 0.269815 0.0377063 -0.930417 0.259157 0.259157 1 
0.050395 0.269806 0.0375952 -0.897001 0.322801 0.301975 1 
0.0502651 0.269802 0.0375397 -0.897001 0.322801 0.301975 1 
0.0504323 0.270083 0.0374858 -0.930417 0.259157 0.259157 1 
0.0503409 0.270108 0.0375177 -0.974084 0.18524 -0.129794 1 
0.0508086 0.270252 0.0374919 -0.988637 0.145489 -0.0378042 1 
0.0505344 0.270326 0.0375877 -0.988637 0.145489 -0.0378042 1 
0.0507669 0.270646 0.037378 -0.992881 0.110818 -0.0436554 1 
0.050987 0.270873 0.0372046 -0.994739 0.0746332 -0.0701775 1 
0.0508129 0.271367 0.0375728 -0.980247 0.0538597 -0.190304 1 
0.050875 0.271828 0.0373904 -0.967089 -0.0925262 -0.237019 1 
0.0511118 0.271867 0.0364726 -0.125591 -0.923298 0.362971 1 
0.0506293 0.271736 0.0370725 -0.957661 -0.102653 -0.268977 1 
0.0507039 0.272289 0.0368537 -0.125591 -0.923298 0.362971 1 
0.0505894 0.271954 0.0367882 -0.125591 -0.923298 0.362971 1 
0.0505169 0.269438 0.0369792 -0.897001 0.322801 0.301975 1 
0.0505784 0.269828 0.037164 -0.897001 0.322801 0.301975 1 
0.0503166 0.269995 0.0372234 -0.930417 0.259157 0.259157 1 
0.0503092 0.269303 0.037116 -0.911227 0.242703 0.332808 1 
0.0504586 0.271416 0.0383987 -0.999235 -0.0195123 -0.0338898 1 
0.0505752 0.272037 0.0369951 -0.125591 -0.923298 0.362971 1 
0.0497652 0.270721 0.0413391 -0.954292 0.226829 -0.194616 1 
0.0497812 0.270461 0.0409618 -0.967006 0.251889 0.0380905 1 
0.0499579 0.272654 0.0416339 -0.888097 0.441917 0.126465 1 
0.0496619 0.272121 0.0418292 -0.978879 0.1996 -0.0442229 1 
0.0499803 0.271547 0.0413096 -0.97965 0.191122 -0.0613033 1 
0.0498273 0.271182 0.0411567 -0.959468 0.208349 -0.18977 1 
0.049711 0.271023 0.0412616 -0.989779 0.112819 -0.0872308 1 
0.0499888 0.272382 0.0406825 -0.930106 0.337594 -0.144683 1 
0.0496113 0.275951 0.0358767 0.125591 0.923298 -0.362971 1 
0.0481643 0.274777 0.0395395 -0.525683 0.787726 0.321162 1 
0.0480914 0.274437 0.0386565 -0.52173 0.73898 0.426271 1 
0.0476034 0.274834 0.0397676 -0.537534 0.758394 0.368641 1 
0.0477706 0.275115 0.0397137 -0.58621 0.676396 0.445921 1 
0.0474397 0.274201 0.0394808 0.169384 0.985194 0.0265023 1 
0.0473241 0.274113 0.0392184 0.105188 0.994404 -0.0097597 1 
0.0473488 0.274297 0.0391455 0.10541 0.994329 -0.0141271 1 
0.0472675 0.274519 0.0396786 0.169384 0.985194 0.0265023 1 
0.0470741 0.2743 0.0396086 0.169384 0.985194 0.0265023 1 
0.0471145 0.274154 0.0395256 0.174647 0.984272 -0.0266019 1 
0.0469819 0.274644 0.0390764 0.133877 0.989776 -0.0492027 1 
0.0468488 0.275063 0.0389944 -0.611022 0.611022 0.503294 1 
0.0482119 0.275712 0.0386326 -0.653249 0.730465 0.199218 1 
0.0485235 0.275914 0.0384273 0.46024 0.855166 0.238474 1 
0.0483319 0.27552 0.0381869 -0.731603 0.68066 0.0382075 1 
0.0480825 0.275779 0.0382098 -0.679996 0.733055 0.0153592 1 
0.0482492 0.275989 0.0385231 0.38857 0.870092 0.303237 1 
0.048974 0.275631 0.0364942 -0.0218706 0.998757 -0.0447827 1 
0.0488292 0.275639 0.0370128 0.0633477 0.997987 -0.00311546 1 
0.0485798 0.275898 0.0370357 0.0579634 0.998024 -0.0242392 1 
0.0485911 0.275848 0.0377337 0.0932527 0.995061 -0.0340098 1 
0.0485526 0.275818 0.0376463 0.0932527 0.995061 -0.0340098 1 
0.0485769 0.275931 0.0379406 0.0932527 0.995061 -0.0340098 1 
0.0484997 0.275872 0.0377657 0.0932527 0.995061 -0.0340098 1 
0.0484612 0.275843 0.0376782 0.0932527 0.995061 -0.0340098 1 
0.0486321 0.275772 0.0372836 0.0932527 0.995061 -0.0340098 1 
0.0484493 0.275822 0.0373475 0.0932527 0.995061 -0.0340098 1 
0.048397 0.275948 0.0370996 0.0932527 0.995061 -0.0340098 1 
0.0482807 0.275788 0.0372044 0.0932527 0.995061 -0.0340098 1 
0.0489069 0.275769 0.0368204 0.0573728 0.998287 0.0114746 1 
0.0488422 0.275803 0.0366091 0.00101649 0.999213 -0.0396433 1 
0.0485412 0.275869 0.0369482 0.0746061 0.997199 -0.00525395 1 
0.0485679 0.275877 0.0367049 0.0749191 0.997162 0.00738639 1 
0.0482427 0.275831 0.0367497 0.101316 0.994639 -0.0206989 1 
0.0483335 0.275734 0.0370851 0.0932527 0.995061 -0.0340098 1 
0.0483584 0.275919 0.0370121 0.0830149 0.995071 -0.0542364 1 
0.0484641 0.27581 0.0367733 0.0845402 0.996291 0.0160519 1 
0.0482054 0.275554 0.0368591 0.11137 0.993509 -0.0231562 1 
0.0475304 0.274495 0.0388847 -0.511966 0.745725 0.426364 1 
0.0472705 0.274486 0.0387737 -0.728633 0.350461 0.588448 1 
0.0472313 0.274385 0.0390535 0.133877 0.989776 -0.0492027 1 
0.047179 0.274511 0.0388056 0.133877 0.989776 -0.0492027 1 
0.0472829 0.274578 0.0387372 -0.547869 0.704402 0.451284 1 
0.0471914 0.274603 0.0387691 -0.547869 0.704402 0.451284 1 
0.047192 0.274674 0.0384019 -0.554962 0.710683 0.432373 1 
0.0471534 0.274645 0.0383144 -0.519728 0.715663 0.466593 1 
0.0468786 0.274648 0.0387775 0.133877 0.989776 -0.0492027 1 
0.0469177 0.274749 0.0384977 -0.590593 0.667554 0.453401 1 
0.046802 0.274661 0.0382354 0.2892 0.956001 0.0492524 1 
0.0466049 0.274795 0.0385061 0.2892 0.956001 0.0492524 1 
0.0466807 0.275101 0.0384841 -0.544365 0.652226 0.527511 1 
0.0467647 0.274384 0.0383447 0.2892 0.956001 0.0492524 1 
0.04657 0.274413 0.0380779 0.695131 0.633269 -0.34024 1 
0.0465278 0.274736 0.0383312 0.679785 0.698537 -0.223469 1 
0.0463872 0.274463 0.0381418 0.664872 0.604883 -0.438249 1 
0.0463734 0.274619 0.0379813 0.588396 0.675072 -0.445048 1 
0.0464791 0.27451 0.0377425 0.526602 0.712657 -0.463476 1 
0.0482006 0.275763 0.0379345 0.654127 0.576775 0.489334 1 
0.0481882 0.27567 0.037971 0.654127 0.576775 0.489334 1 
0.0480053 0.27572 0.0380348 -0.684025 0.728971 -0.0266868 1 
0.0477293 0.275971 0.0383011 -0.624186 0.779878 -0.0467078 1 
0.0483941 0.275981 0.0380045 0.0718989 0.996926 -0.0311204 1 
0.0480426 0.275997 0.0379254 0.0718989 0.996926 -0.0311204 1 
0.0481626 0.275805 0.0374798 0.0932527 0.995061 -0.0340098 1 
0.0481097 0.275859 0.0375992 0.0932527 0.995061 -0.0340098 1 
0.0480712 0.27583 0.0375117 0.0932527 0.995061 -0.0340098 1 
0.047994 0.275771 0.0373368 0.0932527 0.995061 -0.0340098 1 
0.0479269 0.275909 0.037663 0.0718989 0.996926 -0.0311204 1 
0.0478112 0.275821 0.0374007 0.0932527 0.995061 -0.0340098 1 
0.0479512 0.276022 0.0379573 0.0746616 0.996569 -0.0357077 1 
0.0477298 0.276043 0.0379338 -0.230072 0.963184 0.139083 1 
0.0478884 0.27588 0.0375756 0.0932527 0.995061 -0.0340098 1 
0.0479697 0.275658 0.0370425 0.0830149 0.995071 -0.0542364 1 
0.0467592 0.274912 0.0388559 -0.66155 0.533616 0.526883 1 
0.0437717 0.266791 0.0441593 0.125591 0.923298 -0.362971 1 
0.0434135 0.267582 0.0443946 0.773707 0.454451 -0.44142 1 
0.0432797 0.266534 0.0438909 0.125591 0.923298 -0.362971 1 
0.0436093 0.267696 0.0439269 0.992444 0.109519 -0.0553239 1 
0.0434751 0.267972 0.0445794 0.854018 0.440042 -0.277518 1 
0.0436709 0.268086 0.0441118 0.819206 0.500886 -0.27931 1 
0.0433568 0.268379 0.0439233 0.697282 0.648972 -0.304357 1 
0.0435308 0.267885 0.0435551 0.994925 0.0874295 0.0498016 1 
0.0432566 0.26796 0.0436509 0.917923 0.0383018 0.394905 1 
0.0439121 0.267997 0.0464364 0.939685 0.338286 -0.0505485 1 
0.0438206 0.268022 0.0464684 0.948474 0.310996 -0.0606507 1 
0.0438579 0.268299 0.046359 0.952229 0.279444 -0.123167 1 
0.04369 0.269732 0.0466377 0.980403 0.180569 0.0787716 1 
0.0436501 0.26995 0.0463533 0.91747 0.360485 -0.168226 1 
0.0437328 0.269481 0.0460171 0.828442 0.391253 -0.400757 1 
0.0435499 0.269531 0.046081 0.818609 0.430763 -0.379898 1 
0.0434461 0.269464 0.0461494 0.84267 0.404919 -0.354891 1 
0.0432274 0.270385 0.0473086 0.351058 0.693953 -0.62864 1 
0.0432049 0.270096 0.0468439 0.980637 0.195664 -0.00810444 1 
0.0432546 0.270465 0.0466979 0.99212 -0.0121394 0.124705 1 
0.0433412 0.269253 0.0469524 0.917775 0.343987 -0.198399 1 
0.0431483 0.269106 0.0465151 0.952479 0.294167 -0.0790493 1 
0.0433542 0.269417 0.0465486 0.973706 0.212107 0.0831061 1 
0.0432384 0.269329 0.0462863 0.828408 0.403908 -0.388069 1 
0.0433914 0.269694 0.0464392 0.821987 0.421328 -0.38317 1 
0.043532 0.269967 0.0466286 0.936631 0.332875 -0.109161 1 
0.0433914 0.269694 0.0464392 0.821987 0.421328 -0.38317 1 
0.0433248 0.269903 0.0463982 0.894132 0.389072 -0.221698 1 
0.0436501 0.26995 0.0463533 0.91747 0.360485 -0.168226 1 
0.0434971 0.269585 0.0462004 0.824628 0.428933 -0.368788 1 
0.0432756 0.269606 0.0461768 0.84286 0.428441 -0.325615 1 
0.0432632 0.269513 0.0462133 0.824794 0.441684 -0.353031 1 
0.0432577 0.270041 0.0467244 0.948421 0.303023 -0.0931368 1 
0.0429959 0.270208 0.0467838 0.8593 0.438044 -0.264048 1 
0.0429486 0.269735 0.0463921 0.854875 0.403476 -0.326182 1 
0.0430078 0.270229 0.0471146 0.884328 0.437081 -0.164087 1 
0.0431116 0.270297 0.0470462 0.965007 0.262086 0.00845438 1 
0.0427391 0.269776 0.0466993 0.838927 0.460557 -0.28998 1 
0.0429045 0.270233 0.0468158 0.859156 0.442503 -0.256986 1 
0.0437546 0.268303 0.0460601 0.913554 0.315169 -0.257073 1 
0.0434803 0.268378 0.0461559 0.896525 0.337498 -0.286947 1 
0.0437097 0.26912 0.0459196 0.921248 0.291753 -0.25726 1 
0.043678 0.268316 0.0455179 0.87112 0.385978 -0.303595 1 
0.0436101 0.268773 0.04528 0.884868 0.351234 -0.306011 1 
0.0435182 0.268726 0.0456793 0.886041 0.29635 -0.356522 1 
0.0435443 0.268663 0.0458032 0.900144 0.270487 -0.341434 1 
0.0433858 0.268826 0.0461614 0.894834 0.31416 -0.317137 1 
0.0435816 0.26894 0.0456937 0.86648 0.338924 -0.366529 1 
0.0434355 0.269195 0.0460154 0.839145 0.399966 -0.368596 1 
0.0433441 0.26922 0.0460474 0.839145 0.399966 -0.368596 1 
0.0433845 0.269074 0.0459645 0.837385 0.381772 -0.391199 1 
0.0432812 0.269078 0.0456657 0.853511 0.368456 -0.368456 1 
0.0431916 0.268927 0.0455272 0.862405 0.353293 -0.362549 1 
0.0434889 0.269212 0.0455288 0.854344 0.364375 -0.370577 1 
0.0435623 0.268228 0.0452555 0.876398 0.396717 -0.273026 1 
0.0435068 0.268777 0.0449812 0.850032 0.399375 -0.343432 1 
0.0433557 0.268236 0.0446579 0.732695 0.60709 -0.307571 1 
0.0432394 0.268076 0.0447627 0.807967 0.523538 -0.270364 1 
0.0434173 0.268626 0.0448427 0.805494 0.483297 -0.342933 1 
0.0432344 0.268676 0.0449066 0.794606 0.483185 -0.367606 1 
0.0429945 0.26906 0.0457979 0.84319 0.383268 -0.377011 1 
0.0431599 0.269518 0.0459144 0.824909 0.422746 -0.375247 1 
0.0431058 0.269819 0.0458369 0.833585 0.434845 -0.340655 1 
0.0430287 0.269761 0.045662 0.817083 0.441193 -0.371112 1 
0.0429901 0.269731 0.0455746 0.820768 0.427054 -0.379427 1 
0.0427654 0.26878 0.0447356 0.732269 0.551259 -0.399869 1 
0.0423699 0.269294 0.0450802 0.794646 0.4078 -0.449708 1 
0.0424072 0.269571 0.0449707 0.78682 0.433157 -0.439646 1 
0.0431596 0.268512 0.0441941 0.651465 0.664593 -0.365936 1 
0.042544 0.2688 0.044712 0.689613 0.57994 -0.433709 1 
0.0437307 0.270047 0.045256 0.801647 0.409659 -0.435363 1 
0.0434422 0.270206 0.0455588 0.81114 0.466924 -0.352185 1 
0.0427008 0.270209 0.0453132 0.793262 0.381345 -0.47467 1 
0.0424918 0.270321 0.045253 0.772308 0.551648 -0.314999 1 
0.0424546 0.270045 0.0453625 0.793706 0.387998 -0.468496 1 
0.0425166 0.270506 0.0451801 0.675706 -0.366624 -0.639537 1 
0.0468815 0.267943 0.0418289 -0.959318 0.272083 0.0753658 1 
0.0466482 0.267943 0.0414745 -0.994304 0.105638 -0.0141577 1 
0.0464529 0.267901 0.0415749 -0.979572 0.193037 0.0563524 1 
0.0463367 0.267741 0.0416798 -0.958155 0.276857 0.0727228 1 
0.046724 0.268249 0.0414526 -0.998232 0.0592084 0.00519372 1 
0.0465282 0.268135 0.0419202 -0.952126 0.243755 0.1845 1 
0.046719 0.268849 0.0415964 -0.997948 0.00729952 0.0636101 1 
0.0467861 0.268711 0.0412701 -0.997711 -0.0372677 0.056434 1 
0.0468335 0.269184 0.0416619 -0.995318 -0.0206227 0.0944304 1 
0.0469516 0.269168 0.0413866 -0.998308 -0.041113 0.041113 1 
0.0465511 0.270282 0.0418752 -0.925457 -0.24099 0.292325 1 
0.0468291 0.269855 0.0414385 -0.934208 -0.185171 0.304905 1 
0.0467275 0.269683 0.0409693 -0.957826 -0.179343 0.224511 1 
0.046569 0.269846 0.0413275 -0.932941 -0.220258 0.284793 1 
0.0466064 0.270123 0.0412181 -0.917678 -0.237703 0.318378 1 
0.0463183 0.270353 0.0411535 -0.871212 -0.212963 0.442308 1 
0.0463606 0.27003 0.0409002 -0.917678 -0.237703 0.318378 1 
0.0476106 0.265519 0.0392344 -0.170921 -0.128503 -0.976869 1 
0.0479079 0.265805 0.0392359 -0.205191 -0.131271 -0.969879 1 
0.0475565 0.265821 0.0391569 -0.25295 0.0083917 -0.967443 1 
0.0472822 0.265896 0.0392527 -0.300571 0.0136061 -0.953663 1 
0.0472947 0.265988 0.0392162 -0.252557 0.0961511 -0.962793 1 
0.0477082 0.266433 0.0391129 -0.244021 0.0688265 -0.967324 1 
0.0475222 0.266907 0.0391503 -0.247611 0.167305 -0.954305 1 
0.0475391 0.266328 0.0393373 -0.268448 0.0725191 -0.960561 1 
0.0471366 0.266222 0.0392072 -0.268448 0.0725191 -0.960561 1 
0.0473319 0.266265 0.0391068 -0.268448 0.0725191 -0.960561 1 
0.0470732 0.266008 0.0391927 -0.225693 0.0945642 -0.969598 1 
0.0476049 0.266437 0.0388141 -0.244021 0.0688265 -0.967324 1 
0.0473848 0.26621 0.0389874 -0.24512 0.0741645 -0.966652 1 
0.0470508 0.267115 0.0395169 -0.948804 -0.28691 -0.132112 1 
0.0470651 0.267031 0.0393101 -0.933825 -0.332239 -0.132622 1 
0.0471491 0.266315 0.0391707 -0.268448 0.0725191 -0.960561 1 
0.0467834 0.266414 0.0392985 -0.274272 0.131173 -0.952664 1 
0.0472635 0.26665 0.0392362 -0.239305 0.154689 -0.958543 1 
0.0471864 0.266591 0.0390613 -0.239305 0.154689 -0.958543 1 
0.0468207 0.266691 0.0391891 -0.936463 -0.349733 0.0269025 1 
0.0467908 0.267106 0.0394059 -0.946376 -0.295826 -0.129842 1 
0.0466994 0.267131 0.0394378 -0.948804 -0.28691 -0.132112 1 
0.0466378 0.266741 0.0392529 -0.935084 -0.348519 -0.0644432 1 
0.0472966 0.267208 0.0398348 -0.497435 0.223617 -0.838185 1 
0.0473045 0.267971 0.0395749 -0.155154 -0.518657 0.840786 1 
0.0472039 0.26748 0.0396699 -0.946748 -0.320652 0.0291502 1 
0.046993 0.267769 0.0397802 -0.576024 -0.559132 0.596295 1 
0.0470969 0.267836 0.0397118 -0.576024 -0.559132 0.596295 1 
0.0472609 0.267145 0.0388424 -0.937612 -0.347682 0.00125517 1 
0.0473642 0.267141 0.0391413 -0.937612 -0.347682 0.00125517 1 
0.047243 0.267581 0.03939 -0.932005 -0.194226 -0.306011 1 
0.0472467 0.267229 0.0390493 -0.932783 -0.347613 -0.0952915 1 
0.0468929 0.267349 0.0395079 -0.471505 0.205067 -0.857689 1 
0.047011 0.267333 0.0392326 -0.948804 -0.28691 -0.132112 1 
0.0469439 0.267471 0.0395588 -0.239732 0.335624 -0.91098 1 
0.0469687 0.267656 0.0394859 -0.955846 -0.287137 -0.062532 1 
0.0468897 0.267773 0.0394814 -0.954637 -0.150452 -0.256967 1 
0.0470483 0.26761 0.0391232 -0.937251 -0.284647 -0.201336 1 
0.046774 0.267685 0.039219 -0.939378 -0.278078 -0.200604 1 
0.0464416 0.267951 0.0408769 -0.969813 -0.243352 0.0155841 1 
0.0465703 0.268203 0.0407354 -0.972331 -0.231965 0.0276435 1 
0.0469328 0.268527 0.0405811 -0.971242 -0.237733 0.013141 1 
0.0468792 0.2689 0.0401364 -0.913705 -0.356045 0.195896 1 
0.0467743 0.26869 0.0409394 -0.993988 -0.108256 0.0164024 1 
0.0466958 0.268879 0.0405676 -0.985518 -0.154614 0.0696354 1 
0.0468401 0.268799 0.0404162 -0.972891 -0.206598 0.103925 1 
0.046605 0.268975 0.0402323 -0.929061 -0.287062 0.233326 1 
0.0465907 0.269059 0.0404391 -0.974786 -0.179864 0.132068 1 
0.0468083 0.267995 0.0400145 -0.855493 -0.477938 0.199266 1 
0.0466939 0.267659 0.039949 -0.949715 -0.31239 0.0213278 1 
0.0465484 0.267986 0.0399034 -0.876335 -0.44914 0.174097 1 
0.0467412 0.268133 0.0403408 -0.925815 -0.359659 0.11624 1 
0.046439 0.268446 0.040483 -0.982922 -0.178177 0.0460191 1 
0.0467785 0.268409 0.0402313 -0.870736 -0.42405 0.248997 1 
0.0467386 0.268627 0.039947 -0.859078 -0.430304 0.277171 1 
0.0469215 0.268578 0.0398831 -0.799098 -0.502427 0.330166 1 
0.0467685 0.268213 0.0397301 -0.823106 -0.473719 0.313189 1 
0.0467685 0.268213 0.0397301 -0.823106 -0.473719 0.313189 1 
0.0466105 0.268447 0.039721 -0.713354 -0.564394 0.415434 1 
0.0466099 0.268376 0.0400883 -0.868676 -0.424518 0.255315 1 
0.0464258 0.268673 0.0399553 -0.835022 -0.460432 0.301232 1 
0.0465788 0.269038 0.0401084 -0.925043 -0.286493 0.249434 1 
0.0465843 0.26851 0.0395971 -0.560297 -0.583995 0.587381 1 
0.0463486 0.268614 0.0397804 -0.810206 -0.500654 0.304814 1 
0.0463101 0.268585 0.039693 -0.775674 -0.520879 0.356391 1 
0.0466482 0.267943 0.0414745 -0.994304 0.105638 -0.0141577 1 
0.046413 0.268119 0.0412906 -0.999198 -0.0397235 -0.00509275 1 
0.0462955 0.268207 0.0411985 -0.99903 -0.0383048 0.0217405 1 
0.0466456 0.268438 0.0410807 -0.997204 -0.0713049 0.0223493 1 
0.046454 0.268044 0.0408404 -0.968408 -0.249019 0.0132329 1 
0.0463333 0.268555 0.0407218 -0.99139 -0.119513 0.0534964 1 
0.0465772 0.268823 0.0412101 -0.993491 -0.0618822 0.0956362 1 
0.0466443 0.268685 0.0408839 -0.993893 -0.103276 0.0388673 1 
0.0465622 0.269226 0.0408528 -0.992733 -0.0850914 0.0850914 1 
0.0465746 0.269318 0.0408164 -0.986299 -0.113026 0.120164 1 
0.046383 0.268924 0.040576 -0.988226 -0.123381 0.0904797 1 
0.0461336 0.269183 0.0405988 -0.97909 -0.134919 0.152248 1 
0.0464887 0.268815 0.0403371 -0.978371 -0.171926 0.11503 1 
0.0464874 0.269063 0.0401403 -0.947289 -0.252156 0.197636 1 
0.0461888 0.269025 0.0399418 -0.874564 -0.363515 0.320927 1 
0.0463592 0.268882 0.0399144 -0.818013 -0.416182 0.397047 1 
0.0461117 0.268966 0.0397668 -0.819844 -0.425046 0.383655 1 
0.0467263 0.269931 0.0407724 -0.9187 -0.245849 0.309109 1 
0.046062 0.269992 0.0407017 -0.898005 -0.261856 0.35358 1 
0.0461709 0.26946 0.0404894 -0.978982 -0.129953 0.157182 1 
0.0462766 0.269352 0.0402506 -0.958711 -0.181665 0.218793 1 
0.0462136 0.269209 0.0398688 -0.902548 -0.293956 0.314636 1 
0.0466696 0.267546 0.0396547 -0.959832 -0.218445 -0.17608 1 
0.0465414 0.267365 0.0394288 -0.354611 0.285784 -0.890269 1 
0.04645 0.26739 0.0394607 -0.524045 0.194818 -0.829109 1 
0.0461346 0.267931 0.0390753 -0.860736 -0.110277 -0.496964 1 
0.0466527 0.268124 0.0394678 -0.507051 -0.567695 0.648554 1 
0.0464562 0.26833 0.0393713 -0.565973 -0.572731 0.593004 1 
0.0463648 0.268354 0.0394032 -0.607262 -0.546367 0.576815 1 
0.0460799 0.268161 0.0393651 -0.682576 -0.50145 0.531637 1 
0.0464374 0.268075 0.0507846 -0.955844 0.24594 0.160858 1 
0.0474297 0.269814 0.049763 -0.926058 0.34571 0.151335 1 
0.0475832 0.27025 0.0495487 -0.921515 0.27171 0.277461 1 
0.0477735 0.270892 0.0495922 -0.768247 0.360672 0.528878 1 
0.0472789 0.268492 0.0513026 -0.920201 0.353707 0.167694 1 
0.0471191 0.268902 0.0514639 -0.90779 0.365136 0.206381 1 
0.0470544 0.268936 0.0512525 -0.921634 0.366166 0.128504 1 
0.0473852 0.26985 0.0514855 -0.876131 0.420842 0.235132 1 
0.0469337 0.269447 0.051134 -0.918041 0.393065 0.0519646 1 
0.0467347 0.268361 0.0507862 -0.953068 0.289951 0.0871154 1 
0.0464747 0.268352 0.0506752 -0.953068 0.289951 0.0871154 1 
0.0467719 0.268638 0.0506768 -0.942004 0.327139 0.0748874 1 
0.0470933 0.269427 0.0500412 -0.922975 0.362844 0.128306 1 
0.0470008 0.269309 0.0508078 -0.918779 0.388766 0.0686057 1 
0.0468179 0.269359 0.0508717 -0.918779 0.388766 0.0686057 1 
0.0467545 0.269145 0.0508572 -0.917982 0.391117 0.0658581 1 
0.0468167 0.269606 0.0506748 -0.91869 0.383584 0.0941896 1 
0.0466388 0.269057 0.0505948 -0.918779 0.388766 0.0686057 1 
0.0468066 0.26941 0.0501736 -0.919229 0.37296 0.126169 1 
0.0467395 0.269548 0.0504999 -0.916541 0.381314 0.120634 1 
0.0467304 0.268642 0.0514943 -0.931534 0.27481 0.238168 1 
0.0468343 0.268709 0.0514258 -0.91697 0.339036 0.210288 1 
0.0469363 0.268952 0.0515278 -0.911076 0.355507 0.208698 1 
0.0468715 0.268986 0.0513164 -0.921642 0.362818 0.137621 1 
0.0467291 0.268889 0.0512974 -0.930003 0.322085 0.177077 1 
0.0468964 0.26917 0.0512434 -0.919863 0.376993 0.1083 1 
0.0464318 0.268603 0.0512958 -0.943705 0.27997 0.176176 1 
0.0466134 0.268801 0.051035 -0.942071 0.318465 0.105267 1 
0.0467807 0.269082 0.0509811 -0.918403 0.390154 0.065696 1 
0.0476582 0.270023 0.0511927 -0.918162 0.388089 0.0797814 1 
0.0476587 0.270094 0.0508254 -0.894652 0.443932 0.0502308 1 
0.0475026 0.270153 0.050646 -0.917775 0.384344 0.0998473 1 
0.0473839 0.270098 0.0512886 -0.889428 0.445417 0.102572 1 
0.0472687 0.270081 0.0506589 -0.9123 0.39297 0.115253 1 
0.0471525 0.269922 0.0507638 -0.925197 0.367098 0.0961771 1 
0.0473061 0.270358 0.0505494 -0.912195 0.382079 0.148038 1 
0.0471227 0.270336 0.0509807 -0.894039 0.439396 0.0873247 1 
0.0474297 0.269814 0.049763 -0.926058 0.34571 0.151335 1 
0.0472711 0.269977 0.0501212 -0.924539 0.345478 0.16085 1 
0.047324 0.269922 0.0500018 -0.924461 0.347196 0.157563 1 
0.0471002 0.270047 0.0505159 -0.911536 0.393839 0.118291 1 
0.0469596 0.269775 0.0503265 -0.91838 0.377019 0.120149 1 
0.047074 0.27011 0.050392 -0.921058 0.365367 0.134755 1 
0.0470753 0.269863 0.0505889 -0.926322 0.355433 0.124882 1 
0.046921 0.269745 0.050239 -0.919229 0.37296 0.126169 1 
0.0476559 0.27098 0.0495002 -0.734227 0.338749 0.588354 1 
0.0473587 0.270694 0.0494986 -0.880922 0.265627 0.391688 1 
0.0471239 0.270089 0.0511775 -0.902702 0.426313 0.0581952 1 
0.0470082 0.270001 0.0509152 -0.918403 0.390154 0.065696 1 
0.0465542 0.268307 0.0503124 -0.951751 0.296532 0.0789888 1 
0.0468893 0.268941 0.0498373 -0.935279 0.346937 0.0699151 1 
0.0470565 0.269222 0.0497834 -0.925742 0.367871 0.0875884 1 
0.0469775 0.269339 0.0497789 -0.932877 0.353302 0.0701312 1 
0.0466935 0.268827 0.050305 -0.937992 0.345171 0.0320791 1 
0.0467077 0.268743 0.0500981 -0.937992 0.345171 0.0320791 1 
0.0468594 0.269355 0.0500542 -0.921426 0.370498 0.117072 1 
0.046513 0.268772 0.0498312 -0.931607 0.360916 -0.0429972 1 
0.0473911 0.269784 0.0496756 -0.926058 0.34571 0.151335 1 
0.0470024 0.269524 0.0497059 -0.936374 0.337949 0.0948396 1 
0.0471311 0.269775 0.0495646 -0.930443 0.324056 0.171068 1 
0.046924 0.269712 0.0493342 -0.874832 0.330154 0.354497 1 
0.0468183 0.269821 0.0495729 -0.906535 0.310014 0.286506 1 
0.0472704 0.270296 0.0495571 -0.900325 0.273498 0.338546 1 
0.0472292 0.270761 0.0490759 -0.680675 0.315277 0.661273 1 
0.0471515 0.270631 0.0492682 -0.796654 0.330476 0.506091 1 
0.0469314 0.270404 0.0494415 -0.914863 0.256626 0.31172 1 
0.0468929 0.270375 0.0493541 -0.846336 0.318346 0.42705 1 
0.0470706 0.270924 0.0494341 -0.780414 0.342738 0.522958 1 
0.046876 0.270953 0.0491672 -0.695237 0.268867 0.6666 1 
0.0467243 0.270341 0.0492111 -0.797516 0.337226 0.500246 1 
0.0475365 0.271244 0.0495786 -0.716413 0.307494 0.626258 1 
0.0473293 0.27118 0.0493482 -0.686401 0.26596 0.676845 1 
0.0474705 0.271525 0.0491704 -0.547809 0.182603 0.816432 1 
0.0474581 0.271432 0.0492068 -0.544345 0.182454 0.818779 1 
0.0472908 0.271151 0.0492608 -0.688657 0.262421 0.675934 1 
0.0470731 0.27082 0.0488964 -0.554401 0.276411 0.785007 1 
0.0471476 0.271373 0.0486776 -0.560102 0.153841 0.814014 1 
0.0470308 0.271142 0.0491498 -0.617967 0.21948 0.754947 1 
0.0468236 0.271079 0.0489193 -0.530026 0.236426 0.814355 1 
0.0468609 0.271356 0.0488099 -0.557522 0.159933 0.814611 1 
0.0466532 0.271221 0.0489467 -0.503276 0.190794 0.842799 1 
0.0465108 0.271124 0.0489277 -0.530026 0.236426 0.814355 1 
0.0466905 0.271498 0.0488373 -0.559697 0.166559 0.811786 1 
0.0464336 0.271066 0.0487528 -0.521259 0.317219 0.792251 1 
0.0797936 0.273613 0.0583376 -0.71029 0.0559623 0.701681 0 
0.0810245 0.273972 0.0593893 -0.0146938 -0.474208 0.88029 0 
0.0806962 0.274348 0.0594077 -0.379646 -0.126549 0.916436 0 
0.0804225 0.274495 0.0591362 -0.34367 -0.264021 0.901212 0 
0.0804468 0.274608 0.0594306 -0.205413 -0.0799512 0.975404 0 
0.0803062 0.274335 0.0592411 -0.292993 -0.290078 0.911049 0 
0.0801992 0.274691 0.0592831 -0.299354 -0.287672 0.909743 0 
0.0801078 0.274716 0.059315 -0.299354 -0.287672 0.909743 0 
0.0809237 0.275267 0.0593418 -0.192317 0.283634 0.93945 0 
0.0804056 0.275073 0.0589493 -0.251618 -0.0771293 0.964748 0 
0.0806252 0.275229 0.0591432 -0.07403 0.305212 0.949403 0 
0.0805033 0.274201 0.0589703 -0.495063 -0.141655 0.857232 0 
0.0800461 0.274326 0.0591301 -0.412545 -0.331593 0.848441 0 
0.080229 0.274276 0.0590662 -0.387307 -0.310764 0.867997 0 
0.0800076 0.274297 0.0590426 -0.441839 -0.359489 0.821916 0 
0.0798023 0.274058 0.0586419 -0.542716 -0.414048 0.730769 0 
0.0801506 0.274465 0.0586945 -0.507271 -0.380858 0.773061 0 
0.0803808 0.274889 0.0590223 -0.213955 -0.281079 0.935531 0 
0.0800666 0.275181 0.0588337 -0.43047 -0.144443 0.890972 0 
0.0801953 0.275433 0.0586924 -0.298951 0.0763555 0.951209 0 
0.0796474 0.273869 0.0586593 -0.489573 -0.533016 0.690081 0 
0.0797637 0.274028 0.0585544 -0.541519 -0.438846 0.717057 0 
0.0795082 0.274744 0.0594557 -0.370874 -0.298213 0.879501 0 
0.0792465 0.274911 0.0595151 -0.34698 -0.0784362 0.934587 0 
0.0797719 0.274401 0.0592259 -0.412545 -0.331593 0.848441 0 
0.0800293 0.274905 0.0589432 -0.407133 -0.326635 0.852967 0 
0.0797165 0.27495 0.0589516 -0.490073 -0.402153 0.773371 0 
0.0798452 0.275202 0.0588102 -0.490567 -0.368328 0.789733 0 
0.0800528 0.275337 0.0586734 -0.110014 -0.990128 0.0868533 0 
0.0793265 0.274937 0.0587851 -0.520152 -0.470298 0.712925 0 
0.0794552 0.275189 0.0586437 -0.511522 -0.491528 0.704801 0 
0.0792195 0.275293 0.058827 -0.485332 -0.475393 0.733795 0 
0.0796723 0.274053 0.0585863 -0.541519 -0.438846 0.717057 0 
0.0794894 0.274103 0.0586503 -0.541562 -0.406583 0.7358 0 
0.0793489 0.27383 0.0584608 -0.489606 -0.519684 0.700153 0 
0.0795317 0.27378 0.0583969 -0.520152 -0.470298 0.712925 0 
0.0792966 0.273956 0.0582129 -0.528225 -0.438807 0.72693 0 
0.0792176 0.274073 0.0582084 -0.495389 -0.502061 0.70889 0 
0.079179 0.274044 0.058121 -0.514051 -0.480779 0.710355 0 
0.0789048 0.274119 0.0582168 -0.461414 -0.534707 0.707945 0 
0.0793326 0.27448 0.0579066 -0.608863 -0.286054 0.739905 0 
0.0789492 0.274625 0.0595135 -0.374735 -0.448087 0.81166 0 
0.0788707 0.274814 0.0591416 -0.450224 -0.437222 0.778547 0 
0.0792843 0.275259 0.0590383 -0.436102 -0.259838 0.861568 0 
0.0791822 0.275016 0.0589364 -0.492126 -0.449332 0.745595 0 
0.0787922 0.275003 0.0587698 -0.571092 -0.467257 0.674926 0 
0.0787978 0.274475 0.0582587 -0.64688 -0.276322 0.710769 0 
0.0787423 0.275024 0.0579843 -0.674219 -0.237313 0.699365 0 
0.0785727 0.274847 0.0585759 -0.604809 -0.428198 0.671455 0 
0.0782093 0.273447 0.0573771 -0.231763 0.971948 -0.0400428 0 
0.0792181 0.274145 0.0578412 -0.591751 -0.332353 0.73442 0 
0.079011 0.274082 0.0576107 -0.691032 0.10802 0.714707 0 
0.079192 0.274208 0.0577172 -0.643731 -0.290562 0.707944 0 
0.0788805 0.274006 0.0579225 -0.638945 -0.165428 0.751254 0 
0.0788276 0.27406 0.0580418 -0.632022 -0.275415 0.724358 0 
0.0786609 0.27385 0.0577285 -0.660972 0.117341 0.74118 0 
0.0784781 0.2739 0.0577924 -0.629885 0.00969054 0.776628 0 
0.0785837 0.273791 0.0575536 -0.643467 0.199058 0.739139 0 
0.0787647 0.273917 0.0576601 -0.660972 0.117341 0.74118 0 
0.0793997 0.274342 0.0575804 -0.640651 -0.233391 0.731502 0 
0.0792541 0.274669 0.0575348 -0.656487 -0.199263 0.727543 0 
0.0790482 0.274358 0.0575013 -0.635273 -0.145677 0.758423 0 
0.0784046 0.273489 0.0572767 -0.593544 0.299172 0.747129 0 
0.0785203 0.273578 0.0575391 -0.61385 0.110405 0.781665 0 
0.0782888 0.273401 0.0570143 -0.0884573 0.97303 -0.213045 0 
0.078376 0.273657 0.0576904 -0.64784 0.192352 0.737091 0 
0.0783375 0.273627 0.057603 -0.6285 0.178916 0.756952 0 
0.0781303 0.273564 0.0573726 -0.555428 0.102964 0.825166 0 
0.078106 0.273451 0.0570783 -0.536066 0.1462 0.83142 0 
0.0779374 0.273417 0.0569353 -0.455891 -0.207767 0.865446 0 
0.0778318 0.273526 0.0571741 -0.496145 0.24116 0.834076 0 
0.0776732 0.273689 0.0575323 -0.509855 0.0287049 0.859782 0 
0.0775575 0.273601 0.05727 -0.453514 0.0968808 0.885968 0 
0.0774803 0.273542 0.057095 -0.438223 -0.111317 0.891947 0 
0.0781724 0.275028 0.0569768 -0.319933 -0.947253 -0.0188196 0 
0.0777695 0.27485 0.057214 -0.53009 0.0545475 0.846185 0 
0.0778596 0.275073 0.0569852 -0.394253 -0.10028 0.913514 0 
0.0775753 0.274951 0.0565798 -0.0711606 -0.136488 0.988083 0 
0.077716 0.273438 0.0569117 -0.460376 -0.121152 0.879418 0 
0.0777409 0.273622 0.0568388 -0.431802 0.222624 0.874063 0 
0.077701 0.27384 0.0565544 -0.410126 0.140493 0.901143 0 
0.0776748 0.273903 0.0564304 -0.399578 0.287149 0.870564 0 
0.0776494 0.273647 0.0568707 -0.421606 0.00129725 0.906778 0 
0.0774667 0.273697 0.0569346 -0.410227 0.152942 0.899068 0 
0.0773509 0.273609 0.0566722 -0.391213 -0.0300933 0.919808 0 
0.0775461 0.273651 0.0565718 -0.396366 0.219548 0.891455 0 
0.0753209 0.273517 0.0565696 -0.276736 0.175857 0.944718 0 
0.0773795 0.274837 0.0570475 -0.244002 -0.100922 0.964509 0 
0.0771837 0.274723 0.0575151 -0.342838 -0.0893779 0.935133 0 
0.0766482 0.275037 0.057303 -0.17487 -0.137128 0.974995 0 
0.0771425 0.275189 0.0570339 0.16025 -0.239713 0.957527 0 
0.0771924 0.273772 0.0570304 -0.402617 0.0745587 0.912327 0 
0.0770766 0.273684 0.0567681 -0.3921 0.112226 0.913052 0 
0.0769852 0.273709 0.0568 -0.3921 0.112226 0.913052 0 
0.0769995 0.273625 0.0565932 -0.37785 0.123182 0.917636 0 
0.0768819 0.273713 0.0565012 -0.346907 0.0810778 0.934389 0 
0.0769081 0.27365 0.0566251 -0.366594 0.0512444 0.928969 0 
0.0767376 0.273792 0.0566525 -0.401291 0.196998 0.894515 0 
0.0764491 0.273951 0.0569552 -0.365239 0.177645 0.913807 0 
0.0767004 0.273515 0.056762 -0.337586 -0.187862 0.922358 0 
0.0765952 0.273695 0.0566335 -0.364101 0.0404557 0.93048 0 
0.0763968 0.274076 0.0567073 -0.371295 0.174978 0.911879 0 
0.0770672 0.274954 0.0566885 -0.19636 -0.150158 0.968966 0 
0.0765461 0.273398 0.0564122 -0.268352 -0.633564 0.725661 0 
0.0762966 0.273657 0.056435 -0.312091 -0.104916 0.944241 0 
0.0761281 0.273623 0.056292 -0.341029 0.00629205 0.940032 0 
0.0764565 0.274642 0.0570626 -0.311837 -0.0881564 0.946037 0 
0.0762176 0.273774 0.0564305 -0.309558 0.0036999 0.950873 0 
0.0760348 0.273824 0.0564944 -0.353296 -0.0564749 0.933805 0 
0.0759452 0.273673 0.056356 -0.349034 0.112723 0.930306 0 
0.0759191 0.273736 0.056232 -0.349034 0.112723 0.930306 0 
0.0757904 0.273484 0.0563734 0.00112915 0.985745 0.168243 0 
0.0757132 0.273426 0.0561984 -0.277119 0.291628 0.91551 0 
0.0757119 0.273673 0.0560016 -0.30919 0.285745 0.907056 0 
0.075439 0.2735 0.0562943 -0.255498 0.307464 0.916617 0 
0.0758059 0.274939 0.0562209 -0.443399 0.407927 0.798118 0 
0.0772625 0.274997 0.0565882 -0.193536 -0.127759 0.972739 0 
0.0754425 0.274934 0.055811 -0.165695 0.470691 0.8666 0 
0.0750564 0.274179 0.0562351 -0.156379 0.693838 0.702947 0 
0.075197 0.274451 0.0564246 -0.134478 0.811304 0.568947 0 
0.0732974 0.273039 0.0552212 -0.103383 -0.583894 0.80522 0 
0.0755167 0.273631 0.0561019 -0.28305 0.309448 0.907813 0 
0.0754253 0.273656 0.0561339 -0.295618 0.307384 0.904503 0 
0.0752921 0.274075 0.0560519 -0.082647 0.778622 0.622027 0 
0.075164 0.273894 0.055826 -0.136696 0.72554 0.674467 0 
0.074891 0.273721 0.0561187 -0.199377 0.718686 0.666137 0 
0.0748649 0.273784 0.0559947 -0.185831 0.664997 0.723357 0 
0.0750863 0.273764 0.0560183 -0.394539 0.00128514 0.918878 0 
0.0748897 0.273969 0.0559218 -0.162259 0.647521 0.744573 0 
0.0750992 0.273928 0.0556146 -0.185878 0.640588 0.745048 0 
0.074825 0.274002 0.0557104 -0.193669 0.562707 0.80365 0 
0.0747747 0.273562 0.0562236 -0.208477 0.427304 0.879744 0 
0.0746292 0.273889 0.0561781 -0.199566 0.552997 0.80893 0 
0.0745906 0.273859 0.0560906 -0.1648 0.609307 0.775619 0 
0.0744992 0.273884 0.0561225 -0.187768 0.584677 0.789237 0 
0.0745626 0.274098 0.056137 -0.197152 0.576173 0.793193 0 
0.0744749 0.273771 0.0558282 -0.234226 0.381538 0.894185 0 
0.074371 0.273704 0.0558967 -0.247539 0.380944 0.890846 0 
0.0747211 0.273935 0.0557788 -0.199566 0.552997 0.80893 0 
0.075223 0.274779 0.0556171 -0.154795 0.447024 0.881027 0 
0.0750065 0.2742 0.0554496 -0.183437 0.568504 0.801969 0 
0.0749368 0.274833 0.0553821 -0.203348 0.440836 0.87425 0 
0.0748853 0.27464 0.0556984 -0.166021 0.536952 0.827115 0 
0.0746116 0.274786 0.055427 -0.238699 0.469796 0.849891 0 
0.0742249 0.273959 0.0562184 -0.167041 0.573356 0.802097 0 
0.0741234 0.273787 0.0557491 -0.277335 0.404637 0.871409 0 
0.0741092 0.273871 0.055956 -0.277335 0.404637 0.871409 0 
0.0739649 0.27395 0.0561073 -0.296897 0.388249 0.872419 0 
0.0735749 0.273937 0.0559408 -0.364942 -0.0140855 0.930924 0 
0.0742726 0.274894 0.0553114 -0.158692 0.615119 0.772299 0 
0.0740078 0.273699 0.0554868 -0.335625 -0.00124768 0.941995 0 
0.074032 0.273812 0.0557811 -0.306655 0.361037 0.88069 0 
0.0738125 0.273657 0.0555871 -0.336659 0.694461 0.635912 0 
0.0737863 0.273719 0.0554632 -0.353001 -0.0374983 0.934871 0 
0.0738492 0.273862 0.055845 -0.357695 -0.143356 0.922769 0 
0.073642 0.273799 0.0556145 -0.323922 0.0773741 0.942914 0 
0.0735911 0.273677 0.0555636 -0.341552 0.79054 0.508319 0 
0.0740525 0.274667 0.0554847 -0.174829 0.612661 0.770767 0 
0.0740897 0.274944 0.0553753 -0.178789 0.536366 0.824831 0 
0.0738683 0.274965 0.0553518 -0.13586 0.613609 0.777835 0 
0.0735574 0.274834 0.0551897 -0.184795 0.515322 0.836836 0 
0.0752602 0.275056 0.0555076 -0.206168 0.399176 0.893394 0 
0.0749617 0.275018 0.0553092 -0.253155 0.438095 0.862546 0 
0.0746488 0.275063 0.0553176 -0.207697 0.513937 0.832305 0 
0.0743746 0.275138 0.0554134 -0.155863 0.535873 0.829787 0 
0.0727632 0.273105 0.055206 -0.1947 -0.199998 0.960256 0 
0.0726295 0.273453 0.0554913 -0.293883 0.150327 0.943946 0 
0.0712675 0.272947 0.0551186 -0.405313 0.298249 0.864158 0 
0.0710696 0.2734 0.0548252 -0.43443 0.263706 0.861237 0 
0.0709533 0.27324 0.05493 -0.465171 0.31168 0.828536 0 
0.0734698 0.274117 0.0558124 -0.284566 0.35012 0.892434 0 
0.0731464 0.273894 0.0556868 -0.254943 0.414848 0.873444 0 
0.0733292 0.273844 0.055623 -0.279371 0.363033 0.888909 0 
0.0730693 0.273835 0.0555119 -0.247539 0.380944 0.890846 0 
0.0733888 0.2748 0.0550468 -0.219039 0.472823 0.853499 0 
0.0731798 0.274913 0.0549867 -0.178639 0.633634 0.752726 0 
0.0734012 0.274893 0.0550103 -0.164046 0.582438 0.79615 0 
0.0732432 0.275127 0.0550012 -0.452903 0.0309103 0.891024 0 
0.0728775 0.275227 0.055129 -0.311788 0.347938 0.884153 0 
0.0729162 0.27347 0.055359 -0.223382 0.553063 0.802634 0 
0.072512 0.273541 0.0553993 -0.281153 0.278269 0.918433 0 
0.0727369 0.274954 0.0549396 -0.380431 0.141784 0.913876 0 
0.0724782 0.274698 0.0550255 -0.202686 0.632812 0.747307 0 
0.0723292 0.273591 0.0554632 -0.28725 0.230649 0.929671 0 
0.071778 0.274235 0.0552611 -0.196707 0.270988 0.942269 0 
0.0716126 0.273778 0.0551446 -0.304262 0.25235 0.918555 0 
0.0719987 0.274534 0.0547205 -0.158855 0.324617 0.93241 0 
0.0723346 0.274849 0.0548096 -0.194178 0.50426 0.841437 0 
0.0715465 0.274059 0.0547364 -0.308567 0.113542 0.944402 0 
0.0720098 0.274873 0.0544871 -0.17365 0.563229 0.807848 0 
0.0715453 0.274306 0.0545395 -0.250914 0.118306 0.960753 0 
0.0716584 0.274889 0.0544081 -0.105892 0.193097 0.975449 0 
0.0716882 0.274475 0.0541912 -0.0899215 0.024918 0.995637 0 
0.0725404 0.275159 0.0548431 -0.27762 0.295062 0.914257 0 
0.0725155 0.274975 0.054916 -0.180107 0.809726 0.558484 0 
0.0722561 0.275037 0.0544377 -0.238258 0.418076 0.87661 0 
0.071799 0.275162 0.0545975 -0.152289 0.622726 0.767476 0 
0.0719432 0.275083 0.0544461 -0.14656 0.537385 0.830504 0 
0.0714502 0.274683 0.0549122 -0.118396 0.217696 0.968809 0 
0.0713122 0.273916 0.0551165 -0.381098 0.147658 0.912667 0 
0.0713841 0.274964 0.0545039 -0.077817 0.331052 0.940398 0 
0.0712013 0.275014 0.0545678 -0.077817 0.331052 0.940398 0 
0.0709128 0.275173 0.0548705 0.0245942 0.371502 0.928107 0 
0.0706927 0.274946 0.0550438 0.0581198 0.423058 0.904237 0 
0.0706528 0.275164 0.0547595 -0.071762 0.39943 0.913951 0 
0.0704083 0.274824 0.0546385 -0.179973 0.200991 0.962919 0 
0.0715247 0.275237 0.0546934 -0.105892 0.193097 0.975449 0 
0.0712505 0.275312 0.0547892 -0.0793183 0.300369 0.950519 0 
0.0704319 0.275256 0.0543687 -0.15965 -0.334572 0.928748 0 
