0.0680045 0.27479 0.0541759 -0.974555 0.0649704 -0.214525 2 
0.0680852 0.275335 0.0547383 -0.471243 0.156108 -0.868079 2 
0.0680731 0.275157 0.0542016 0.0547816 0.554839 -0.830152 2 
0.0680948 0.274984 0.0538858 -0.827288 -0.384381 0.40969 2 
0.0678909 0.27508 0.0542312 -0.47467 0.381345 -0.793262 2 
0.0683122 0.273248 0.0547556 -0.840159 0.193883 0.5065 2 
0.0683173 0.273492 0.0547487 -0.859682 0.204829 0.467966 2 
0.0680173 0.273305 0.0551159 -0.4754 0.345023 0.809293 2 
0.0675006 0.27319 0.0550164 -0.464846 0.341098 0.81705 2 
0.0674915 0.273057 0.0546138 -0.535236 0.445754 0.717514 2 
0.0683426 0.274205 0.055406 0.380679 0.29878 0.875108 2 
0.068173 0.273821 0.0547173 -0.952227 0.0161816 0.304962 2 
0.0677185 0.273473 0.0550667 -0.15182 0.35239 0.923457 2 
0.0679097 0.273684 0.0554396 -0.138293 0.291354 0.946566 2 
0.0679335 0.273711 0.0549828 -0.914791 0.0631354 0.398962 2 
0.0677892 0.27404 0.0549514 -0.973319 -0.170869 -0.153149 2 
0.0678178 0.273801 0.0551792 0.275771 0.334759 0.901048 2 
0.0677258 0.273918 0.0549188 -0.956218 -0.180041 -0.230719 2 
0.0677194 0.273317 0.0553419 -0.284397 0.343956 0.894881 2 
0.0675998 0.273518 0.0551289 -0.10297 0.324958 0.940106 2 
0.0674453 0.273357 0.0551112 -0.331254 0.275309 0.902483 2 
0.0675445 0.273685 0.0552237 0.0796423 0.251569 0.964557 2 
0.0674525 0.273802 0.0549633 -0.678598 -0.248345 -0.691252 2 
0.0673696 0.274053 0.0551055 -0.479849 -0.147309 -0.864896 2 
0.0680056 0.273638 0.0538877 -0.979883 0.0222967 0.198324 2 
0.067754 0.27335 0.0536163 -0.858225 0.318945 0.402149 2 
0.067763 0.273483 0.0540189 -0.887294 0.260969 0.380269 2 
0.0677901 0.274067 0.0530047 -0.27945 -0.659503 0.697828 2 
0.0678451 0.273388 0.0536015 -0.865983 0.308075 0.393907 2 
0.0677808 0.273422 0.0532937 -0.724501 0.445974 0.525553 2 
0.0677315 0.273678 0.0536568 -0.994482 0.0500019 0.0922257 2 
0.0677069 0.273806 0.0538384 -0.993536 0.00108111 0.113516 2 
0.0676702 0.273756 0.0534833 -0.92184 0.116776 0.36956 2 
0.0674932 0.273924 0.053506 -0.97539 0.146873 0.164448 2 
0.0674319 0.274002 0.0533325 -0.797294 -0.0613303 0.600467 2 
0.0676647 0.273 0.0541817 -0.636685 0.488853 0.596368 2 
0.0674988 0.273502 0.054466 -0.736332 0.289102 0.611747 2 
0.0672523 0.273458 0.0541878 -0.62141 0.490055 0.611306 2 
0.0671336 0.273503 0.0542501 -0.612538 0.478283 0.62932 2 
0.0673059 0.273602 0.0535426 -0.787584 0.508481 0.348077 2 
0.0681424 0.27386 0.0546305 -0.995632 -0.0404373 0.0841533 2 
0.06799 0.2739 0.0544717 -0.988403 -0.0424749 0.145792 2 
0.0679675 0.274228 0.0545123 -0.987191 -0.146034 0.064255 2 
0.0679533 0.27385 0.0541166 -0.972537 -0.0832184 0.217361 2 
0.0678704 0.274101 0.0542587 -0.986047 -0.0842471 0.143576 2 
0.0679062 0.274306 0.0543386 -0.994447 -0.104963 -0.00757468 2 
0.0680607 0.274467 0.0543564 -0.996024 -0.0402764 -0.0794642 2 
0.0677875 0.274352 0.0544009 -0.994447 -0.104963 -0.00757468 2 
0.0677414 0.273656 0.0543347 -0.865547 0.204096 0.457354 2 
0.0676239 0.274057 0.0539805 -0.999223 0.0257267 0.0298429 2 
0.0678323 0.274691 0.0548834 -0.665988 -0.00137886 -0.745961 2 
0.0678732 0.275141 0.0549564 -0.61375 0.00137304 -0.789499 2 
0.0676 0.275026 0.0550009 -0.614225 -0.0180247 -0.788925 2 
0.0678233 0.274557 0.0544807 -0.979553 -0.0367184 -0.197806 2 
0.0675845 0.274292 0.0550215 -0.766036 -0.152003 -0.624567 2 
0.0675591 0.274575 0.0549279 -0.806469 -0.0522581 -0.588962 2 
0.0674679 0.274537 0.0549427 -0.78119 -0.0554944 -0.621822 2 
0.0673267 0.27491 0.0550454 -0.613745 -0.0041191 -0.789493 2 
0.0677694 0.274084 0.0535957 -0.994276 0.0455478 0.0966503 2 
0.0679135 0.274751 0.0541907 -0.983451 0.0386816 -0.176998 2 
0.0674953 0.274124 0.053365 -0.797294 -0.0613303 0.600467 2 
0.0672443 0.274677 0.0539325 -0.4853 0.511983 -0.708772 2 
0.0676177 0.274964 0.0542757 -0.443953 0.411666 -0.795887 2 
0.0671338 0.275011 0.054122 -0.408882 0.483817 -0.773781 2 
0.0671364 0.274544 0.0549478 -0.773436 -0.0795121 -0.628868 2 
0.0670535 0.274795 0.0550899 -0.578888 0.0291526 -0.814886 2 
0.0669314 0.274466 0.0534877 -0.990728 -0.0326861 0.131872 2 
0.0668882 0.274812 0.0541191 -0.397601 0.531771 -0.747752 2 
0.0669234 0.272998 0.0550186 -0.28003 -0.0110055 0.959928 2 
0.0665888 0.272961 0.0548895 -0.176986 -0.258049 0.949782 2 
0.0683031 0.275618 0.0547886 -0.559109 0.0815069 -0.825078 2 
0.0680104 0.275875 0.0550078 -0.404652 0.446568 -0.798019 2 
0.0678887 0.275876 0.0549358 -0.400339 0.448572 -0.799069 2 
0.0676542 0.276011 0.0551944 -0.394758 0.498727 -0.771646 2 
0.0681273 0.276142 0.0543951 -0.396098 0.513461 -0.761226 2 
0.0679102 0.275703 0.05462 -0.40842 0.370574 -0.834187 2 
0.0669333 0.27548 0.056132 -0.912165 0.347286 -0.217594 2 
0.0677903 0.275392 0.0550985 -0.485012 0.199711 -0.851398 2 
0.0674557 0.275355 0.0549695 -0.504463 0.164209 -0.847675 2 
0.067646 0.275721 0.0550671 -0.373112 0.46599 -0.802272 2 
0.0674609 0.2756 0.0549626 -0.435986 0.341549 -0.832623 2 
0.0674004 0.275522 0.0550642 -0.455235 0.29365 -0.840554 2 
0.0672438 0.275161 0.0551876 -0.554005 0.0606164 -0.830303 2 
0.0672192 0.275289 0.0553691 -0.49157 0.166809 -0.854712 2 
0.0672899 0.275856 0.0552538 -0.401605 0.53602 -0.74256 2 
0.0671443 0.275829 0.0556386 -0.383249 0.536549 -0.751821 2 
0.0669324 0.275636 0.0558567 -0.397601 0.531771 -0.747752 2 
0.0670166 0.275741 0.0552982 -0.463185 0.522951 -0.715529 2 
0.0668344 0.275664 0.0553279 -0.400103 0.554875 -0.729405 2 
0.0672255 0.27589 0.054946 -0.41057 0.545777 -0.730451 2 
0.0671263 0.275562 0.0548335 -0.458476 0.365823 -0.809922 2 
0.0669706 0.275046 0.0552321 -0.561919 0.105995 -0.820373 2 
0.0667271 0.275047 0.0550881 -0.555389 0.20349 -0.806309 2 
0.0667956 0.275414 0.0551138 -0.440706 0.421335 -0.792625 2 
0.0666135 0.275337 0.0551435 -0.439635 0.413869 -0.797141 2 
0.0663627 0.274893 0.0551475 -0.601926 0.215084 -0.769041 2 
0.06678 0.275675 0.0556979 -0.403563 0.514665 -0.756476 2 
0.0665612 0.275548 0.0553724 -0.420833 0.603804 -0.676993 2 
0.0664783 0.275799 0.0555146 -0.448915 0.528427 -0.720583 2 
0.0663781 0.275627 0.0551269 -0.34963 0.587052 -0.730157 2 
0.0680328 0.274222 0.0528734 -0.413791 -0.552271 0.723722 2 
0.0673952 0.273952 0.0529772 -0.991406 -0.0580502 0.117239 2 
0.067213 0.273875 0.0530069 -0.938582 -0.339042 -0.064143 2 
0.0603702 0.271319 0.0528909 -0.670261 0.701803 -0.241294 2 
0.0602782 0.271437 0.0526306 -0.572424 0.810811 0.122137 2 
0.0607156 0.271362 0.0517513 -0.501868 0.813373 0.294199 2 
0.0604884 0.271942 0.051862 -0.687685 -0.390843 0.611826 2 
0.0605791 0.271469 0.0525387 -0.555273 0.814099 0.170043 2 
0.0606236 0.271479 0.0514909 -0.647665 0.51645 0.560188 2 
0.0605684 0.271646 0.0515856 -0.755888 0.267809 0.597421 2 
0.0604415 0.271402 0.0515205 -0.439635 0.797141 0.413869 2 
0.0603771 0.271436 0.0512127 -0.518425 0.592727 0.616369 2 
0.060378 0.27128 0.051488 -0.409113 0.829283 0.38068 2 
0.0601346 0.271281 0.0513441 -0.472059 0.733763 0.488623 2 
0.0603159 0.271514 0.0510391 -0.579564 0.284225 0.763755 2 
0.0601971 0.271559 0.0511013 -0.552046 0.258038 0.792882 2 
0.0603748 0.272232 0.0519173 -0.747754 -0.415784 0.517676 2 
0.0602756 0.271904 0.0518049 -0.757629 -0.302731 0.578232 2 
0.0602113 0.271937 0.051497 -0.690445 -0.159333 0.705619 2 
0.0601232 0.271943 0.0516461 -0.674233 -0.424517 0.604313 2 
0.0601007 0.272272 0.0516865 -0.634284 -0.395807 0.664094 2 
0.0600312 0.27206 0.0513857 -0.598911 -0.212018 0.77224 2 
0.0598371 0.27313 0.0529724 -0.299717 -0.788144 0.537587 2 
0.0602919 0.272482 0.0520595 -0.779429 -0.380802 0.497474 2 
0.0599715 0.272823 0.052326 -0.459822 -0.446731 0.76746 2 
0.0598885 0.273074 0.0524682 -0.3815 -0.76787 0.514619 2 
0.0599625 0.27269 0.0519235 -0.608615 -0.520947 0.598499 2 
0.0595143 0.272942 0.0518497 0.41665 -0.692203 0.589286 2 
0.059462 0.273154 0.0520786 0.216835 -0.656746 0.722265 2 
0.0601871 0.271398 0.0526454 -0.536517 0.836036 0.114864 2 
0.0601327 0.27141 0.0530154 -0.651809 0.604892 -0.457439 2 
0.0599804 0.271449 0.0528566 -0.676202 0.54868 -0.491631 2 
0.0597071 0.271334 0.0529011 -0.337712 0.872551 0.352994 2 
0.0596989 0.271044 0.0527738 -0.289999 0.919052 0.266915 2 
0.0597244 0.27076 0.0528675 -0.223365 0.915078 0.335769 2 
0.0595423 0.270683 0.0528971 -0.134337 0.923739 0.358693 2 
0.0593601 0.270606 0.0529268 -0.148478 0.909249 0.38887 2 
0.0595168 0.270967 0.0528034 -0.184652 0.923262 0.336885 2 
0.0592772 0.270857 0.0530689 -0.0398682 0.859228 0.510038 2 
0.0591226 0.270697 0.0530512 -0.117172 0.890793 0.439044 2 
0.0589486 0.270909 0.0532082 0.108027 0.694034 0.711792 2 
0.0590337 0.270858 0.052925 0.10896 0.829547 0.547704 2 
0.0601773 0.27142 0.0519676 -0.41166 0.840538 0.352181 2 
0.0598146 0.270955 0.0525774 -0.292325 0.925457 0.24099 2 
0.0598129 0.271266 0.0520269 -0.305196 0.88552 0.350299 2 
0.0602139 0.27147 0.0523228 -0.458979 0.842235 0.282805 2 
0.0599437 0.271399 0.0525015 -0.375939 0.88518 0.274091 2 
0.0598793 0.271433 0.0521937 -0.366909 0.867378 0.336205 2 
0.0600771 0.271248 0.0515799 -0.40853 0.831256 0.376983 2 
0.0600158 0.271326 0.0514063 -0.420072 0.786622 0.45251 2 
0.0598337 0.271249 0.0514358 -0.42473 0.806186 0.411908 2 
0.0599851 0.271365 0.0513194 -0.45252 0.686295 0.569408 2 
0.059803 0.271288 0.0513491 -0.410716 0.800494 0.436487 2 
0.0599843 0.271521 0.0510442 -0.489492 0.247048 0.83628 2 
0.0598021 0.271444 0.0510738 -0.500851 0.359131 0.787511 2 
0.0597469 0.271611 0.0511686 -0.569104 0.495238 0.6564 2 
0.0596217 0.271055 0.051654 -0.311707 0.893362 0.323639 2 
0.0594961 0.271167 0.0511726 -0.469149 0.752285 0.462565 2 
0.0595208 0.271039 0.050991 -0.448242 0.698191 0.558219 2 
0.05962 0.271367 0.0511035 -0.471783 0.649751 0.596024 2 
0.059405 0.271128 0.0511874 -0.42568 0.814692 0.393794 2 
0.0594297 0.271 0.0510059 -0.417036 0.682876 0.599801 2 
0.0595647 0.271534 0.0511983 -0.548596 0.61274 0.568852 2 
0.0597938 0.272151 0.0515101 -0.41766 -0.463164 0.78169 2 
0.0598184 0.272022 0.0513285 -0.234367 -0.790019 0.566517 2 
0.059581 0.272113 0.0514529 -0.307068 -0.415082 0.856397 2 
0.0597109 0.272401 0.0516522 -0.533884 -0.46403 0.706855 2 
0.0594704 0.272447 0.0516424 0.0555115 -0.610626 0.789971 2 
0.0592166 0.271959 0.0515122 0.296397 -0.744998 0.597601 2 
0.0591061 0.272293 0.0517017 0.389624 -0.580326 0.715133 2 
0.0596325 0.270878 0.052607 -0.23314 0.936746 0.26106 2 
0.0592129 0.270891 0.0527612 0.11913 0.865484 0.486566 2 
0.0591239 0.271052 0.052635 0.108937 0.914244 0.390243 2 
0.0589469 0.27122 0.0526577 0.131487 0.900614 0.414254 2 
0.0588192 0.271132 0.0523174 0.0437013 0.96018 0.275943 2 
0.0593843 0.271145 0.0517785 -0.30445 0.904526 0.298567 2 
0.0589923 0.271075 0.0518851 -0.201292 0.946207 0.253326 2 
0.0592565 0.271057 0.0514381 -0.365096 0.872258 0.325378 2 
0.0591011 0.271052 0.0511452 -0.436417 0.855991 0.277163 2 
0.0589012 0.271036 0.0519 -0.133134 0.965543 0.223613 2 
0.058928 0.271109 0.0515773 -0.319061 0.904252 0.283774 2 
0.0587458 0.271032 0.051607 -0.253925 0.949165 0.186031 2 
0.0590987 0.271848 0.0518497 0.897704 -0.371717 0.236547 2 
0.0590345 0.271881 0.0515419 0.566513 -0.660652 0.492547 2 
0.0586701 0.271727 0.0516012 0.765275 -0.491147 0.416088 2 
0.0585442 0.271327 0.0518114 -0.392182 0.896624 0.205568 2 
0.058845 0.271359 0.0517195 -0.281303 0.910956 0.301709 2 
0.0596549 0.273053 0.053002 -0.272681 -0.818044 0.506408 2 
0.0596796 0.272925 0.0528205 -0.16556 -0.627307 0.76097 2 
0.0594503 0.273305 0.0530722 -0.116548 -0.861883 0.493532 2 
0.0594145 0.273099 0.0529923 -0.109788 -0.797791 0.592854 2 
0.0594867 0.273026 0.0518971 0.237731 -0.710044 0.662813 2 
0.0593321 0.272865 0.0518794 0.323064 -0.689961 0.647752 2 
0.0593502 0.273132 0.0526845 -0.0470571 -0.731524 0.680189 2 
0.0592798 0.273077 0.0521083 0.301568 -0.662804 0.685381 2 
0.0589859 0.272978 0.0527438 0.119607 -0.612799 0.781135 2 
0.0588948 0.27294 0.0527587 0.129183 -0.601368 0.78846 2 
0.0589582 0.273062 0.0527913 0.116574 -0.60648 0.786506 2 
0.0587505 0.273269 0.0527272 0.0949624 -0.62383 0.77577 2 
0.0589768 0.272845 0.0523413 0.130305 -0.687469 0.714428 2 
0.0583963 0.272096 0.0529008 0.895944 0.0670248 0.439081 2 
0.0587435 0.271827 0.0523116 0.967773 0.0976652 0.232113 2 
0.0585962 0.272112 0.0521459 0.936352 -0.111823 0.332776 2 
0.058332 0.27213 0.052593 0.950403 -0.0238542 0.310105 2 
0.0584929 0.272891 0.0521876 0.156379 -0.693838 0.702947 2 
0.0585377 0.273231 0.05267 0.149951 -0.541902 0.826957 2 
0.0585317 0.273142 0.0524017 0.16858 -0.630275 0.757849 2 
0.0583474 0.272864 0.0525724 0.348343 -0.472411 0.80962 2 
0.0582031 0.273193 0.0525409 0.317693 -0.491555 0.810829 2 
0.0587831 0.270597 0.0507071 -0.380243 0.855158 -0.352307 2 
0.0599825 0.271832 0.0504937 -0.391036 -0.215289 0.894842 2 
0.0600736 0.271871 0.0504789 -0.470042 -0.0449605 0.881498 2 
0.0599907 0.272122 0.050621 -0.417323 0.00390021 0.90875 2 
0.0598987 0.272239 0.0503606 -0.305745 -0.104562 0.946354 2 
0.0598996 0.272083 0.0506359 -0.421413 -0.0695537 0.904198 2 
0.0597523 0.272367 0.0504702 -0.315961 -0.431138 0.845156 2 
0.059746 0.271767 0.0508934 -0.441054 0.0335147 0.896855 2 
0.0595362 0.271773 0.0509705 -0.237462 -0.265564 0.934392 2 
0.0592854 0.271329 0.0509744 -0.342759 0.901764 -0.263321 2 
0.0593765 0.271368 0.0509596 -0.382097 0.341876 0.858558 2 
0.0594839 0.271985 0.0511994 -0.186616 -0.442294 0.87724 2 
0.0594532 0.272024 0.0511126 -0.177168 -0.440725 0.879985 2 
0.0595435 0.272218 0.0508225 -0.272213 -0.280854 0.920338 2 
0.0594821 0.272296 0.0506489 -0.152417 -0.319938 0.935098 2 
0.0593612 0.272141 0.0508522 -0.169493 -0.337586 0.925909 2 
0.0594187 0.272174 0.0506163 -0.157774 -0.276441 0.947991 2 
0.0593284 0.27198 0.0509064 -0.156689 -0.29839 0.941495 2 
0.0591799 0.271908 0.0511571 -0.0174466 -0.476427 0.879041 2 
0.0590633 0.272154 0.0510783 0.144515 -0.494856 0.856874 2 
0.0592383 0.271786 0.0511965 -0.118045 -0.45938 0.880361 2 
0.0591187 0.271987 0.0509835 -0.0537241 -0.352482 0.934275 2 
0.0590267 0.272104 0.0507231 0.187089 -0.398833 0.897736 2 
0.0589131 0.272394 0.0507784 0.300873 -0.496205 0.814406 2 
0.0591032 0.271252 0.0510041 -0.0925023 -0.290535 0.952383 2 
0.0588576 0.271053 0.0510012 -0.283467 0.838009 -0.466249 2 
0.0590807 0.271581 0.0510446 -0.527871 0.645925 0.551482 2 
0.0589897 0.271542 0.0510594 -0.0484325 -0.362589 0.93069 2 
0.058744 0.271343 0.0510565 -0.268498 0.640264 -0.719702 2 
0.0587903 0.271042 0.0505592 -0.337412 0.83333 -0.437851 2 
0.0587074 0.271293 0.0507013 -0.439966 0.844175 -0.306266 2 
0.0588218 0.270847 0.0509212 -0.40969 0.885937 -0.217417 2 
0.0587912 0.270886 0.0508345 -0.412587 0.866281 -0.281655 2 
0.05883 0.271137 0.0510486 -0.391182 0.872168 -0.293767 2 
0.0586559 0.271349 0.0512055 -0.577415 0.814592 0.0550591 2 
0.0585567 0.271021 0.0510931 -0.210839 0.795649 -0.567881 2 
0.0586081 0.270965 0.0505888 -0.30368 0.868312 -0.39219 2 
0.0586335 0.271677 0.051246 0.603964 -0.650808 0.460083 2 
0.0587624 0.272122 0.0511701 0.516538 -0.506508 0.690389 2 
0.0586795 0.272373 0.0513123 0.541128 -0.487518 0.685206 2 
0.0584185 0.271439 0.05133 -0.609675 0.791877 0.0350388 2 
0.0593538 0.272692 0.0515636 0.561614 -0.541375 0.625702 2 
0.0592432 0.273027 0.0517531 0.579522 -0.620071 0.528835 2 
0.0591716 0.272615 0.0515933 0.424713 -0.55031 0.718873 2 
0.0586787 0.272528 0.051037 0.55543 -0.535172 0.636466 2 
0.0592536 0.269833 0.0529622 0.262386 0.501483 0.82442 2 
0.0591184 0.270296 0.0533333 0.148038 0.382079 0.912195 2 
0.0589363 0.270219 0.053363 0.301271 0.50948 0.806019 2 
0.0590878 0.270335 0.0532465 0.0982372 0.637809 0.763904 2 
0.0587613 0.270587 0.0532447 0.244407 0.641765 0.726913 2 
0.0586477 0.270877 0.0533001 0.357937 0.612906 0.704434 2 
0.0586477 0.270877 0.0533001 0.357937 0.612906 0.704434 2 
0.0585558 0.270994 0.0530397 0.458206 0.72949 0.507831 2 
0.058646 0.271188 0.0527496 0.443099 0.807816 0.388711 2 
0.058646 0.271188 0.0527496 0.443099 0.807816 0.388711 2 
0.0584115 0.271323 0.0530082 0.649273 0.685073 0.330332 2 
0.0581383 0.271207 0.0530527 0.817585 0.536397 0.209363 2 
0.058563 0.271439 0.0528917 0.70066 0.560861 0.441033 2 
0.0581394 0.27256 0.0531999 0.24727 -0.0874956 0.964988 2 
0.0590932 0.273596 0.0529836 -0.0548648 -0.825786 0.561309 2 
0.0590103 0.273846 0.0531258 -0.0704696 -0.772289 0.63135 2 
0.058728 0.273597 0.0527677 0.115754 -0.478734 0.870296 2 
0.0586758 0.273809 0.0529967 -0.0323521 -0.651261 0.758164 2 
0.0587996 0.274009 0.0529276 -0.0266647 -0.669424 0.742402 2 
0.0586174 0.273932 0.0529573 0.00933733 -0.481539 0.876375 2 
0.0585459 0.27352 0.0527973 0.137047 -0.463075 0.875659 2 
0.0584629 0.273771 0.0529395 0.059272 -0.359583 0.931229 2 
0.0583637 0.273443 0.052827 0.166004 -0.417176 0.893536 2 
0.0582276 0.274061 0.0529229 0.0749427 -0.332641 0.940071 2 
0.0582195 0.273772 0.0527956 0.17378 -0.392082 0.903367 2 
0.0579543 0.273946 0.0529674 0.246307 -0.283324 0.926855 2 
0.0580913 0.273172 0.0531468 0.104562 -0.305745 0.946354 2 
0.0579462 0.273656 0.0528401 0.0561642 -0.346128 0.936505 2 
0.0579327 0.274118 0.0532831 0.276682 -0.226121 0.933979 2 
0.0583523 0.274105 0.053129 0.0679454 -0.288448 0.955082 2 
0.0578569 0.273307 0.0534054 0.291412 -0.199387 0.935587 2 
0.0757686 0.266879 0.050294 -0.702401 -0.631026 0.329301 1 
0.0755864 0.266802 0.0503236 -0.691391 -0.642587 0.330241 1 
0.0754391 0.267087 0.0501579 -0.697149 -0.645389 0.31218 1 
0.0754914 0.266875 0.049929 -0.702588 -0.647924 0.294219 1 
0.0753132 0.266687 0.0503681 -0.660827 -0.660827 0.35583 1 
0.0754033 0.266881 0.050078 -0.697149 -0.645389 0.31218 1 
0.0757034 0.267068 0.0497109 -0.731869 -0.620255 0.282224 1 
0.0750282 0.266904 0.0491843 -0.707188 -0.704308 0.061933 1 
0.0749513 0.267244 0.0495948 -0.688472 -0.636142 0.348324 1 
0.0748542 0.267117 0.0493413 -0.685137 -0.697566 0.209736 1 
0.0753345 0.26751 0.0506158 -0.677187 -0.680389 0.28016 1 
0.0753481 0.267048 0.0501728 -0.686267 -0.657202 0.311646 1 
0.0752651 0.267299 0.0503149 -0.691833 -0.616241 0.376318 1 
0.075083 0.267222 0.0503446 -0.647773 -0.708552 0.279902 1 
0.075 0.267473 0.0504867 -0.64688 -0.710769 0.276322 1 
0.0754338 0.267838 0.0507283 -0.707044 -0.591676 0.387309 1 
0.0751904 0.267839 0.0505844 -0.682199 -0.666071 0.301587 1 
0.0748864 0.267763 0.0505421 -0.648872 -0.752337 0.113811 1 
0.074991 0.267339 0.0500842 -0.647773 -0.708552 0.279902 1 
0.0751425 0.267455 0.0499677 -0.666698 -0.65687 0.352187 1 
0.0751455 0.2675 0.0501019 -0.667015 -0.676706 0.311705 1 
0.0748497 0.267712 0.0501869 -0.651139 -0.708452 0.272237 1 
0.0748071 0.267573 0.0495633 -0.680349 -0.62434 0.383829 1 
0.074899 0.267456 0.0498238 -0.675923 -0.669471 0.308118 1 
0.0749063 0.267901 0.0496759 -0.699671 -0.62791 0.340865 1 
0.0746054 0.267869 0.0497678 -0.721254 -0.655544 0.22373 1 
0.0747145 0.268175 0.050558 -0.153566 -0.484099 0.861432 1 
0.0744762 0.268421 0.0504072 -0.333751 -0.437167 0.835162 1 
0.0747268 0.267357 0.0505313 -0.640981 -0.763073 -0.0828479 1 
0.0745338 0.267458 0.0496079 -0.666618 -0.692196 0.276559 1 
0.0742411 0.267715 0.049827 -0.697359 -0.714543 -0.055846 1 
0.0745242 0.267809 0.0504604 -0.0692759 -0.41158 0.908737 1 
0.0744599 0.267842 0.0501526 -0.668692 -0.731522 -0.13314 1 
0.0743679 0.267959 0.0498922 -0.697293 -0.700318 -0.152769 1 
0.0738395 0.267996 0.0507863 -0.58616 -0.555754 -0.589538 1 
0.0738028 0.267946 0.0504311 -0.61665 -0.52542 -0.58624 1 
0.0740671 0.267927 0.049984 -0.634589 -0.641251 -0.431387 1 
0.0746322 0.267941 0.0494451 -0.700043 -0.668438 0.251257 1 
0.0745411 0.267903 0.0494599 -0.700043 -0.668438 0.251257 1 
0.0743373 0.267998 0.0498054 -0.690776 -0.705958 -0.156373 1 
0.074276 0.268077 0.0496318 -0.771563 -0.627538 0.104345 1 
0.0740662 0.268083 0.0497088 -0.737203 -0.662436 -0.133085 1 
0.0742543 0.268249 0.0499475 -0.246662 -0.342992 0.906374 1 
0.0745396 0.268543 0.0504398 -0.347514 -0.397382 0.849306 1 
0.0743013 0.268789 0.0502889 -0.418204 -0.503485 0.756048 1 
0.0735726 0.268481 0.0504076 -0.661332 -0.365948 -0.654768 1 
0.0734068 0.268982 0.0506919 -0.752766 -0.292476 -0.589747 1 
0.0732589 0.269751 0.0517813 -0.744729 0.00414506 -0.667354 1 
0.0733759 0.270018 0.0511686 -0.559474 0.414242 -0.717909 1 
0.0731946 0.269785 0.0514735 -0.800879 -0.237011 -0.549926 1 
0.0742175 0.269195 0.0501558 -0.761929 -0.344567 -0.548395 1 
0.0743167 0.269523 0.0502683 -0.70874 -0.294103 -0.641241 1 
0.0740516 0.269697 0.0504401 -0.760449 -0.639367 -0.113698 1 
0.0739974 0.268712 0.0502466 -0.659294 -0.373216 -0.652718 1 
0.0739914 0.268623 0.0499783 -0.735959 -0.528508 -0.423135 1 
0.0739442 0.26908 0.0502003 -0.704983 -0.311354 -0.637227 1 
0.0735863 0.269527 0.0498365 -0.699525 -0.687171 0.196114 1 
0.0735565 0.26941 0.0500249 -0.755638 -0.654323 -0.0295501 1 
0.0734871 0.269199 0.049724 -0.760449 -0.639367 0.113698 1 
0.0737201 0.269704 0.0504452 -0.743513 -0.592563 -0.309931 1 
0.0737417 0.269532 0.0501295 -0.715327 -0.691825 -0.0984125 1 
0.0734123 0.269739 0.0499935 -0.510112 -0.860057 0.00942159 1 
0.0733293 0.26999 0.0501356 -0.501755 -0.86313 0.0569861 1 
0.0734775 0.26955 0.0505765 -0.749115 -0.495568 -0.43959 1 
0.0733302 0.269834 0.0504109 -0.561683 -0.826496 0.0376314 1 
0.0730293 0.269802 0.0505028 -0.567506 -0.823359 0.00408277 1 
0.0736692 0.269276 0.0496943 -0.762033 -0.625141 0.168834 1 
0.0731471 0.269913 0.0501653 -0.520615 -0.84654 0.111045 1 
0.0734303 0.270006 0.0507986 -0.65201 -0.726703 -0.216299 1 
0.0735205 0.2702 0.0505085 -0.339864 -0.932237 0.124207 1 
0.073066 0.269852 0.0508579 -0.67219 -0.697496 -0.248315 1 
0.073293 0.267764 0.0508753 0.00385931 -0.919802 0.392363 1 
0.0734186 0.267653 0.0513566 -0.597058 -0.459918 -0.657265 1 
0.0734557 0.268214 0.0510203 -0.585499 -0.378852 -0.716703 1 
0.0732786 0.268382 0.0510431 -0.670316 -0.258301 -0.69567 1 
0.0736288 0.268158 0.050588 -0.631135 -0.383954 -0.673979 1 
0.0733986 0.268693 0.0505646 -0.708843 -0.300575 -0.638119 1 
0.0733084 0.268499 0.0508546 -0.699499 -0.286523 -0.65468 1 
0.0732165 0.268616 0.0505943 -0.706912 -0.329892 -0.625657 1 
0.0731271 0.268266 0.0511595 -0.672501 -0.209671 -0.709775 1 
0.0730054 0.268267 0.0510876 -0.73836 -0.254552 -0.624523 1 
0.0729164 0.268428 0.0509613 -0.750608 -0.351797 -0.559309 1 
0.0731059 0.268951 0.0507838 -0.730414 -0.317642 -0.604648 1 
0.0730148 0.268912 0.0507986 -0.752766 -0.292476 -0.589747 1 
0.072728 0.269258 0.0512862 -0.789737 -0.31749 -0.524896 1 
0.0728241 0.268034 0.0513925 -0.729809 -0.339711 -0.593275 1 
0.0727126 0.268524 0.0513068 -0.891307 -0.316077 -0.325065 1 
0.0728937 0.269753 0.0515655 -0.825323 -0.391276 -0.407117 1 
0.0728017 0.26987 0.051305 -0.71531 -0.652148 -0.251069 1 
0.0728108 0.270004 0.0517075 -0.593042 -0.798044 -0.106894 1 
0.0727465 0.270037 0.0513997 -0.517255 -0.855822 -0.00403056 1 
0.0727166 0.269921 0.0515882 -0.581303 -0.801336 -0.141237 1 
0.0723748 0.269438 0.051607 -0.805635 -0.501741 -0.314973 1 
0.0725988 0.26981 0.0519256 -0.546272 -0.833029 0.0874609 1 
0.0724464 0.26985 0.0517669 -0.521909 -0.847923 0.0929426 1 
0.0722643 0.269773 0.0517965 -0.484851 -0.868751 0.100951 1 
0.0726635 0.270288 0.0515418 -0.391679 -0.919193 0.0408823 1 
0.0726368 0.270216 0.0518645 -0.450453 -0.891379 0.0503527 1 
0.0724636 0.270273 0.0522968 -0.482732 -0.870617 -0.0948477 1 
0.0722163 0.270385 0.0517433 -0.425401 -0.903471 0.0526687 1 
0.0721057 0.270719 0.0519329 -0.437964 -0.898558 0.0279551 1 
0.0721946 0.270558 0.0520591 -0.44144 -0.895181 -0.061501 1 
0.0719456 0.269802 0.0526136 0.58823 -0.332196 0.737313 1 
0.072083 0.26954 0.0521014 -0.459239 -0.88732 0.0419953 1 
0.0719171 0.270042 0.0523857 -0.449306 -0.873569 -0.187088 1 
0.0718221 0.270114 0.0519911 -0.409578 -0.911212 -0.0440263 1 
0.0718438 0.269942 0.0516754 -0.430295 -0.900203 0.0669347 1 
0.0718601 0.27052 0.05193 -0.420452 -0.907291 -0.00650855 1 
0.0714966 0.27021 0.0522646 -0.120089 -0.99266 0.0143225 1 
0.0713771 0.270411 0.0520515 -0.17196 -0.985072 -0.00797168 1 
0.072928 0.269274 0.0505313 -0.729614 -0.645247 -0.22654 1 
0.0728913 0.269224 0.0501762 -0.596989 -0.782314 -0.17773 1 
0.0727561 0.269686 0.0505472 -0.586918 -0.809589 -0.00962161 1 
0.0728433 0.269836 0.050123 -0.400348 -0.910134 0.106667 1 
0.0726007 0.269682 0.0502543 -0.481944 -0.875645 0.0312246 1 
0.0729749 0.269814 0.0508728 -0.724526 -0.59753 -0.343539 1 
0.0726097 0.269815 0.0506568 -0.500602 -0.865652 0.00671048 1 
0.0724284 0.269582 0.0509618 -0.632147 -0.774485 0.023723 1 
0.0724284 0.269582 0.0509618 -0.632147 -0.774485 0.023723 1 
0.0724059 0.269911 0.0510022 -0.493971 -0.865505 0.0830322 1 
0.0722811 0.269867 0.0507961 -0.50158 -0.858004 0.110664 1 
0.0724528 0.270451 0.0513437 -0.402635 -0.915316 0.00906253 1 
0.072057 0.270491 0.051041 -0.429931 -0.899696 0.075547 1 
0.0719794 0.269991 0.0506128 -0.359772 -0.926106 0.11354 1 
0.0717582 0.270659 0.0509918 -0.557665 -0.821128 0.121486 1 
0.0719893 0.269969 0.0512905 -0.433755 -0.894181 0.110895 1 
0.0719794 0.269991 0.0506128 -0.359772 -0.926106 0.11354 1 
0.0716936 0.270181 0.0513756 -0.444357 -0.887295 0.123511 1 
0.0719145 0.270509 0.05156 -0.434798 -0.89599 0.0902935 1 
0.0716016 0.270299 0.0511151 -0.482854 -0.866254 0.128281 1 
0.0714663 0.270761 0.0514862 -0.583998 -0.810874 -0.0378128 1 
0.0716024 0.270143 0.0513904 -0.483977 -0.871158 0.082767 1 
0.0712851 0.270528 0.0517911 -0.494277 -0.849679 -0.183674 1 
0.0714582 0.270472 0.0513589 -0.568709 -0.819568 0.0698415 1 
0.071276 0.270395 0.0513886 -0.563777 -0.825872 0.00955554 1 
0.0710395 0.270329 0.0517882 -0.392701 -0.901917 -0.179808 1 
0.0719602 0.270692 0.0523178 -0.397797 -0.896137 -0.196713 1 
0.0719848 0.270564 0.0521362 -0.439466 -0.888887 -0.129422 1 
0.0715609 0.270177 0.0525724 0.63271 -0.416825 0.652638 1 
0.0715932 0.271005 0.0515514 -0.607678 -0.785102 -0.119761 1 
0.0712914 0.271129 0.051368 -0.713976 -0.700058 -0.0125259 1 
0.0713281 0.271179 0.0517231 -0.566345 -0.787891 -0.241828 1 
0.0710118 0.270413 0.0518356 -0.389504 -0.884965 -0.255192 1 
0.0737431 0.268891 0.0491496 -0.77154 -0.579049 0.263491 1 
0.072821 0.269168 0.0496 -0.553217 -0.831916 0.0431983 1 
0.0726124 0.269531 0.0492608 -0.472104 -0.879138 0.0650701 1 
0.0717933 0.270025 0.050233 -0.335493 -0.936976 0.0975738 1 
0.0714401 0.270204 0.0505538 -0.468186 -0.874806 0.124563 1 
0.0714311 0.270071 0.0501512 -0.349269 -0.932723 0.0896592 1 
0.071249 0.269994 0.0501809 -0.395264 -0.915987 0.0688002 1 
0.0709475 0.270446 0.0515278 -0.603622 -0.78336 -0.148284 1 
0.0709108 0.270396 0.0511727 -0.624185 -0.781265 -0.00413368 1 
0.0708197 0.270358 0.0511875 -0.669963 -0.741084 -0.0440952 1 
0.0707278 0.270475 0.0509271 -0.79343 -0.60126 0.0946293 1 
0.0708782 0.271743 0.0510989 -0.870651 -0.469483 -0.146804 1 
0.0708722 0.271654 0.0508305 -0.867825 -0.492925 0.0624834 1 
0.0707953 0.271994 0.051241 -0.859777 -0.499271 0.107293 1 
0.0704286 0.272636 0.0520049 -0.89053 -0.42578 -0.160209 1 
0.0703859 0.272497 0.0513814 -0.883903 -0.436871 -0.166911 1 
0.0705904 0.270737 0.0514392 -0.715557 -0.648919 -0.258616 1 
0.0705394 0.271305 0.0512519 -0.824922 -0.472955 -0.309542 1 
0.0703951 0.271634 0.0512204 -0.856795 -0.430697 -0.283555 1 
0.0703041 0.271595 0.0512353 -0.845095 -0.410832 -0.342099 1 
0.0701995 0.272019 0.0516932 -0.855252 -0.397468 -0.332512 1 
0.070174 0.272303 0.0515995 -0.883903 -0.436871 -0.166911 1 
0.07 0.272515 0.0517565 -0.883903 -0.436871 -0.166911 1 
0.0697901 0.272522 0.0518335 -0.89053 -0.42578 -0.160209 1 
0.0698984 0.272983 0.0523486 0.274394 -0.835585 -0.475927 1 
0.0736145 0.268958 0.0485341 -0.760924 -0.647141 0.0469355 1 
0.07346 0.268798 0.0485163 -0.727629 -0.685731 0.0181558 1 
0.0731868 0.268682 0.0485608 -0.677244 -0.735652 0.0125158 1 
0.073371 0.268959 0.0483901 -0.697841 -0.714896 -0.0440592 1 
0.0733076 0.268837 0.0483575 -0.71318 -0.695679 -0.0860483 1 
0.0731012 0.2694 0.0478773 -0.704363 -0.685948 -0.182613 1 
0.0729479 0.269595 0.0474432 -0.724674 -0.649546 -0.23008 1 
0.072947 0.269751 0.047168 -0.6984 -0.676427 -0.233846 1 
0.0733239 0.269416 0.0486121 -0.624305 -0.78073 0.0265364 1 
0.0730149 0.269095 0.0485767 -0.629082 -0.776103 -0.0438237 1 
0.0731655 0.269367 0.0481851 -0.700163 -0.703149 -0.123909 1 
0.0727847 0.26963 0.0485533 -0.573183 -0.816178 -0.0728986 1 
0.0726891 0.270187 0.0494138 -0.322186 -0.946656 0.00621981 1 
0.0725605 0.270254 0.0487981 -0.422597 -0.906309 0.0039009 1 
0.0730195 0.270007 0.047603 -0.706205 -0.675026 -0.213576 1 
0.0730889 0.270218 0.047904 -0.732475 -0.670073 -0.120346 1 
0.0729212 0.269523 0.0477658 -0.72523 -0.653486 -0.216789 1 
0.0728309 0.269329 0.0480559 -0.689291 -0.695487 -0.202915 1 
0.0726837 0.269613 0.0478902 -0.71776 -0.658337 -0.226743 1 
0.0727985 0.269679 0.0474186 -0.724674 -0.649546 -0.23008 1 
0.0726164 0.269602 0.0474483 -0.739701 -0.629766 -0.237144 1 
0.0728434 0.270019 0.0479011 -0.739031 -0.650286 -0.17596 1 
0.0728157 0.270103 0.0479485 -0.723417 -0.67867 -0.126785 1 
0.0725791 0.270037 0.0483482 -0.671715 -0.706162 -0.223905 1 
0.072682 0.269925 0.0473398 -0.693095 -0.705175 -0.149491 1 
0.0726034 0.269397 0.0488582 -0.552321 -0.833302 -0.0234151 1 
0.0724808 0.269553 0.0485109 -0.651398 -0.729131 -0.209878 1 
0.0724077 0.269782 0.0493309 -0.425397 -0.904791 0.0197553 1 
0.0723464 0.26986 0.0491572 -0.437266 -0.899331 0.00130527 1 
0.0724159 0.270072 0.0494582 -0.330497 -0.943739 -0.0113098 1 
0.0723068 0.269766 0.0486679 -0.658966 -0.729624 -0.18279 1 
0.0720425 0.269784 0.049115 -0.393482 -0.918997 -0.0248377 1 
0.0721068 0.26975 0.0494228 -0.380381 -0.924156 -0.0352931 1 
0.0720515 0.269917 0.0495175 -0.369242 -0.928935 -0.0272073 1 
0.0725097 0.269826 0.0480472 -0.70258 -0.68405 -0.196105 1 
0.0721535 0.269961 0.0482339 0.694827 -0.55153 0.461552 1 
0.0724604 0.270082 0.0484104 -0.637189 -0.742612 -0.206195 1 
0.0721871 0.269967 0.0484549 0.691103 -0.56454 0.451299 1 
0.0722139 0.270039 0.0481323 0.691103 -0.56454 0.451299 1 
0.072039 0.270407 0.0480141 0.707129 -0.547401 0.447571 1 
0.0715348 0.269803 0.049418 -0.36838 -0.929351 -0.0245586 1 
0.0716025 0.270326 0.0491685 -0.206029 -0.978341 0.0200142 1 
0.0715412 0.270404 0.0489949 0.730458 -0.452188 0.511817 1 
0.0716954 0.270053 0.0497041 -0.442221 -0.896467 0.0280563 1 
0.0716034 0.27017 0.0494438 -0.328955 -0.943004 -0.0503108 1 
0.0712553 0.270595 0.0497577 -0.580815 -0.813695 0.0235653 1 
0.071074 0.270362 0.0500626 -0.64352 -0.76462 0.0352035 1 
0.0705683 0.271577 0.0507882 -0.874385 -0.480842 0.0651285 1 
0.0705765 0.271867 0.0509155 -0.834631 -0.457097 0.307332 1 
0.0704322 0.272196 0.050884 -0.862302 -0.408943 -0.298666 1 
0.0702267 0.272603 0.050679 -0.874643 -0.418568 -0.24454 1 
0.0699101 0.272833 0.051355 -0.869374 -0.486117 -0.0887691 1 
0.0695621 0.273257 0.0516689 0.274394 -0.835585 -0.475927 1 
0.0602694 0.27664 0.0546293 -0.570633 -0.0697282 -0.818239 1 
0.0601856 0.277046 0.0544962 -0.609742 -0.0916796 -0.78728 1 
0.0599218 0.277576 0.0542518 -0.620291 -0.037977 -0.783452 1 
0.0598307 0.277538 0.0542666 -0.620291 -0.037977 -0.783452 1 
0.0598358 0.277782 0.0542597 -0.615432 -0.0979429 -0.782081 1 
0.0607762 0.275451 0.0519571 -0.82746 -0.0347672 -0.560448 1 
0.0607567 0.275824 0.0521318 -0.82746 -0.0347672 -0.560448 1 
0.0607618 0.276069 0.052125 -0.82746 -0.0347672 -0.560448 1 
0.0607639 0.276269 0.0519839 -0.82746 -0.0347672 -0.560448 1 
0.0605796 0.275992 0.0521547 -0.82746 -0.0347672 -0.560448 1 
0.0605817 0.276192 0.0520136 -0.82746 -0.0347672 -0.560448 1 
0.0604813 0.275508 0.0523174 -0.748935 -0.0153413 -0.662466 1 
0.0605715 0.275703 0.0520273 -0.82746 -0.0347672 -0.560448 1 
0.0603893 0.275626 0.0520569 -0.82746 -0.0347672 -0.560448 1 
0.0603893 0.275626 0.0520569 -0.82746 -0.0347672 -0.560448 1 
0.0603966 0.276071 0.051909 -0.82746 -0.0347672 -0.560448 1 
0.0602451 0.275955 0.0520255 -0.82746 -0.0347672 -0.560448 1 
0.0603721 0.275203 0.0515271 -0.943261 0.153365 0.294514 1 
0.0602695 0.276823 0.0524074 -0.626968 -0.0825339 -0.774661 1 
0.060286 0.276405 0.0520986 -0.82746 -0.0347672 -0.560448 1 
0.0601478 0.276823 0.0523355 -0.626968 -0.0825339 -0.774661 1 
0.0603944 0.273184 0.0538364 -0.520711 -0.62519 0.581376 1 
0.0601495 0.274008 0.0524505 0.972213 -0.233853 -0.0106837 1 
0.0606751 0.272748 0.0530805 -0.587623 -0.510171 0.628032 1 
0.0601843 0.272861 0.0523832 -0.768801 -0.458669 0.445611 1 
0.0602351 0.27329 0.0531341 -0.424713 -0.718873 0.55031 1 
0.0603837 0.273361 0.0528834 -0.598411 -0.66842 0.441724 1 
0.0602261 0.273156 0.0527315 -0.6135 -0.711139 0.343365 1 
0.0601657 0.273079 0.0528332 -0.514256 -0.729219 0.451421 1 
0.0599968 0.273536 0.0529832 -0.208444 -0.776646 0.594451 1 
0.0600266 0.273652 0.0527948 -0.149056 -0.836779 0.526861 1 
0.0599985 0.273224 0.0535337 -0.279953 -0.705483 0.651092 1 
0.0599835 0.273002 0.0528628 -0.454172 -0.741539 0.493809 1 
0.0598976 0.273208 0.0528708 -0.368679 -0.787266 0.494255 1 
0.0599346 0.273769 0.0525344 0.567755 -0.807441 0.16029 1 
0.0601691 0.273635 0.0522758 0.963591 0.217753 0.155165 1 
0.0599502 0.273508 0.0519502 0.939715 0.305031 0.154567 1 
0.0597227 0.273576 0.0527525 -0.194226 -0.932005 0.306011 1 
0.0603137 0.273818 0.0516157 0.925895 -0.178435 -0.332985 1 
0.0601621 0.273701 0.0517321 0.959799 -0.170308 -0.223117 1 
0.0601592 0.273657 0.051598 0.950321 -0.154578 -0.270176 1 
0.0601051 0.27418 0.0512765 0.894238 -0.314999 -0.317984 1 
0.0600395 0.273858 0.051385 0.823638 -0.352536 -0.444227 1 
0.0598923 0.274142 0.0512193 0.825992 -0.457835 -0.328823 1 
0.0599761 0.273736 0.0513524 0.809821 -0.280383 -0.51534 1 
0.0595271 0.274144 0.0510034 0.631715 -0.520533 -0.57444 1 
0.0595824 0.273976 0.0509086 0.532433 -0.583141 -0.613565 1 
0.0595301 0.274188 0.0511376 0.730137 -0.518215 -0.445367 1 
0.0607823 0.274361 0.0538839 -0.971846 -0.212473 0.101836 1 
0.0600781 0.274921 0.0543844 -0.980839 -0.128896 -0.146082 1 
0.0603242 0.274453 0.0553541 -0.933047 -0.353367 -0.067497 1 
0.060225 0.274125 0.0552417 -0.949651 -0.313249 0.00619068 1 
0.0597768 0.274378 0.0551679 -0.978585 -0.205093 0.0175794 1 
0.0602808 0.273474 0.0538918 -0.630115 -0.555785 0.542271 1 
0.0602808 0.273474 0.0538918 -0.630115 -0.555785 0.542271 1 
0.0599626 0.274015 0.0540173 -0.872258 -0.365096 0.325378 1 
0.0598886 0.274399 0.054562 -0.971653 -0.234786 -0.0276927 1 
0.0598213 0.274388 0.0541201 -0.938522 -0.249622 0.238465 1 
0.0598571 0.274594 0.0542 -0.98229 -0.161091 0.0956855 1 
0.059987 0.274883 0.0543993 -0.980839 -0.128896 -0.146082 1 
0.059775 0.274689 0.0546174 -0.981649 -0.166237 -0.0934326 1 
0.0599645 0.275211 0.0544398 -0.981648 -0.100963 -0.161783 1 
0.060059 0.274627 0.0555259 -0.967781 -0.25179 0.00119332 1 
0.059968 0.274588 0.0555408 -0.954534 -0.295541 0.0389862 1 
0.0596969 0.274673 0.0554442 -0.973842 -0.225836 -0.0250929 1 
0.0601126 0.274771 0.0548807 -0.983952 -0.152579 -0.0925083 1 
0.0600573 0.274938 0.0549755 -0.978125 -0.185316 -0.0944989 1 
0.0598139 0.27494 0.0548314 -0.981413 -0.154832 -0.113381 1 
0.0598147 0.274784 0.0551067 -0.995021 -0.0996093 0.0032132 1 
0.0594731 0.275809 0.0549975 -0.921196 -0.0966099 -0.376915 1 
0.0592828 0.275443 0.0548999 -0.985808 -0.0939431 -0.139131 1 
0.0600691 0.274788 0.0539819 -0.977486 -0.130746 -0.165612 1 
0.0602918 0.274986 0.052495 -0.963679 0.192736 -0.184869 1 
0.0603553 0.275109 0.0525276 -0.963061 0.150274 -0.223451 1 
0.0603 0.275276 0.0526222 -0.962429 0.0720873 -0.261791 1 
0.060023 0.274092 0.0539157 -0.738446 -0.507165 0.444389 1 
0.0598481 0.27446 0.0537974 -0.996038 -0.0182661 0.0870324 1 
0.0599473 0.274788 0.0539099 -0.992858 -0.0483498 -0.109068 1 
0.0600935 0.275656 0.0543638 -0.930911 -0.0926881 -0.353289 1 
0.0599717 0.275656 0.0542918 -0.837097 -0.0402584 -0.545571 1 
0.0603451 0.275944 0.0546351 -0.75164 -0.0295036 -0.658914 1 
0.0599186 0.276024 0.0542455 -0.745145 -0.0353484 -0.665965 1 
0.0600782 0.276429 0.0542565 -0.588962 -0.0522581 -0.806469 1 
0.0599953 0.27668 0.0543986 -0.570633 -0.0697282 -0.818239 1 
0.0599872 0.276391 0.0542713 -0.585689 -0.0641266 -0.807995 1 
0.0597373 0.275791 0.0545505 -0.963329 -0.0772182 -0.256972 1 
0.0597157 0.275964 0.0548663 -0.92587 -0.0989582 -0.364654 1 
0.059631 0.276526 0.0544579 -0.570633 -0.0697282 -0.818239 1 
0.0597904 0.275424 0.0545969 -0.995179 -0.0785959 -0.0586702 1 
0.0594119 0.274891 0.0542604 -0.978125 -0.185316 -0.0944989 1 
0.0594496 0.276293 0.0547628 -0.557722 -0.0433318 -0.828896 1 
0.0598511 0.277009 0.0543671 -0.609742 -0.0916796 -0.78728 1 
0.0596391 0.276815 0.0545852 -0.556845 -0.072632 -0.827435 1 
0.0594741 0.277161 0.0551447 -0.556783 -0.124872 -0.821218 1 
0.0593965 0.276661 0.0547165 -0.570633 -0.0697282 -0.818239 1 
0.0593136 0.276912 0.0548587 -0.565801 -0.0787824 -0.820769 1 
0.0596852 0.277511 0.0546514 -0.627741 -0.0735972 -0.774935 1 
0.0594643 0.277183 0.054467 -0.556783 -0.124872 -0.821218 1 
0.0601804 0.275477 0.0524092 -0.748935 -0.0153413 -0.662466 1 
0.0679742 0.271292 0.059064 -0.948663 -0.280439 0.146258 1 
0.0677944 0.272923 0.0588246 -0.792488 -0.54768 0.268347 1 
0.0677301 0.272957 0.0585169 -0.788268 -0.567491 0.23788 1 
0.0676688 0.273035 0.0583432 -0.853526 -0.477192 0.209242 1 
0.0675768 0.273152 0.0580829 -0.756665 -0.319695 0.57031 1 
0.0680675 0.271531 0.0589082 -0.978343 -0.142597 0.150037 1 
0.0676245 0.272028 0.0588275 -0.908922 -0.334098 0.249479 1 
0.0678709 0.272072 0.0591057 -0.968336 -0.213622 0.129197 1 
0.0676705 0.272723 0.0588937 -0.807967 -0.523538 0.270364 1 
0.0677267 0.272401 0.0590742 -0.889409 -0.366227 0.273549 1 
0.0672683 0.272163 0.0590142 -0.843579 -0.471728 0.256608 1 
0.0675632 0.272106 0.0586539 -0.88114 -0.349131 0.318903 1 
0.0678364 0.272222 0.0586094 -0.88114 -0.349131 0.318903 1 
0.0677535 0.272473 0.0587516 -0.875995 -0.365883 0.314265 1 
0.0675398 0.27259 0.0584192 -0.805892 -0.54702 0.226513 1 
0.0675786 0.272841 0.0586333 -0.788268 -0.567491 0.23788 1 
0.0675479 0.27288 0.0585465 -0.757017 -0.606554 0.242935 1 
0.0675113 0.27283 0.0581913 -0.71637 -0.673418 0.182544 1 
0.0670295 0.273077 0.0578966 -0.592984 -0.562575 -0.57609 1 
0.0668464 0.273155 0.057651 -0.60842 -0.257591 0.750648 1 
0.0682255 0.273573 0.0604624 -0.544903 -0.720464 0.428966 1 
0.0677229 0.273837 0.0607586 -0.80569 -0.392433 0.44369 1 
0.0682712 0.273757 0.0612201 -0.553636 -0.470005 0.687446 1 
0.0679132 0.274203 0.0608563 -0.833085 -0.429929 0.348038 1 
0.0678149 0.27372 0.061019 -0.718715 -0.473057 0.509574 1 
0.0672992 0.274957 0.0610668 -0.843361 -0.479078 0.243365 1 
0.0673635 0.274924 0.0613746 -0.843361 -0.479078 0.243365 1 
0.0677417 0.272623 0.0597452 -0.93325 -0.279273 0.225945 1 
0.0676985 0.272969 0.0603767 -0.177979 -0.836052 0.51898 1 
0.0677403 0.273264 0.0607249 -0.544903 -0.720464 0.428966 1 
0.0676327 0.273643 0.0610487 -0.630144 -0.549053 0.549053 1 
0.0675849 0.273259 0.060432 -0.544903 -0.720464 0.428966 1 
0.0675961 0.273593 0.0606935 -0.839054 -0.40306 0.36542 1 
0.0674578 0.274011 0.0609304 -0.833085 -0.429929 0.348038 1 
0.0670587 0.275003 0.061057 -0.890085 -0.451214 0.0644591 1 
0.0668222 0.274937 0.0614567 -0.860432 -0.507999 -0.039924 1 
0.0680767 0.273172 0.0591827 -0.901062 -0.351311 0.254297 1 
0.0678311 0.272973 0.0591798 -0.825493 -0.474619 0.305448 1 
0.0677662 0.273491 0.0601271 -0.415406 -0.793635 0.444501 1 
0.0674796 0.275346 0.0604866 -0.821204 -0.570621 -0.00408559 1 
0.0671399 0.275063 0.0603644 -0.878854 -0.468253 0.0914008 1 
0.0670335 0.274473 0.058178 -0.663904 -0.344186 -0.663904 1 
0.0671198 0.274779 0.0574785 -0.166583 -0.9098 -0.380151 1 
0.0667757 0.275092 0.0582019 0.0574737 -0.992831 0.104805 1 
0.0675975 0.272952 0.0597136 -0.669278 -0.656187 0.348548 1 
0.0676057 0.273242 0.059841 -0.797816 -0.504806 0.329637 1 
0.0676796 0.272857 0.0592963 -0.781622 -0.542837 0.307236 1 
0.0672849 0.273254 0.0585773 -0.844761 -0.452495 0.285705 1 
0.0671007 0.272976 0.0587479 -0.796473 -0.557376 0.23444 1 
0.0671007 0.272976 0.0587479 -0.796473 -0.557376 0.23444 1 
0.0669564 0.273305 0.0587165 -0.832946 -0.46863 0.294256 1 
0.0667436 0.273267 0.0586594 -0.811603 -0.471714 0.344653 1 
0.0663905 0.273447 0.0589802 -0.727481 -0.642635 -0.240399 1 
0.0663598 0.273486 0.0588934 -0.231428 -0.32055 0.918525 1 
0.0669578 0.274986 0.0603941 -0.629717 -0.468509 0.619641 1 
0.0669331 0.275115 0.0605756 -0.821204 -0.570621 -0.00408559 1 
0.0665934 0.274832 0.0604534 -0.619379 -0.0643696 0.782449 1 
0.0656564 0.27389 0.0596693 -0.82746 -0.560448 0.0347672 1 
0.0656011 0.274058 0.059764 -0.82746 -0.560448 0.0347672 1 
0.0656718 0.274625 0.0596486 -0.430143 -0.887803 0.163657 1 
0.0667069 0.273217 0.0583042 -0.519707 -0.158429 0.839527 1 
0.0669442 0.274123 0.0587433 0.378681 0.126227 -0.916879 1 
0.066888 0.274446 0.0585629 -0.698875 -0.361713 -0.617039 1 
0.066879 0.274313 0.0581603 -0.658618 -0.381305 -0.648714 1 
0.0667139 0.274659 0.0587198 -0.696231 -0.398555 -0.597006 1 
0.0664041 0.274493 0.0584091 -0.672959 -0.413745 -0.61314 1 
0.0665474 0.27432 0.0581653 -0.698875 -0.361713 -0.617039 1 
0.0666466 0.274648 0.0582778 -0.656476 -0.388594 -0.646555 1 
0.0665734 0.274548 0.0575675 -0.731491 -0.0890638 -0.676009 1 
0.0663398 0.274527 0.0581014 -0.712582 -0.289837 -0.638922 1 
0.0661299 0.274533 0.0581784 -0.681749 -0.384619 -0.622323 1 
0.0660601 0.27381 0.058569 -0.718485 -0.361697 -0.5941 1 
0.0662065 0.273682 0.0584594 -0.693769 -0.380667 -0.611374 1 
0.0660837 0.274834 0.0586757 0.153782 -0.976455 0.151282 1 
0.0663181 0.274699 0.0584171 -0.681749 -0.384619 -0.622323 1 
0.066136 0.274622 0.0584467 -0.68297 -0.380159 -0.623724 1 
0.0657007 0.274897 0.059185 -0.774975 0.04392 -0.630464 1 
0.0656977 0.274853 0.0590508 0.0786431 -0.95532 0.28492 1 
0.0655372 0.274603 0.0587647 0.0786431 -0.95532 0.28492 1 
0.0654551 0.274698 0.0591821 -0.694669 -0.36622 -0.619126 1 
0.0654275 0.274782 0.0592294 -0.757909 -0.0736254 -0.648193 1 
0.0657797 0.274758 0.0586334 0.120972 -0.969048 0.215202 1 
0.0658627 0.274507 0.0584912 -0.686997 -0.365633 -0.627971 1 
0.0667853 0.274741 0.0573493 -0.223624 -0.901805 -0.369784 1 
0.0651542 0.274666 0.0592739 -0.794533 -0.272187 -0.5428 1 
0.0650713 0.274917 0.0594161 -0.679374 -0.541822 -0.494853 1 
0.058903 0.264355 0.0554596 -0.891494 -0.126141 0.435117 1 
0.0588387 0.264389 0.0551518 -0.661745 -0.674752 0.326808 1 
0.0587813 0.264356 0.0553876 -0.653708 -0.682906 0.326043 1 
0.058803 0.264183 0.0550719 -0.661745 -0.674752 0.326808 1 
0.0586208 0.264106 0.0551016 -0.667015 -0.676706 0.311705 1 
0.0588021 0.264339 0.0547967 -0.667015 -0.676706 0.311705 1 
0.0584981 0.264262 0.0547544 -0.603414 -0.752288 0.264489 1 
0.0583816 0.264508 0.0546755 -0.713208 -0.536984 0.450535 1 
0.0583509 0.264547 0.0545887 -0.713208 -0.536984 0.450535 1 
0.0590299 0.2646 0.0555247 -0.891494 -0.126141 0.435117 1 
0.058277 0.264931 0.0551334 -0.615319 -0.747511 0.250219 1 
0.0581709 0.26467 0.0544773 -0.711394 -0.426173 0.558834 1 
0.0584071 0.264224 0.0547692 -0.615319 -0.747511 0.250219 1 
0.0581913 0.264141 0.0545778 -0.713208 -0.536984 0.450535 1 
0.0583458 0.264302 0.0545955 -0.713208 -0.536984 0.450535 1 
0.0580716 0.264342 0.0543648 -0.69953 -0.347319 0.624522 1 
0.0582598 0.264508 0.0546035 -0.713208 -0.536984 0.450535 1 
0.0581985 0.264586 0.0544299 -0.711394 -0.426173 0.558834 1 
0.0578968 0.26471 0.0542466 -0.725979 -0.282414 0.627054 1 
0.0580716 0.264342 0.0543648 -0.69953 -0.347319 0.624522 1 
0.0579797 0.264459 0.0541044 -0.69429 -0.38425 0.608534 1 
0.057949 0.264498 0.0540176 -0.681534 -0.473892 0.557618 1 
0.0582826 0.264509 0.0560933 -0.543591 -0.787653 0.290021 1 
0.0578138 0.264961 0.0543887 -0.721453 -0.407778 0.559663 1 
0.0578048 0.264827 0.0539861 -0.789862 -0.309905 0.529223 1 
0.0574486 0.264962 0.0541728 -0.710196 -0.286964 0.642864 1 
0.057335 0.265252 0.0542281 -0.710965 -0.282788 0.643863 1 
0.0571817 0.265448 0.0537941 -0.874008 -0.228587 0.428787 1 
0.0572982 0.266198 0.0544365 -0.274394 0.835585 0.475927 1 
0.0572951 0.266154 0.0543023 -0.274394 0.835585 0.475927 1 
0.0570077 0.26566 0.0539511 -0.86607 -0.201238 0.457631 1 
0.0571663 0.264713 0.0538147 -0.853061 -0.138531 0.503087 1 
0.0576395 0.26234 0.0525799 -0.831192 -0.238142 0.502403 1 
0.0574655 0.262552 0.0527368 -0.815964 -0.176465 0.550512 1 
0.0574809 0.263287 0.0527162 -0.94931 -0.232901 0.211109 1 
0.057446 0.262925 0.0529115 -0.867923 -0.187779 0.459836 1 
0.057269 0.263093 0.0529343 -0.929196 -0.273794 0.248258 1 
0.05718 0.263255 0.0528081 -0.94931 -0.232901 0.211109 1 
0.0573826 0.262803 0.052879 -0.867923 -0.187779 0.459836 1 
0.057225 0.262598 0.0527271 -0.815964 -0.176465 0.550512 1 
0.0572906 0.26292 0.0526186 -0.860135 -0.188665 0.473891 1 
0.0570255 0.263094 0.0527904 -0.925947 -0.278212 0.255384 1 
0.0571249 0.262426 0.0523393 -0.815964 -0.176465 0.550512 1 
0.0572681 0.263249 0.0526591 -0.951695 -0.231493 0.201711 1 
0.057177 0.26321 0.052674 -0.94931 -0.232901 0.211109 1 
0.0569948 0.263133 0.0527036 -0.940531 -0.256257 0.223012 1 
0.0569336 0.263211 0.05253 -0.947919 -0.25432 0.19176 1 
0.0573142 0.263944 0.0527253 -0.961227 -0.0749173 0.265385 1 
0.0571543 0.264535 0.053278 -0.908599 -0.0496575 0.414708 1 
0.0571759 0.264362 0.0529622 -0.929862 -0.0512936 0.364316 1 
0.0571772 0.264718 0.0525459 -0.963183 -0.00361646 0.268823 1 
0.0571914 0.265097 0.0529416 -0.930587 -0.11004 0.34914 1 
0.0568904 0.265065 0.0530335 -0.929965 -0.13915 0.340298 1 
0.05737 0.26311 0.0535973 -0.785839 -0.255672 0.563106 1 
0.057398 0.263538 0.0528584 -0.95679 -0.198831 0.212175 1 
0.057306 0.263655 0.052598 -0.984704 -0.169374 -0.0408833 1 
0.0571238 0.263578 0.0526277 -0.984704 -0.169374 -0.0408833 1 
0.0572754 0.263694 0.0525111 -0.984704 -0.169374 -0.0408833 1 
0.0570021 0.263578 0.0525556 -0.979313 -0.181716 -0.0890284 1 
0.0568855 0.263824 0.0524769 -0.974903 -0.16479 0.149695 1 
0.0571393 0.264312 0.052607 -0.969099 -0.0839969 0.231932 1 
0.0570758 0.26419 0.0525745 -0.969099 -0.0839969 0.231932 1 
0.056949 0.263946 0.0525094 -0.973917 -0.12441 0.189757 1 
0.0567966 0.263985 0.0523506 -0.877538 -0.0709262 0.474232 1 
0.0568506 0.263462 0.0526721 -0.973992 -0.224583 0.0300244 1 
0.05682 0.263501 0.0525853 -0.973919 -0.224566 -0.0324239 1 
0.0567587 0.263579 0.0524117 -0.961533 -0.229561 -0.150854 1 
0.0567966 0.263985 0.0523506 -0.877538 -0.0709262 0.474232 1 
0.0568206 0.264342 0.0534241 -0.905552 -0.0721718 0.418052 1 
0.0570227 0.264558 0.0525282 -0.935625 -0.045545 0.350046 1 
0.0566172 0.264949 0.053078 -0.90766 -0.127662 0.399819 1 
0.0569035 0.264091 0.0532819 -0.900423 -0.128229 0.415688 1 
0.0566078 0.264304 0.0533669 -0.918276 -0.126038 0.375344 1 
0.0565098 0.264332 0.0528382 -0.706905 -0.0238914 0.706905 1 
0.0563656 0.264661 0.0528067 -0.725173 -0.101495 0.681045 1 
0.0571093 0.265192 0.053359 -0.931007 -0.124408 0.343146 1 
0.0573369 0.265124 0.0525568 -0.975367 -0.0697565 0.209269 1 
0.0572807 0.265447 0.0523763 -0.976217 -0.126246 0.176244 1 
0.0571823 0.264963 0.052539 -0.962562 -0.00120471 0.271059 1 
0.0570299 0.265003 0.0523803 -0.923305 0.00898906 0.383961 1 
0.0569643 0.26468 0.0524887 -0.906763 -0.0224381 0.421044 1 
0.0570822 0.264791 0.0521513 -0.844698 0.177282 0.505031 1 
0.0570903 0.26508 0.0522786 -0.935263 0.0191391 0.353435 1 
0.0569933 0.264953 0.0520251 -0.835684 0.197965 0.512291 1 
0.0569626 0.264992 0.0519383 -0.814164 0.166431 0.556271 1 
0.0570014 0.265242 0.0521524 -0.874806 0.124563 0.468186 1 
0.0569562 0.264391 0.0523614 -0.912902 -0.0302984 0.407052 1 
0.056683 0.264275 0.0524059 -0.870967 -0.028534 0.490513 1 
0.056683 0.264275 0.0524059 -0.870967 -0.028534 0.490513 1 
0.0569643 0.26468 0.0524887 -0.906763 -0.0224381 0.421044 1 
0.056812 0.26472 0.05233 -0.865021 0.0370136 0.500369 1 
0.0566912 0.264565 0.0525332 -0.853901 -0.0513729 0.517894 1 
0.0575272 0.26549 0.0526544 -0.995154 -0.0184489 0.0965853 1 
0.057162 0.265492 0.0524385 -0.973248 -0.166226 0.158613 1 
0.0564342 0.265028 0.0528324 -0.797477 -0.261648 0.543663 1 
0.0573334 0.265746 0.0514558 -0.713722 0.379011 0.589026 1 
0.0572486 0.266309 0.0510475 -0.492375 0.417129 0.763918 1 
0.0566182 0.264976 0.0511313 -0.636378 0.435944 0.636378 1 
0.0569129 0.265915 0.0513346 -0.711679 -0.488342 0.505009 1 
0.0565352 0.265227 0.0512735 -0.722758 0.212942 0.657477 1 
