0.0669781 0.285878 0.0489475 -0.567104 0.780749 0.262344 2 
0.0666155 0.286063 0.0487919 -0.612937 0.77336 0.161936 2 
0.0669845 0.285921 0.0476328 -0.780081 0.576853 -0.24231 2 
0.0670615 0.285721 0.0479234 -0.522054 0.720931 -0.455761 2 
0.0669852 0.28541 0.0477305 -0.799048 0.557943 -0.224104 2 
0.0659678 0.285626 0.0480443 -0.722839 0.633482 -0.276051 2 
0.0656193 0.285683 0.0478315 -0.164334 0.580444 -0.797545 2 
0.0681773 0.285414 0.0495849 0.349047 0.924765 -0.151578 2 
0.0677527 0.285055 0.0497614 -0.470797 0.514051 0.717009 2 
0.0674239 0.285739 0.0483214 -0.707906 0.702092 0.0770411 2 
0.0672919 0.285937 0.0497648 -0.477724 0.655403 0.585002 2 
0.0672365 0.285534 0.049607 -0.467999 0.711158 0.524625 2 
0.067167 0.285463 0.0497489 -0.456573 0.647231 0.610437 2 
0.0669995 0.285683 0.049565 -0.566174 0.653536 0.502332 2 
0.0668744 0.285412 0.0497915 -0.548846 0.585999 0.596132 2 
0.0667489 0.285449 0.0496779 -0.613818 0.573235 0.542798 2 
0.067013 0.285861 0.0491677 -0.583301 0.741648 0.331237 2 
0.0671733 0.285709 0.0486767 -0.548407 0.811154 0.20317 2 
0.066588 0.28581 0.0490042 -0.571636 0.771154 0.280276 2 
0.0674249 0.285427 0.0500685 -0.469522 0.563093 0.680055 2 
0.067404 0.285315 0.0497909 -0.453787 0.604492 0.654727 2 
0.0672021 0.285244 0.0497268 -0.450272 0.610964 0.651137 2 
0.067286 0.285082 0.0501099 -0.47168 0.538349 0.698354 2 
0.0674671 0.285041 0.0498965 -0.468827 0.535563 0.702406 2 
0.0668189 0.285213 0.049876 -0.556403 0.462834 0.690073 2 
0.066812 0.285176 0.0497835 -0.562465 0.53544 0.630029 2 
0.066896 0.284811 0.0499243 -0.478523 0.518539 0.708614 2 
0.0674603 0.284801 0.0495616 -0.455941 0.475693 0.75222 2 
0.0669517 0.284807 0.0495973 -0.492684 0.512725 0.703118 2 
0.0668121 0.284973 0.0495412 -0.527907 0.612237 0.588625 2 
0.0669172 0.284517 0.0497171 -0.652286 0.0952777 0.751961 2 
0.0665749 0.285324 0.0497415 -0.658053 0.434815 0.614738 2 
0.0664774 0.285307 0.0497557 -0.654401 0.431272 0.621098 2 
0.0664146 0.285174 0.0491654 -0.797739 0.529193 0.289081 2 
0.0665821 0.284955 0.0493493 -0.806243 0.485018 0.338718 2 
0.0666452 0.284681 0.0494549 -0.694388 0.394201 0.602023 2 
0.0661852 0.284647 0.0490711 -0.802767 0.432754 0.410231 2 
0.0672088 0.28488 0.0479274 -0.828436 0.489601 -0.272001 2 
0.0665884 0.285201 0.0482771 -0.843325 0.532552 -0.0720429 2 
0.0670618 0.285315 0.0474387 -0.87117 0.461208 -0.168377 2 
0.066972 0.284622 0.0474007 -0.768884 0.612967 -0.181903 2 
0.0669581 0.284547 0.0472156 -0.80778 0.586315 -0.0610449 2 
0.0667972 0.28521 0.047609 -0.767237 0.569446 -0.295091 2 
0.0665819 0.284554 0.0474574 -0.258418 0.559122 -0.787783 2 
0.066568 0.284479 0.0472724 -0.527737 0.67852 -0.510984 2 
0.0662121 0.285108 0.0476941 -0.652342 0.649039 -0.391405 2 
0.0669452 0.284463 0.0498448 -0.658914 0.0295036 0.75164 2 
0.067083 0.284818 0.0469891 -0.865857 0.491739 -0.0921124 2 
0.0669511 0.28451 0.0471231 -0.80778 0.586315 -0.0610449 2 
0.0645596 0.286487 0.0485597 -0.0707674 -0.372531 -0.925318 2 
0.0661026 0.282678 0.0454395 -0.575612 -0.685729 0.445474 2 
0.0657471 0.282698 0.0451341 -0.458077 -0.694611 0.55469 2 
0.0663054 0.282338 0.046426 -0.891104 -0.400777 -0.212867 2 
0.0666469 0.282244 0.0465464 -0.87908 -0.338575 -0.335538 2 
0.0666055 0.281916 0.0465736 -0.887649 -0.255106 -0.383405 2 
0.0661098 0.282612 0.0461144 -0.898195 -0.402242 -0.177332 2 
0.0659288 0.282652 0.0463278 -0.905582 -0.408837 -0.113023 2 
0.0659918 0.282379 0.0464334 -0.907026 -0.375172 -0.19118 2 
0.066152 0.282226 0.0459424 -0.85422 -0.518584 -0.03714 2 
0.0661311 0.282114 0.0456648 -0.701093 -0.682438 0.206752 2 
0.06595 0.282155 0.0458782 -0.87453 -0.483113 0.0424263 2 
0.0664514 0.282215 0.0451676 -0.429324 -0.772131 0.468502 2 
0.066375 0.281904 0.0449746 -0.134762 -0.862189 0.488332 2 
0.0659992 0.281806 0.0457988 -0.717158 -0.690759 0.0923945 2 
0.0660825 0.281853 0.0450172 -0.0231217 -0.858222 0.512757 2 
0.0661943 0.281637 0.045528 0.568523 -0.793466 0.21724 2 
0.0662572 0.281567 0.045876 -0.99855 0.0261401 -0.0470521 2 
0.0659993 0.281603 0.0455564 0.0391151 -0.952643 0.301565 2 
0.0654334 0.283243 0.046451 -0.814052 -0.270309 -0.514056 2 
0.065538 0.283095 0.0462869 -0.811779 -0.307373 -0.496525 2 
0.065078 0.283263 0.0461456 -0.553028 0.0178396 -0.832972 2 
0.0646324 0.282995 0.0462869 -0.5491 0.0261476 -0.835348 2 
0.0647164 0.282834 0.04667 -0.531706 -0.133293 -0.836374 2 
0.0656074 0.283067 0.0453203 0.124167 0.541951 -0.831187 2 
0.0655592 0.2828 0.0460798 -0.9061 -0.341068 -0.250312 2 
0.064911 0.282972 0.0460593 -0.320859 0.251171 -0.913215 2 
0.0650221 0.283168 0.0456478 -0.340801 0.310775 -0.887284 2 
0.0652177 0.282894 0.0459594 -0.889823 -0.294614 -0.348452 2 
0.0652388 0.2826 0.0457522 -0.833071 -0.511375 0.210923 2 
0.0650852 0.282894 0.0457533 0.0423344 0.476604 -0.878098 2 
0.0651483 0.28262 0.0458589 -0.795689 -0.541445 0.271507 2 
0.0647505 0.283229 0.0459679 -0.424104 0.166457 -0.890184 2 
0.0648066 0.282918 0.0459809 -0.295098 0.303906 -0.905847 2 
0.0646185 0.282921 0.0461018 -0.491743 0.186832 -0.85046 2 
0.0647927 0.282843 0.0457959 -0.181131 0.457982 -0.870313 2 
0.0648557 0.282569 0.0459015 -0.420359 -0.623062 0.659615 2 
0.0648348 0.282457 0.0456239 -0.15271 -0.678881 0.718192 2 
0.0656436 0.282331 0.0468029 -0.888281 -0.42306 -0.178819 2 
0.065414 0.28221 0.0471934 -0.740988 -0.415676 -0.527399 2 
0.06533 0.282371 0.0468102 -0.780233 -0.410393 -0.472033 2 
0.0659513 0.281436 0.0471406 -0.750255 0.658795 -0.0557332 2 
0.0655115 0.282227 0.0471792 -0.747996 -0.419207 -0.514556 2 
0.0655815 0.28199 0.0473773 -0.621102 -0.34723 -0.702612 2 
0.0655116 0.282024 0.0469368 -0.851552 -0.510353 -0.119998 2 
0.0654767 0.28204 0.0467166 -0.878013 -0.467991 -0.100385 2 
0.0655537 0.281841 0.0470072 -0.864862 -0.345638 -0.364072 2 
0.0654633 0.281658 0.0468715 -0.823101 -0.5154 -0.238469 2 
0.0655053 0.281476 0.0469419 -0.91231 -0.0385109 -0.407685 2 
0.0649953 0.282706 0.0470248 -0.555667 -0.286541 -0.780467 2 
0.0649536 0.282482 0.0464697 -0.72619 -0.209926 -0.65466 2 
0.0648285 0.282212 0.0466961 -0.54768 -0.268347 -0.792488 2 
0.064724 0.282158 0.0466178 -0.550615 -0.248011 -0.797066 2 
0.0651636 0.281773 0.0470639 -0.585019 -0.524325 -0.618737 2 
0.0655802 0.282709 0.0461149 -0.885638 -0.461298 -0.0533847 2 
0.0655248 0.28251 0.0461995 -0.902965 -0.418987 -0.0954129 2 
0.0656224 0.282323 0.0459429 -0.913284 -0.405757 0.0356855 2 
0.0656017 0.282311 0.0464901 -0.931113 -0.344907 -0.118604 2 
0.0655808 0.282199 0.0462125 -0.916586 -0.394361 -0.0659511 2 
0.0656644 0.282141 0.0460133 -0.877771 -0.475402 0.059253 2 
0.0658525 0.282138 0.0458924 -0.827348 -0.557715 0.0666988 2 
0.06556 0.282087 0.045935 -0.877771 -0.475402 0.059253 2 
0.0652671 0.282442 0.0464623 -0.813162 -0.31737 -0.487897 2 
0.0654558 0.281928 0.0464391 -0.843996 -0.533271 -0.0573861 2 
0.0655596 0.282191 0.0453526 -0.296093 -0.796442 0.527267 2 
0.0657478 0.281984 0.0449894 -0.234034 -0.795095 0.559511 2 
0.0654553 0.281933 0.0450319 -0.241993 -0.785306 0.569854 2 
0.0656436 0.282029 0.0457358 -0.770285 -0.620132 0.148651 2 
0.0651414 0.28238 0.045524 -0.483841 -0.688093 0.540764 2 
0.0652671 0.28214 0.0453952 -0.489142 -0.749358 0.446321 2 
0.0651696 0.282123 0.0454094 -0.454813 -0.753644 0.474516 2 
0.0651627 0.281882 0.0450745 -0.234612 -0.79395 0.560892 2 
0.0657278 0.281763 0.0467013 -0.854844 -0.504806 -0.120054 2 
0.0659017 0.28179 0.045813 -0.749711 -0.656543 0.0829777 2 
0.0655958 0.281456 0.0468352 -0.91231 -0.0385109 -0.407685 2 
0.0654006 0.281323 0.0460389 0.0497988 -0.98787 0.14708 2 
0.0657068 0.281552 0.045599 0.0758927 -0.955734 0.284276 2 
0.0653728 0.281173 0.0456688 0.124023 -0.967892 0.218639 2 
0.0648911 0.281943 0.0453946 -0.457905 -0.73893 0.494273 2 
0.0648702 0.281832 0.045117 -0.180107 -0.809726 0.558484 2 
0.065213 0.281019 0.0464997 -0.89599 -0.434798 -0.0902935 2 
0.0650872 0.28116 0.0458038 0.147172 -0.97486 0.167299 2 
0.0640683 0.282802 0.0464072 -0.585476 0.422936 -0.691624 2 
0.0638178 0.282569 0.0465201 -0.595738 0.619365 -0.511355 2 
0.0663611 0.281829 0.0447896 -0.139943 -0.835238 0.531783 2 
0.0661382 0.281646 0.0444479 0.127638 -0.95663 0.261856 2 
0.0660617 0.281538 0.0444972 0.130315 -0.956961 0.259314 2 
0.0658248 0.281483 0.0442129 0.143033 -0.96773 0.207463 2 
0.0665638 0.281187 0.044709 0.146404 -0.971362 0.187143 2 
0.0661246 0.281467 0.0448452 0.103382 -0.935812 0.337 2 
0.0646675 0.281968 0.0438881 -0.549613 -0.829469 -0.0995362 2 
0.065727 0.281873 0.0447118 -0.0227912 -0.883493 0.467889 2 
0.0654765 0.281639 0.0448247 -0.0537889 -0.870277 0.489617 2 
0.0657481 0.281578 0.0445046 0.161573 -0.954747 0.249703 2 
0.0655811 0.28149 0.0446607 0.0677032 -0.930587 0.359756 2 
0.0654625 0.281565 0.0446397 0.0328764 -0.916595 0.398462 2 
0.0651419 0.281771 0.0447969 -0.14344 -0.823673 0.548623 2 
0.0651069 0.281787 0.0445766 -0.0397652 -0.867978 0.495008 2 
0.0654347 0.281415 0.0442696 0.143476 -0.976887 0.158448 2 
0.0651627 0.28158 0.0440073 0.164365 -0.972175 0.166913 2 
0.0648281 0.281712 0.0439795 0.147234 -0.975267 0.164852 2 
0.0651422 0.281364 0.0443122 0.0791339 -0.986221 0.145276 2 
0.0649471 0.28133 0.0443405 0.146694 -0.980013 0.134367 2 
0.0655047 0.281179 0.0444677 0.136835 -0.980037 0.144232 2 
0.0653306 0.281257 0.0447736 0.050273 -0.944874 0.323552 2 
0.0648493 0.28172 0.0448395 -0.135942 -0.849275 0.510149 2 
0.0646963 0.281503 0.0449383 -0.095916 -0.896606 0.432317 2 
0.0648915 0.281334 0.0446675 0.0807823 -0.957847 0.275686 2 
0.0646964 0.2813 0.0446958 0.0812642 -0.955822 0.28249 2 
0.0643062 0.281435 0.044995 -0.145972 -0.905594 0.398235 2 
0.0647726 0.281512 0.0440641 0.135139 -0.973756 0.183132 2 
0.0646545 0.281279 0.0443831 0.133624 -0.988817 0.066231 2 
0.0646337 0.281167 0.0441056 0.0921388 -0.984808 0.147183 2 
0.0646201 0.280989 0.0445029 0.202563 -0.972553 0.114492 2 
0.0662649 0.281396 0.0471333 -0.828845 0.53823 -0.152721 2 
0.0655823 0.281277 0.0472326 -0.901392 -0.428263 -0.0638996 2 
0.0653872 0.281243 0.0472609 -0.903214 -0.339256 0.262887 2 
0.058639 0.279036 0.0489822 -0.195909 -0.925985 -0.322756 2 
0.058702 0.278763 0.0490878 -0.203137 -0.724162 -0.659034 2 
0.0593575 0.278524 0.0497832 -0.204753 -0.586549 -0.783605 2 
0.0593578 0.278118 0.0492984 -0.956341 0.228081 -0.182732 2 
0.0590016 0.278851 0.0491378 -0.202915 -0.689291 -0.695487 2 
0.0594206 0.278251 0.0498887 -0.541751 -0.329552 -0.773241 2 
0.0594067 0.278176 0.0497037 -0.74408 -0.215923 -0.632235 2 
0.0592255 0.278217 0.0499171 -0.198529 -0.473185 -0.858302 2 
0.0592955 0.27798 0.0501152 -0.422294 -0.27289 -0.864407 2 
0.0591349 0.278237 0.0500238 -0.151198 -0.494697 -0.855812 2 
0.058982 0.278021 0.0501226 -0.28087 -0.405364 -0.869938 2 
0.0593376 0.277798 0.0501856 -0.648304 -0.0295323 -0.760808 2 
0.0592331 0.277744 0.0501073 -0.648959 0.0181429 -0.760607 2 
0.0593579 0.277915 0.049056 -0.982579 0.156292 -0.10056 2 
0.0591838 0.277993 0.049362 -0.967399 0.118848 -0.223639 2 
0.0592538 0.277757 0.0495601 -0.900092 0.140329 -0.412483 2 
0.0591283 0.277793 0.0494465 -0.954752 0.251671 -0.15846 2 
0.0592259 0.277607 0.04919 -0.93164 0.290874 -0.217804 2 
0.0591913 0.27752 0.0495521 -0.867685 0.261971 -0.422485 2 
0.0588839 0.277707 0.0476625 -0.760982 0.631389 0.149183 2 
0.0593371 0.277803 0.0487785 -0.988176 0.104824 -0.111891 2 
0.0591072 0.277583 0.0483442 -0.843014 0.474483 -0.253365 2 
0.0590864 0.277471 0.0480667 -0.814029 0.56104 0.150305 2 
0.0591912 0.277421 0.0487274 -0.937073 0.338941 -0.0837385 2 
0.0589408 0.276984 0.0485979 -0.138225 0.988486 0.0615626 2 
0.0588989 0.276964 0.0482852 -0.339818 0.938108 -0.066914 2 
0.0586045 0.278746 0.049102 -0.159237 -0.723389 -0.671827 2 
0.05843 0.278928 0.0488256 -0.144775 -0.984707 -0.0969153 2 
0.0583746 0.278728 0.0489102 -0.176201 -0.983689 -0.0361736 2 
0.058082 0.278677 0.0489527 -0.065632 -0.498524 -0.864388 2 
0.0580053 0.278772 0.0492444 0.026168 -0.552283 -0.833246 2 
0.0578797 0.279012 0.0493733 0.0564431 -0.472194 -0.879686 2 
0.0576847 0.278978 0.0494017 0.125308 -0.418164 -0.899687 2 
0.0574896 0.278944 0.04943 0.100676 -0.398565 -0.911597 2 
0.0578103 0.278738 0.0492728 0.0939778 -0.455863 -0.885075 2 
0.0574688 0.278832 0.0491525 0.125679 -0.239698 -0.962678 2 
0.0572807 0.278836 0.0492733 0.100633 -0.33947 -0.935218 2 
0.0571623 0.278707 0.04901 0.109983 0.0600938 -0.992115 2 
0.0573158 0.278616 0.0492513 0.223706 -0.116327 -0.96769 2 
0.058849 0.278327 0.0495765 -0.139558 -0.521507 -0.841756 2 
0.0581378 0.278773 0.0494505 0.0347871 -0.571901 -0.819585 2 
0.0584589 0.278259 0.0496333 -0.0285633 -0.493738 -0.869142 2 
0.0587721 0.278526 0.0492859 -0.154421 -0.589199 -0.793095 2 
0.0584515 0.278529 0.0492008 -0.0610252 -0.574772 -0.816035 2 
0.0585215 0.278293 0.0493988 -0.0836925 -0.520596 -0.849692 2 
0.0588354 0.278149 0.0499738 -0.148112 -0.497128 -0.854943 2 
0.0588775 0.277966 0.0500442 -0.202294 -0.432644 -0.878577 2 
0.0586824 0.277932 0.0500726 -0.181992 -0.471995 -0.862612 2 
0.0588985 0.277875 0.0500795 -0.315539 -0.321521 -0.892782 2 
0.0587034 0.277841 0.0501078 -0.183537 -0.444895 -0.876575 2 
0.0590591 0.277618 0.0501708 -0.614396 0.0795101 -0.784981 2 
0.058864 0.277584 0.0501992 -0.563772 -0.0206762 -0.825671 2 
0.0588501 0.27751 0.0500142 -0.516839 -0.218017 -0.827856 2 
0.0583479 0.278064 0.0500448 -0.0204217 -0.515989 -0.856352 2 
0.0584599 0.277645 0.0503133 -0.263015 -0.433291 -0.862022 2 
0.0584948 0.277628 0.0505335 -0.299191 -0.331938 -0.894596 2 
0.058669 0.27755 0.0502276 -0.35232 -0.292351 -0.889045 2 
0.0583624 0.277628 0.0503275 -0.176353 -0.487565 -0.855091 2 
0.0583973 0.277611 0.0505477 -0.295364 -0.283724 -0.912283 2 
0.0586551 0.277476 0.0500425 -0.421787 -0.328403 -0.845131 2 
0.0589824 0.277411 0.0493954 -0.818902 0.51549 -0.252327 2 
0.0590173 0.277395 0.0496157 -0.717359 0.684412 0.130293 2 
0.0588084 0.277286 0.049459 -0.73503 0.588998 -0.335875 2 
0.0589615 0.277299 0.0491179 -0.889022 0.411557 -0.200652 2 
0.0587805 0.277137 0.0490889 -0.48209 0.863684 -0.147103 2 
0.0584183 0.277218 0.0495158 -0.262306 0.960937 0.0882885 2 
0.0583905 0.277069 0.0491457 -0.159714 0.981448 -0.10607 2 
0.0579428 0.278739 0.0494789 0.0870304 -0.535023 -0.840343 2 
0.0575388 0.278596 0.0493506 0.272362 -0.169379 -0.947169 2 
0.0575738 0.278376 0.0493284 0.315529 -0.263183 -0.911689 2 
0.0574834 0.278194 0.0491928 0.322488 -0.227891 -0.918731 2 
0.0574629 0.277978 0.0494976 0.321186 -0.391878 -0.862132 2 
0.0581389 0.277955 0.0498881 -0.00134636 -0.531813 -0.846861 2 
0.0577419 0.27785 0.0498523 0.117417 -0.526202 -0.842214 2 
0.0581184 0.277739 0.0501929 -0.07815 -0.532841 -0.842599 2 
0.0580908 0.277486 0.0504052 -0.125666 -0.586932 -0.799824 2 
0.0576444 0.277833 0.0498665 0.191251 -0.519539 -0.832768 2 
0.0578119 0.277613 0.0500505 -0.00954147 -0.549316 -0.83556 2 
0.0576169 0.277579 0.0500788 0.0976844 -0.599228 -0.794597 2 
0.0581532 0.27742 0.049346 0.525127 0.844519 0.105025 2 
0.0582233 0.277184 0.0495441 0.034474 0.993074 0.112319 2 
0.0578332 0.277116 0.0496009 0.298955 0.952841 0.0521582 2 
0.0574915 0.277413 0.0497229 -0.0467475 -0.630383 -0.774875 2 
0.057791 0.277502 0.0497729 0.0204116 -0.521176 -0.853205 2 
0.0586888 0.277673 0.0476909 -0.73812 0.645662 0.195702 2 
0.0587238 0.277656 0.0479111 -0.665318 0.736761 -0.120561 2 
0.0585915 0.277452 0.0474627 -0.621574 0.746828 0.236417 2 
0.0585078 0.27751 0.0476619 -0.623741 0.771898 0.12297 2 
0.0589338 0.276947 0.0485054 -0.322197 0.946532 0.0162979 2 
0.0587457 0.27695 0.0486263 -0.232659 0.972394 0.0178968 2 
0.0585779 0.277274 0.04786 -0.57885 0.81534 0.0123745 2 
0.0587038 0.27693 0.0483136 -0.258839 0.965433 -0.0306682 2 
0.0581878 0.277206 0.0479168 -0.4263 0.893947 -0.138298 2 
0.0580903 0.277189 0.0479309 -0.415144 0.897339 -0.149794 2 
0.0581809 0.277169 0.0478242 -0.427956 0.891695 -0.147423 2 
0.0581114 0.276894 0.0477238 -0.449859 0.884009 -0.127103 2 
0.0582717 0.277044 0.0482999 -0.420521 0.906456 -0.0387146 2 
0.0572819 0.277513 0.0484015 0.624522 0.69953 -0.347319 2 
0.0576792 0.277514 0.0490196 0.772639 0.596125 -0.218321 2 
0.0577284 0.277166 0.0489402 0.625518 0.766522 -0.145504 2 
0.0573519 0.277277 0.0485996 0.679841 0.70759 -0.192699 2 
0.0579377 0.276665 0.0483697 -0.399773 0.916201 -0.0275253 2 
0.0579374 0.276769 0.0477874 -0.386576 0.895152 -0.221951 2 
0.0579934 0.276661 0.0480428 -0.383609 0.917086 -0.10862 2 
0.0576657 0.27683 0.0481075 -0.185553 0.949433 -0.253272 2 
0.0576869 0.276536 0.0479003 -0.221314 0.944363 -0.243308 2 
0.0577986 0.277331 0.0510301 0.147999 -0.928104 -0.341642 2 
0.0593802 0.277105 0.0503536 -0.73736 0.447035 -0.506419 2 
0.0594777 0.277122 0.0503394 -0.731258 0.292823 -0.616049 2 
0.0594569 0.27701 0.0500618 -0.677385 0.308784 -0.667684 2 
0.0595199 0.276737 0.0501674 -0.638691 0.457645 -0.618575 2 
0.0593593 0.276993 0.050076 -0.710145 0.347726 -0.612194 2 
0.0594085 0.276645 0.0499965 -0.742634 0.587986 -0.320573 2 
0.0590107 0.277253 0.0501055 -0.680355 0.272461 -0.680355 2 
0.0588087 0.277182 0.0500414 -0.641633 0.584375 -0.496803 2 
0.0584185 0.277317 0.0503405 0.16734 -0.883265 -0.437995 2 
0.058516 0.277334 0.0503263 -0.494963 0.0950215 -0.863703 2 
0.0587668 0.277161 0.0497286 -0.649273 0.685073 -0.330332 2 
0.0587878 0.27707 0.0497638 -0.643337 0.688941 -0.333884 2 
0.0590459 0.27683 0.049841 -0.675366 0.56476 -0.474264 2 
0.059088 0.276648 0.0499114 -0.593182 0.663361 -0.456165 2 
0.0588509 0.276796 0.0498694 -0.611766 0.65844 -0.438405 2 
0.0589974 0.276668 0.0500181 -0.584375 0.641633 -0.496803 2 
0.0587393 0.276908 0.0499409 -0.589774 0.650264 -0.478877 2 
0.0584952 0.277019 0.0498064 -0.521981 0.794871 -0.309381 2 
0.0585234 0.276762 0.0496917 -0.384105 0.881181 -0.275651 2 
0.0584812 0.277147 0.0498637 -0.599283 0.73174 -0.324679 2 
0.0585373 0.276837 0.0498767 -0.523531 0.734925 -0.431046 2 
0.0586004 0.276563 0.0499823 -0.322775 0.870422 -0.371727 2 
0.0586005 0.27636 0.0497399 -0.237086 0.941413 -0.239859 2 
0.0582235 0.277283 0.0503689 -0.537868 0.685321 -0.490951 2 
0.0579379 0.277269 0.050504 0.263611 -0.9318 -0.249514 2 
0.0583211 0.277097 0.0501123 -0.385953 -0.348753 -0.854056 2 
0.0582236 0.27708 0.0501265 -0.518787 0.742771 -0.423264 2 
0.057938 0.277066 0.0502616 0.289051 -0.954509 0.0732261 2 
0.0580358 0.276979 0.0508298 0.205991 -0.941475 -0.26682 2 
0.058015 0.276867 0.0505522 0.0763429 -0.92549 -0.370999 2 
0.0578543 0.277327 0.0507032 0.0881856 -0.883256 -0.460525 2 
0.0578753 0.277236 0.0507383 0.097728 -0.909834 -0.4033 2 
0.0579309 0.277232 0.0504114 0.124404 -0.909968 -0.395578 2 
0.0578125 0.277103 0.0501481 -0.181562 -0.767444 -0.61487 2 
0.0576383 0.277181 0.050454 0.343476 -0.928352 -0.142081 2 
0.0578408 0.276945 0.0508581 0.234146 -0.917911 -0.320335 2 
0.0579102 0.276917 0.0498915 0.0830454 0.988357 0.127492 2 
0.0582238 0.276674 0.0496417 -0.0145388 0.989755 -0.142033 2 
0.058203 0.276562 0.0493642 0.0168441 0.989309 -0.144859 2 
0.0576035 0.276994 0.0499914 -0.211401 -0.785424 -0.581738 2 
0.0588086 0.27688 0.0489742 0.0309354 0.997401 -0.0650711 2 
0.0587808 0.276731 0.0486042 0.0485118 0.997187 0.0571361 2 
0.0586136 0.276846 0.0490026 -0.121916 0.983781 -0.131573 2 
0.0583636 0.276305 0.0494556 0.0247229 0.996438 -0.080618 2 
0.0570783 0.279374 0.0499364 0.126066 0.326688 -0.936687 2 
0.0570155 0.279241 0.049346 -0.049117 0.388953 -0.919947 2 
0.0568205 0.279207 0.0493744 0.168495 0.330028 -0.928812 2 
0.0570365 0.27915 0.0493812 0.0629951 0.120263 -0.990741 2 
0.0568626 0.278822 0.0492024 0.202765 0.171369 -0.964116 2 
0.0568628 0.278619 0.04896 0.294354 0.237474 -0.925722 2 
0.0568628 0.278619 0.04896 0.294354 0.237474 -0.925722 2 
0.0569258 0.278345 0.0490656 0.494825 0.104099 -0.862735 2 
0.057184 0.278105 0.0491428 0.557437 -0.0206458 -0.829962 2 
0.057184 0.278105 0.0491428 0.557437 -0.0206458 -0.829962 2 
0.056947 0.278051 0.0488584 0.701101 0.130055 -0.701101 2 
0.0566544 0.278 0.048901 0.828949 0.238381 -0.505982 2 
0.057163 0.277993 0.0488652 0.6554 0.297909 -0.694047 2 
0.0571426 0.277272 0.0478605 -0.175277 0.754451 -0.63252 2 
0.0584386 0.277033 0.0473191 -0.576758 0.799631 0.167154 2 
0.0584177 0.276921 0.0470415 -0.595859 0.799744 0.0732261 2 
0.0582091 0.276708 0.0474672 -0.408234 0.863867 -0.295091 2 
0.0581672 0.276688 0.0471545 -0.560917 0.821809 -0.100009 2 
0.0583763 0.276593 0.0470688 -0.558042 0.826358 -0.0756425 2 
0.0581813 0.276559 0.0470971 -0.499851 0.812061 -0.301172 2 
0.0580141 0.276674 0.0474956 -0.383678 0.869771 -0.310305 2 
0.0579932 0.276562 0.047218 -0.431146 0.796087 -0.424687 2 
0.057819 0.27664 0.047524 -0.348565 0.867574 -0.354707 2 
0.0579168 0.276251 0.047025 -0.4078 0.794646 -0.449708 2 
0.0578402 0.276346 0.0473168 -0.334109 0.863757 -0.37722 2 
0.0576243 0.2762 0.0470676 -0.239317 0.849043 -0.471013 2 
0.0573659 0.276846 0.0474751 -0.374471 0.798764 -0.470901 2 
0.0575476 0.276295 0.0473593 -0.428319 0.79037 -0.438017 2 
0.0575614 0.276271 0.0467197 -0.194566 0.837087 -0.511302 2 
0.0579653 0.276413 0.0468479 -0.402153 0.773371 -0.490073 2 
0.057129 0.276791 0.0471908 -0.172381 0.828927 -0.532132 2 
0.0707812 0.288458 0.0542145 -0.963189 0.195259 0.184775 1 
0.0705862 0.288424 0.0542429 -0.958232 0.211316 0.19271 1 
0.0706353 0.288075 0.0541634 -0.9583 0.19804 0.206014 1 
0.0706772 0.288096 0.0544762 -0.957111 0.188218 0.220256 1 
0.0702937 0.288373 0.0542854 -0.949165 0.253925 0.186031 1 
0.0705518 0.288133 0.0543626 -0.9583 0.19804 0.206014 1 
0.0710118 0.287965 0.054504 -0.966512 0.146206 0.210899 1 
0.0705667 0.28739 0.0549853 -0.900566 0.0783699 0.427597 1 
0.0704899 0.287386 0.0544523 -0.959926 0.220506 0.172972 1 
0.0704483 0.287261 0.0547219 -0.931207 0.176776 0.318754 1 
0.0705516 0.288034 0.0535379 -0.94372 0.210787 0.254873 1 
0.0705379 0.288058 0.0541776 -0.952707 0.212163 0.217569 1 
0.070517 0.287946 0.0539 -0.964715 0.222027 0.141526 1 
0.0703219 0.287912 0.0539284 -0.93061 0.244303 0.272546 1 
0.070301 0.287801 0.0536508 -0.928389 0.245208 0.279225 1 
0.0707257 0.287956 0.053232 -0.971916 0.205476 0.114714 1 
0.0705727 0.28774 0.0533307 -0.94936 0.213844 0.230189 1 
0.0703012 0.287597 0.0534085 -0.888705 0.172522 0.424781 1 
0.070385 0.287639 0.0540339 -0.93061 0.244303 0.272546 1 
0.070601 0.287582 0.0540408 -0.950984 0.247554 0.185327 1 
0.0705731 0.287636 0.0539131 -0.94447 0.235086 0.229587 1 
0.0703781 0.287398 0.0536991 -0.930321 0.235757 0.280931 1 
0.0705111 0.287092 0.0542451 -0.961433 0.236761 0.139964 1 
0.070448 0.287365 0.0541395 -0.947987 0.222334 0.22779 1 
0.0706852 0.287014 0.0539392 -0.963493 0.203186 0.174346 1 
0.0703857 0.286925 0.0538892 -0.950884 0.140032 0.276063 1 
0.0703154 0.287266 0.0531088 -0.633649 0.717066 -0.290355 1 
0.070267 0.286901 0.0530435 -0.755519 0.579071 -0.306378 1 
0.0700085 0.28775 0.0536934 -0.816121 0.0669418 0.573991 1 
0.0702185 0.287041 0.0542877 -0.938417 0.221049 0.265537 1 
0.0699957 0.286857 0.053946 -0.851663 0.0232396 0.523574 1 
0.0700437 0.287327 0.0534289 -0.550422 0.746418 -0.374026 1 
0.0701137 0.28709 0.053627 -0.807008 0.0041104 0.590527 1 
0.0701768 0.286817 0.0537325 -0.812111 -0.0406757 0.582083 1 
0.0694238 0.287038 0.0530514 -0.505334 -0.326793 0.798651 1 
0.0695008 0.286839 0.053342 -0.517923 -0.359803 0.776078 1 
0.0698773 0.286728 0.0536826 -0.637189 -0.206195 0.742612 1 
0.0705533 0.286706 0.0540731 -0.948117 0.172262 0.267209 1 
0.0704557 0.286689 0.0540873 -0.948117 0.172262 0.267209 1 
0.0701978 0.286726 0.0537677 -0.809548 -0.0377509 0.585839 1 
0.0702398 0.286543 0.0538381 -0.937672 0.0243053 0.34667 1 
0.0700378 0.286472 0.053774 -0.839391 -0.0752754 0.53829 1 
0.0701769 0.286614 0.0534901 -0.672877 0.60642 -0.423663 1 
0.0703576 0.28688 0.0529368 -0.757854 0.554251 -0.344185 1 
0.0703092 0.286515 0.0528715 -0.826054 0.524841 -0.205372 1 
0.069529 0.286379 0.052985 -0.471413 -0.521387 0.711284 1 
0.0694873 0.286155 0.0524298 -0.541745 -0.575499 0.612628 1 
0.0692777 0.286255 0.0511084 -0.384273 -0.795879 0.46788 1 
0.0697033 0.285796 0.0513695 -0.0474127 -0.973785 0.222475 1 
0.0693477 0.286019 0.0513065 -0.573366 -0.610576 0.546305 1 
0.0704489 0.286147 0.0526853 -0.581574 -0.52426 0.622032 1 
0.0706231 0.286069 0.0523794 -0.484875 -0.582186 0.652652 1 
0.0704072 0.285923 0.0521302 -0.856064 -0.0925859 0.50851 1 
0.0700376 0.286373 0.0529492 -0.470797 -0.514051 0.717009 1 
0.0700936 0.286265 0.0532046 -0.679719 -0.326071 0.657008 1 
0.0701563 0.286095 0.0527278 -0.492547 -0.566513 0.660652 1 
0.070164 0.285419 0.0526756 -0.935098 0.152417 0.319938 1 
0.0700245 0.285585 0.0526194 -0.886686 -0.0282556 0.461507 1 
0.0699899 0.285497 0.0529816 -0.937633 0.0400919 0.345308 1 
0.0701286 0.285743 0.0521154 -0.75163 -0.222532 0.620912 1 
0.0701916 0.285673 0.0524633 -0.844842 -0.0261008 0.534379 1 
0.0700457 0.28529 0.0524122 -0.777654 0.248787 0.577373 1 
0.0700248 0.285179 0.0521347 -0.787561 0.282512 0.547663 1 
0.0698151 0.285783 0.0521227 -0.670449 -0.362272 0.6475 1 
0.0698642 0.285435 0.0520433 -0.8163 0.219007 0.5345 1 
0.0695647 0.285347 0.0519933 -0.808532 0.193378 0.555771 1 
0.0701849 0.285531 0.0529532 -0.953193 0.0681771 0.294576 1 
0.0698297 0.285145 0.052163 -0.818031 0.293612 0.494587 1 
0.0698778 0.285614 0.0516459 -0.763494 -0.0410785 0.644508 1 
0.0701359 0.285374 0.0517232 -0.703342 0.45393 0.547044 1 
0.0694877 0.285546 0.0517027 -0.756149 -0.088873 0.648336 1 
0.0688387 0.286936 0.0531365 -0.505528 0.787982 0.351462 1 
0.0687267 0.287355 0.0528681 -0.449721 -0.433486 0.780923 1 
0.0691034 0.286838 0.0527239 -0.388313 -0.508544 0.768502 1 
0.069013 0.286655 0.0525882 -0.417424 -0.613662 0.670206 1 
0.0693824 0.28671 0.0530786 -0.443306 -0.50593 0.739942 1 
0.0694107 0.28625 0.0527215 -0.489334 -0.576775 0.654127 1 
0.0691526 0.28649 0.0526444 -0.46794 -0.588698 0.659141 1 
0.0692156 0.286216 0.0527499 -0.501653 -0.551986 0.666075 1 
0.068797 0.286712 0.0525814 -0.39504 -0.652891 0.646279 1 
0.0687204 0.286604 0.0526308 -0.500773 -0.612056 0.612056 1 
0.0687555 0.286385 0.0526086 -0.572176 -0.521541 0.632938 1 
0.0691878 0.286067 0.0523799 -0.523617 -0.560658 0.641473 1 
0.0690903 0.28605 0.0523941 -0.541745 -0.575499 0.612628 1 
0.0688114 0.285975 0.0517969 -0.602667 -0.541893 0.585785 1 
0.0683648 0.286827 0.0525677 -0.537868 -0.537868 0.649151 1 
0.0684976 0.286421 0.0522891 -0.761005 -0.479515 0.436964 1 
0.0690482 0.28593 0.0512565 -0.707129 -0.447571 0.547401 1 
0.0691112 0.285657 0.0513621 -0.773381 -0.142111 0.617807 1 
0.0690273 0.285818 0.050979 -0.780714 0.101068 0.616661 1 
0.0690973 0.285582 0.0511771 -0.777011 0.235127 0.583926 1 
0.0689577 0.285747 0.0511209 -0.760245 0.0890115 0.643509 1 
0.06847 0.285866 0.0514342 -0.76564 -0.316208 0.560185 1 
0.0686927 0.28595 0.0509512 -0.824794 0.258425 0.502923 1 
0.0686372 0.28575 0.0510357 -0.81228 0.287519 0.507478 1 
0.0684422 0.285716 0.0510641 -0.791446 0.320082 0.52073 1 
0.0690764 0.28547 0.0508996 -0.710563 0.36923 0.598973 1 
0.0689089 0.28569 0.0507156 -0.752323 0.327027 0.571894 1 
0.0686299 0.285817 0.0503608 -0.719247 0.206609 0.663323 1 
0.0686655 0.28529 0.0506787 -0.73826 0.345603 0.57925 1 
0.0686377 0.285141 0.0503086 -0.738309 0.321496 0.592909 1 
0.0686026 0.285361 0.0503307 -0.708194 0.265772 0.654085 1 
0.0678912 0.286009 0.0504471 0.0983968 0.951169 -0.292567 1 
0.0680866 0.285939 0.0510011 -0.756813 0.31333 0.573636 1 
0.0680448 0.285715 0.050446 -0.662025 0.172769 0.729297 1 
0.0681358 0.285388 0.0506793 -0.694162 0.304401 0.652287 1 
0.0681988 0.285317 0.0510272 -0.745866 0.349371 0.567118 1 
0.0683521 0.285127 0.0504437 -0.713975 0.318941 0.623311 1 
0.0678014 0.285316 0.0504091 -0.504668 0.541554 0.672332 1 
0.0678575 0.285005 0.0504221 -0.538213 0.494619 0.682407 1 
0.0692579 0.285628 0.0523356 -0.791734 -0.138665 0.594919 1 
0.0693349 0.285429 0.0526262 -0.751661 0.04689 0.657881 1 
0.0692721 0.285296 0.0520359 -0.814164 0.166431 0.556271 1 
0.0695582 0.285002 0.0522408 -0.739433 0.398408 0.542688 1 
0.0692446 0.285043 0.0522482 -0.767178 0.287493 0.573398 1 
0.0693902 0.285529 0.0517169 -0.727094 -0.233989 0.645433 1 
0.0691607 0.285204 0.051865 -0.772667 0.256507 0.580681 1 
0.0688051 0.285427 0.051802 -0.849033 0.142239 0.508833 1 
0.0688051 0.285427 0.051802 -0.849033 0.142239 0.508833 1 
0.0689027 0.285241 0.0515455 -0.791825 0.306257 0.528412 1 
0.0688542 0.285079 0.0517225 -0.805635 0.314973 0.501741 1 
0.069035 0.285142 0.0509267 -0.708891 0.340594 0.617632 1 
0.0688265 0.284726 0.0511101 -0.749687 0.356142 0.557793 1 
0.0687153 0.284734 0.051764 -0.71464 0.429447 0.552146 1 
0.0686596 0.284435 0.0510238 -0.841874 0.26626 0.469418 1 
0.0684708 0.285152 0.0512894 -0.763762 0.368098 0.530255 1 
0.0687153 0.284734 0.051764 -0.71464 0.429447 0.552146 1 
0.0682759 0.284915 0.0510754 -0.774263 0.366926 0.515637 1 
0.0685265 0.284945 0.0507201 -0.757077 0.358274 0.546328 1 
0.0683389 0.284641 0.051181 -0.798675 0.336368 0.498973 1 
0.0682762 0.284509 0.0505907 -0.801994 0.150841 0.577973 1 
0.0681784 0.284898 0.0510896 -0.785332 0.313814 0.533643 1 
0.0679206 0.284732 0.0505277 -0.68839 0.136478 0.712386 1 
0.0681995 0.284604 0.0508824 -0.83135 0.228124 0.506771 1 
0.0680045 0.28457 0.0509108 -0.807873 0.200059 0.554363 1 
0.067635 0.284718 0.0506628 -0.625291 0.226103 0.746919 1 
0.0683656 0.285306 0.0500464 -0.623475 0.208856 0.75343 1 
0.0684006 0.28529 0.0502666 -0.68127 0.223958 0.696932 1 
0.0677314 0.285552 0.0502109 0.131219 0.976016 -0.173708 1 
0.0684573 0.284468 0.0503772 -0.78237 0.0763639 0.618115 1 
0.0683183 0.284123 0.0504187 -0.877417 0.031191 0.478714 1 
0.0682414 0.284322 0.0501281 -0.703969 0.029626 0.709612 1 
0.067628 0.28468 0.0505702 -0.589132 0.174165 0.789044 1 
0.0702897 0.285481 0.0536139 -0.976842 0.08724 0.195368 1 
0.0694609 0.285084 0.0530797 -0.812851 0.229819 0.535217 1 
0.069552 0.284554 0.0530706 -0.77367 0.315555 0.549418 1 
0.0687088 0.284389 0.0520114 -0.691572 0.441606 0.571588 1 
0.0683674 0.28428 0.0516488 -0.788868 0.348644 0.506097 1 
0.0684513 0.284119 0.0520318 -0.698089 0.42615 0.575385 1 
0.0682562 0.284085 0.0520602 -0.72398 0.379228 0.576229 1 
0.067698 0.284444 0.0507683 -0.77122 0.0586642 0.63386 1 
0.067775 0.284245 0.0510589 -0.836698 0.130413 0.531911 1 
0.0676775 0.284228 0.0510731 -0.845116 0.0602653 0.531176 1 
0.0677405 0.283955 0.0511787 -0.942977 -0.0087894 0.332742 1 
0.0683121 0.283373 0.0501814 -0.867414 -0.274959 0.414718 1 
0.0683681 0.283265 0.0504368 -0.951132 -0.134356 0.278023 1 
0.0682913 0.283261 0.0499039 -0.962979 -0.0959143 0.251935 1 
0.0679636 0.283127 0.0489015 -0.862776 -0.315275 0.395247 1 
0.0680965 0.28282 0.0494475 -0.859635 -0.312175 0.404444 1 
0.0675452 0.284025 0.0506247 -0.770626 -0.145713 0.620406 1 
0.0677965 0.283545 0.050367 -0.774756 -0.339862 0.533148 1 
0.0678176 0.28325 0.0501598 -0.793418 -0.368545 0.48442 1 
0.0677201 0.283233 0.050174 -0.752654 -0.408303 0.516527 1 
0.0676363 0.283192 0.0495485 -0.760077 -0.416816 0.498545 1 
0.0677619 0.282952 0.0494197 -0.859635 -0.312175 0.404444 1 
0.0676435 0.282823 0.0491563 -0.859635 -0.312175 0.404444 1 
0.0674415 0.282752 0.0490921 -0.862776 -0.315275 0.395247 1 
0.0675317 0.282836 0.0484031 0.0707674 0.372531 0.925318 1 
0.0704297 0.285009 0.0540101 -0.916701 0.00646475 0.399521 1 
0.0702417 0.285012 0.054131 -0.893569 0.0362803 0.447457 1 
0.0699492 0.284961 0.0541735 -0.868395 0.0858543 0.488384 1 
0.0702768 0.284792 0.0541088 -0.858995 0.0315102 0.511013 1 
0.0701862 0.284813 0.0542156 -0.848133 -0.0149751 0.529572 1 
0.07041 0.284079 0.0541701 -0.803159 -0.0730144 0.591274 1 
0.0705151 0.283623 0.0543461 -0.788154 -0.132101 0.601134 1 
0.0706756 0.283367 0.0544375 -0.773927 -0.107204 0.624135 1 
0.0703395 0.284623 0.0536321 -0.84838 0.151444 0.507264 1 
0.0699633 0.284629 0.0538738 -0.826088 0.102718 0.554101 1 
0.07034 0.284316 0.053972 -0.825971 -0.0262872 0.563099 1 
0.0699916 0.284169 0.0535168 -0.784107 0.138899 0.604883 1 
0.0698238 0.28429 0.0525081 -0.651525 0.399535 0.644893 1 
0.0699639 0.283817 0.0529044 -0.719253 0.321643 0.61581 1 
0.0706823 0.283508 0.0539476 -0.788242 -0.0976196 0.607573 1 
0.0707168 0.283596 0.0535855 -0.843048 -0.0603179 0.534445 1 
0.0703475 0.283843 0.0541622 -0.794869 -0.122401 0.594308 1 
0.0700894 0.284082 0.054085 -0.786307 -0.070437 0.613808 1 
0.0701386 0.283734 0.0540055 -0.78623 -0.122895 0.60559 1 
0.0704316 0.283478 0.0543029 -0.788154 -0.132101 0.601134 1 
0.0702366 0.283444 0.0543313 -0.790481 -0.158096 0.591731 1 
0.0704313 0.283582 0.0537206 -0.819284 -0.112451 0.562254 1 
0.0704243 0.283544 0.0536281 -0.834455 -0.0546953 0.548356 1 
0.0700548 0.283692 0.05338 -0.767286 -0.0676594 0.637726 1 
0.0704597 0.283221 0.0541883 -0.812862 -0.0348569 0.581412 1 
0.069636 0.284392 0.0534538 -0.789724 0.193994 0.581982 1 
0.06972 0.284027 0.0535945 -0.763446 -0.0352794 0.644907 1 
0.0694547 0.284334 0.0528425 -0.726523 0.328472 0.603548 1 
0.0694967 0.284151 0.0529129 -0.728327 0.307087 0.612566 1 
0.0695313 0.284239 0.0525507 -0.651206 0.384129 0.654504 1 
0.0696016 0.283898 0.0533312 -0.780785 -0.0237448 0.624349 1 
0.0692251 0.284009 0.0529906 -0.68824 0.33029 0.645937 1 
0.0691551 0.284245 0.0527925 -0.676198 0.334026 0.656645 1 
0.0691412 0.284171 0.0526075 -0.671839 0.34491 0.655492 1 
0.0700202 0.283605 0.0537421 -0.794688 -0.0822092 0.601425 1 
0.0697068 0.283442 0.0535071 0.19902 0.978212 0.0591028 1 
0.0699503 0.283638 0.0533016 -0.75923 -0.0181101 0.65057 1 
0.0696578 0.283587 0.0533442 0.193664 0.978062 0.0767347 1 
0.0698253 0.283368 0.0535281 0.193664 0.978062 0.0767347 1 
0.0698674 0.282982 0.0533561 0.214967 0.974108 0.0700179 1 
0.0686956 0.283903 0.0527488 -0.671079 0.347785 0.654751 1 
0.0690514 0.283478 0.0525694 -0.573257 0.489201 0.657312 1 
0.0690935 0.283295 0.0526398 0.250103 0.967146 -0.0455852 1 
0.0688278 0.284008 0.0523725 -0.741184 0.321341 0.589395 1 
0.0688909 0.283734 0.052478 -0.638881 0.362963 0.678298 1 
0.0686541 0.283476 0.0519512 -0.82274 0.192427 0.534856 1 
0.0682984 0.283699 0.0518882 -0.860216 0.134907 0.49176 1 
0.0680966 0.283123 0.0505146 -0.952164 -0.142492 0.270335 1 
0.0681732 0.283028 0.0502229 -0.996838 0.00528546 0.0792819 1 
0.0681944 0.282733 0.0500157 -0.784216 -0.392916 0.480231 1 
0.0682576 0.282257 0.0498789 -0.815521 -0.364043 0.449888 1 
0.0678392 0.282347 0.0492255 -0.894982 -0.227787 0.383564 1 
0.0676024 0.282089 0.0486988 0.0707674 0.372531 0.925318 1 
0.0600541 0.276801 0.0440485 -0.212388 -0.748785 0.627863 1 
0.0601938 0.276433 0.0438624 -0.265048 -0.738007 0.620561 1 
0.0602711 0.275827 0.0436682 -0.256507 -0.772667 0.580681 1 
0.0601735 0.27581 0.0436824 -0.256507 -0.772667 0.580681 1 
0.0602782 0.275662 0.0435184 -0.27579 -0.731721 0.623318 1 
0.0609685 0.276214 0.0468106 -0.509049 -0.754572 0.414114 1 
0.0610382 0.276082 0.0464263 -0.509049 -0.754572 0.414114 1 
0.0611428 0.275933 0.0462622 -0.509049 -0.754572 0.414114 1 
0.0612754 0.27573 0.0462259 -0.509049 -0.754572 0.414114 1 
0.0609477 0.275899 0.0462906 -0.509049 -0.754572 0.414114 1 
0.0610803 0.275696 0.0462543 -0.509049 -0.754572 0.414114 1 
0.060613 0.276233 0.0465052 -0.400609 -0.783378 0.475217 1 
0.0608711 0.275994 0.0465824 -0.509049 -0.754572 0.414114 1 
0.0606761 0.27596 0.0466108 -0.509049 -0.754572 0.414114 1 
0.0606761 0.27596 0.0466108 -0.509049 -0.754572 0.414114 1 
0.0609133 0.275608 0.0464104 -0.509049 -0.754572 0.414114 1 
0.0606972 0.275665 0.0464035 -0.509049 -0.754572 0.414114 1 
0.0606833 0.275893 0.0472856 -0.839551 -0.426811 -0.336133 1 
0.0609272 0.275381 0.0455283 -0.281778 -0.743447 0.606538 1 
0.0608855 0.275459 0.0460403 -0.509049 -0.754572 0.414114 1 
0.0608507 0.275272 0.0455777 -0.281778 -0.743447 0.606538 1 
0.0590639 0.278484 0.0470115 -0.898831 0.438294 0.00130834 1 
0.0596858 0.277038 0.0474395 0.730687 0.656849 0.186133 1 
0.0593987 0.278451 0.047864 -0.925867 0.361347 -0.110449 1 
0.0592812 0.277708 0.0482807 -0.991986 0.125245 -0.0166255 1 
0.059225 0.27792 0.0474428 -0.843519 0.529519 0.0899183 1 
0.059469 0.277809 0.0475774 -0.930865 0.341363 0.130239 1 
0.0593089 0.277758 0.047826 -0.925393 0.299935 0.231704 1 
0.0591903 0.277832 0.047805 -0.888049 0.427364 0.169497 1 
0.0591766 0.277555 0.0473776 -0.700481 0.70638 0.101754 1 
0.0593161 0.277389 0.0474338 -0.648923 0.735241 0.195756 1 
0.0588554 0.278068 0.0471948 -0.751398 0.65973 0.0125002 1 
0.0589953 0.277798 0.0478334 -0.856874 0.494856 0.144515 1 
0.0590024 0.277632 0.0476835 -0.801969 0.568504 0.183437 1 
0.0593792 0.277115 0.0475394 0.0968808 0.885968 0.453514 1 
0.0596161 0.27717 0.0478237 0.843361 0.479078 -0.243365 1 
0.0594981 0.276937 0.0481427 0.858307 0.411432 -0.306648 1 
0.0590446 0.277247 0.0475115 -0.644582 0.63792 0.421393 1 
0.0600487 0.276748 0.0481773 0.828292 0.410187 0.38168 1 
0.0598326 0.276806 0.0481706 0.820832 0.488105 0.296629 1 
0.0598606 0.276752 0.0482983 0.836065 0.44538 0.320361 1 
0.0601399 0.276218 0.0481683 0.740619 0.483299 0.466804 1 
0.0599167 0.276441 0.0483113 0.7126 0.393329 0.580942 1 
0.0599658 0.276093 0.0482318 0.631916 0.527439 0.567882 1 
0.0598261 0.276461 0.048418 0.756953 0.299261 0.580917 1 
0.0597363 0.275768 0.04838 0.531359 0.314347 0.786666 1 
0.0597502 0.275843 0.048565 0.435642 0.273614 0.857527 1 
0.0597084 0.275822 0.0482522 0.568022 0.441425 0.694619 1 
0.0598445 0.27801 0.0461708 -0.940766 -0.334408 0.0559515 1 
0.0592943 0.27759 0.0454091 -0.824831 -0.536366 0.178789 1 
0.0589656 0.278576 0.0450362 -0.902483 -0.331254 0.275309 1 
0.0587914 0.278654 0.0453421 -0.927728 -0.319567 0.192866 1 
0.058541 0.278217 0.0452126 -0.912337 -0.394562 0.10937 1 
0.0590641 0.278281 0.0467691 -0.949264 0.31392 -0.0187602 1 
0.0590641 0.278281 0.0467691 -0.949264 0.31392 -0.0187602 1 
0.0589668 0.277857 0.0462985 -0.998507 -0.0546139 0.00103045 1 
0.058862 0.277907 0.0456378 -0.90214 -0.398886 0.164415 1 
0.05896 0.277617 0.0459636 -0.976832 -0.213277 -0.0176749 1 
0.0590436 0.277559 0.0457644 -0.926848 -0.374628 0.0246295 1 
0.0591967 0.277573 0.0454233 -0.824831 -0.536366 0.178789 1 
0.0588621 0.277704 0.0453955 -0.859166 -0.484846 0.16358 1 
0.0592944 0.277386 0.0451667 -0.809312 -0.562148 0.170302 1 
0.0587496 0.27843 0.044787 -0.917219 -0.366607 0.155913 1 
0.0586521 0.278413 0.0448012 -0.936328 -0.312109 0.160867 1 
0.0584922 0.278159 0.0448074 -0.902876 -0.400803 0.155472 1 
0.0590847 0.277991 0.0451548 -0.857448 -0.491017 0.153901 1 
0.0590708 0.277917 0.0449697 -0.864278 -0.47129 0.17581 1 
0.0589178 0.2777 0.0450685 -0.847264 -0.503017 0.17064 1 
0.0587572 0.277957 0.0449771 -0.879424 -0.473325 0.0507624 1 
0.0589182 0.277091 0.0443414 -0.680436 -0.657701 0.323167 1 
0.0586465 0.277152 0.0446616 -0.819082 -0.554478 0.147167 1 
0.0593782 0.277428 0.0457922 -0.815719 -0.545331 0.192917 1 
0.0601808 0.276551 0.0467339 -0.668315 -0.743657 -0.018138 1 
0.0602713 0.276531 0.0466272 -0.670274 -0.741127 0.0382609 1 
0.0602574 0.276456 0.0464422 -0.688449 -0.715214 0.120441 1 
0.0590853 0.277783 0.0463196 -0.985245 0.170501 0.0148759 1 
0.0591275 0.277398 0.0461476 -0.878344 -0.473168 -0.0679919 1 
0.0593017 0.27732 0.0458416 -0.817298 -0.568492 0.0940254 1 
0.0596081 0.277143 0.044917 -0.693379 -0.654768 0.300839 1 
0.0595316 0.277035 0.0449663 -0.526956 -0.746931 0.405477 1 
0.0598378 0.277265 0.0445265 -0.408492 -0.776298 0.4801 1 
0.0596503 0.276758 0.044745 -0.40151 -0.772135 0.492541 1 
0.059943 0.276605 0.04446 -0.225621 -0.760886 0.608398 1 
0.0599221 0.276494 0.0441825 -0.212388 -0.748785 0.627863 1 
0.0598455 0.276588 0.0444742 -0.225923 -0.752557 0.618561 1 
0.0592947 0.27698 0.044682 -0.750693 -0.623246 0.219146 1 
0.0592318 0.277051 0.044334 -0.688482 -0.652843 0.315892 1 
0.059532 0.276426 0.0442392 -0.212388 -0.748785 0.627863 1 
0.059176 0.277258 0.0449033 -0.848824 -0.522898 0.0779388 1 
0.0587652 0.277177 0.0455073 -0.864278 -0.47129 0.17581 1 
0.0591764 0.276648 0.0441762 -0.188416 -0.761322 0.620393 1 
0.0599433 0.276199 0.0439753 -0.265048 -0.738007 0.620561 1 
0.0596087 0.276331 0.0439475 -0.202822 -0.741615 0.63943 1 
0.0594064 0.276364 0.043301 -0.223879 -0.70921 0.668505 1 
0.0592951 0.276371 0.0439549 -0.212388 -0.748785 0.627863 1 
0.0592742 0.276259 0.0436773 -0.21303 -0.741719 0.635981 1 
0.0599016 0.275975 0.0434202 -0.278056 -0.748367 0.602189 1 
0.0596509 0.275945 0.0437755 -0.223879 -0.70921 0.668505 1 
0.0603135 0.276145 0.0464552 -0.400609 -0.783378 0.475217 1 
0.062816 0.286781 0.0446811 -0.964052 -0.25582 0.0718313 1 
0.0634023 0.28556 0.0437241 -0.983018 0.0629987 0.172355 1 
0.0634723 0.285324 0.0439222 -0.976934 0.0594655 0.205095 1 
0.0635144 0.285142 0.0439926 -0.98561 -0.0478225 0.16213 1 
0.0635774 0.284868 0.0440982 -0.97061 0.123071 -0.20681 1 
0.0630461 0.286596 0.0446306 -0.935302 -0.352823 -0.0269429 1 
0.0629004 0.28601 0.0443372 -0.989685 -0.13944 0.0328761 1 
0.0630254 0.286281 0.0441107 -0.947783 -0.316776 0.0368936 1 
0.0631932 0.285655 0.0438098 -0.987713 0.0403384 0.150981 1 
0.0630466 0.285986 0.0439035 -0.994651 -0.0958301 0.0385524 1 
0.062587 0.285847 0.0441021 -0.991947 -0.0188415 0.12524 1 
0.0629424 0.285828 0.0444075 -0.997187 -0.0747627 -0.00526498 1 
0.063235 0.285879 0.044365 -0.997187 -0.0747627 -0.00526498 1 
0.0632141 0.285767 0.0440874 -0.997778 -0.0659601 0.00942288 1 
0.0632006 0.285385 0.0442423 -0.979251 0.0319707 0.200113 1 
0.0632563 0.285381 0.0439154 -0.976934 0.0594655 0.205095 1 
0.0632773 0.28529 0.0439506 -0.968097 0.100235 0.229653 1 
0.0633543 0.285091 0.0442412 -0.938336 0.128632 0.320903 1 
0.0631529 0.284509 0.0442747 -0.518403 -0.320612 0.792758 1 
0.0631184 0.284219 0.0443944 -0.885904 0.271317 -0.376247 1 
0.0634357 0.286367 0.0420996 -0.900817 0.396359 0.177281 1 
0.0630108 0.286112 0.0416938 -0.995777 0.064918 -0.064918 1 
0.0632748 0.286727 0.0414259 -0.902934 0.390263 -0.180011 1 
0.0632825 0.286051 0.0413736 -0.999469 0.0173554 0.0275645 1 
0.0629477 0.286386 0.0415882 -0.978683 0.198138 -0.0540377 1 
0.0629903 0.285391 0.0406891 -0.989858 -0.0213477 0.140445 1 
0.0629203 0.285627 0.040491 -0.989858 -0.0213477 0.140445 1 
0.0629067 0.286256 0.0432649 -0.97941 -0.201472 0.0128104 1 
0.0627808 0.286397 0.042569 -0.672512 0.712708 0.199435 1 
0.0628085 0.286447 0.0421144 -0.900817 0.396359 0.177281 1 
0.0627527 0.286352 0.0416166 -0.948787 0.314578 -0.0290574 1 
0.062781 0.286194 0.0423267 -0.900817 0.396359 0.177281 1 
0.0628297 0.286153 0.0419072 -0.999956 0.00890169 -0.00296723 1 
0.0627949 0.285966 0.0414446 -0.999469 0.0173554 0.0275645 1 
0.0628094 0.285228 0.0406601 -0.953875 -0.169905 0.247499 1 
0.0624398 0.285376 0.0404121 -0.913819 -0.181053 0.363532 1 
0.0636109 0.285773 0.0432985 -0.991934 -0.120473 0.0394071 1 
0.0633253 0.28576 0.0434335 -0.995473 0.0227971 0.0922739 1 
0.0631366 0.285971 0.0423897 -0.827856 0.516839 0.218017 1 
0.0635065 0.284912 0.0408435 -0.918483 -0.102662 0.381903 1 
0.0631514 0.284827 0.0411205 -0.96112 -0.134322 0.241258 1 
0.0636131 0.283836 0.0431065 -0.457144 -0.540262 0.706496 1 
0.0640597 0.283286 0.0434028 -0.368207 0.23618 0.899246 1 
0.0636344 0.283338 0.042657 -0.387161 0.690301 0.611221 1 
0.0629279 0.285961 0.0430578 -0.951138 0.244887 0.188063 1 
0.0630045 0.285867 0.042766 -0.992991 0.0689106 0.096023 1 
0.0631093 0.285817 0.0434267 -0.986634 0.0862567 0.138247 1 
0.063194 0.284941 0.0436651 -0.995771 -0.0117906 0.0911093 1 
0.0628664 0.28511 0.0437298 -0.978879 0.0442229 0.1996 1 
0.0628664 0.28511 0.0437298 -0.978879 0.0442229 0.1996 1 
0.0628875 0.284816 0.0435226 -0.995376 0.00966385 0.0955647 1 
0.0627135 0.284691 0.0435862 -0.996942 0.0507652 0.0594061 1 
0.0623721 0.284582 0.0432234 -0.783705 -0.145352 0.603887 1 
0.0623931 0.28449 0.0432586 -0.653059 0.609633 -0.449291 1 
0.0629563 0.284793 0.0411489 -0.939743 0.313248 -0.136961 1 
0.0629214 0.28481 0.0409286 -0.918483 -0.102662 0.381903 1 
0.0625663 0.284725 0.0412056 -0.828965 0.16878 -0.533226 1 
0.0616823 0.284326 0.0424055 -0.934495 -0.0866507 0.34527 1 
0.0616684 0.284252 0.0422204 -0.934495 -0.0866507 0.34527 1 
0.0619962 0.28388 0.0419134 -0.777193 0.400765 0.485137 1 
0.0627905 0.284492 0.0438768 -0.802743 0.311914 -0.508246 1 
0.0631944 0.284332 0.0429379 0.699638 -0.411844 0.583859 1 
0.0633411 0.284001 0.0428443 -0.511616 -0.521681 0.682714 1 
0.063425 0.283839 0.0432274 -0.473857 -0.50711 0.71993 1 
0.0632226 0.283872 0.0425809 -0.529025 -0.485635 0.69591 1 
0.0630071 0.283622 0.0429141 -0.509574 -0.473057 0.718715 1 
0.0631465 0.28366 0.0432127 -0.511616 -0.521681 0.682714 1 
0.0633206 0.283582 0.0429067 -0.476882 -0.500144 0.7228 1 
0.0634746 0.283184 0.043488 -0.40906 -0.737622 0.537199 1 
0.0630771 0.283386 0.0431122 -0.484985 -0.585674 0.649443 1 
0.0628751 0.283314 0.0430481 -0.501575 -0.501575 0.704872 1 
0.0623868 0.283943 0.0432637 -0.533109 -0.519655 0.667648 1 
0.0624982 0.284034 0.0434346 -0.516215 -0.50285 0.693299 1 
0.0627772 0.283402 0.0424798 -0.316035 0.758805 0.569505 1 
0.0630142 0.283456 0.0427642 -0.501575 -0.501575 0.704872 1 
0.0628192 0.283422 0.0427926 -0.50191 -0.505245 0.702007 1 
0.0622963 0.283458 0.042061 -0.409841 -0.814899 0.409841 1 
0.0623243 0.283404 0.0421886 -0.419455 0.785466 0.455084 1 
0.0621921 0.2833 0.042565 -0.419455 0.785466 0.455084 1 
0.0620107 0.283444 0.042196 -0.507679 -0.517732 0.688634 1 
0.0620037 0.283407 0.0421035 -0.435844 -0.745047 0.504921 1 
0.0625057 0.283259 0.0425576 -0.364124 0.775179 0.516247 1 
0.0625266 0.283371 0.0428352 -0.500639 -0.520732 0.691519 1 
0.0638092 0.283052 0.0435158 -0.414293 0.207883 0.886085 1 
0.0617112 0.283356 0.0421461 -0.584042 -0.584042 0.563728 1 
0.0616903 0.283244 0.0418685 -0.611251 -0.332378 0.71826 1 
0.0536946 0.28396 0.0519088 -0.958087 -0.149329 -0.244477 1 
0.0537646 0.283723 0.0521069 -0.946079 0.242339 0.214956 1 
0.0536181 0.283851 0.0519582 -0.941268 0.250912 0.22596 1 
0.0536811 0.283781 0.0523061 -0.946079 0.242339 0.214956 1 
0.053486 0.283747 0.0523345 -0.94447 0.235086 0.229587 1 
0.0538416 0.283524 0.0523975 -0.94447 0.235086 0.229587 1 
0.0535701 0.283382 0.0524752 -0.904252 0.283774 0.319061 1 
0.0535982 0.283125 0.0523606 -0.977523 0.208364 0.0321475 1 
0.0536193 0.283034 0.0523958 -0.977523 0.208364 0.0321475 1 
0.0538757 0.283919 0.0516954 -0.958087 -0.149329 -0.244477 1 
0.0535144 0.283084 0.0517351 -0.907783 0.267511 0.32306 1 
0.0535568 0.282797 0.0523878 -0.97061 0.20681 -0.123071 1 
0.0534726 0.283365 0.0524894 -0.907783 0.267511 0.32306 1 
0.0533265 0.283186 0.0526807 -0.977523 0.208364 0.0321475 1 
0.0535146 0.283183 0.0525598 -0.977523 0.208364 0.0321475 1 
0.0533826 0.282875 0.0526938 -0.953427 0.203631 -0.222511 1 
0.0535217 0.283017 0.05241 -0.977523 0.208364 0.0321475 1 
0.0535637 0.282834 0.0524804 -0.97061 0.20681 -0.123071 1 
0.0534248 0.28249 0.0525218 -0.95092 0.148456 -0.2715 1 
0.0533826 0.282875 0.0526938 -0.953427 0.203631 -0.222511 1 
0.0534457 0.282601 0.0527993 -0.958584 0.216712 -0.184803 1 
0.0534667 0.28251 0.0528345 -0.964988 0.24727 -0.0874956 1 
0.0530047 0.283908 0.0513332 -0.877979 0.353315 0.322987 1 
0.0534039 0.282378 0.0522442 -0.973172 0.188071 -0.132533 1 
0.0534879 0.282216 0.0526274 -0.979993 0.0737109 -0.184881 1 
0.0531744 0.282053 0.0523923 -0.944894 0.170435 -0.279514 1 
0.0531746 0.28185 0.05215 -0.944898 0.167227 -0.28143 1 
0.0532796 0.281394 0.0523259 -0.982418 -0.0781605 -0.169548 1 
0.0534465 0.281383 0.0513451 -0.0707674 -0.372531 -0.925318 1 
0.0534745 0.281329 0.0514728 -0.0707674 -0.372531 -0.925318 1 
0.0531612 0.281265 0.0520625 -0.9754 -0.074842 -0.207349 1 
0.0529658 0.28184 0.052818 -0.955734 -0.0758927 -0.284276 1 
0.0528611 0.282796 0.0553587 -0.976799 -0.0058491 -0.214077 1 
0.0527427 0.282667 0.0550953 -0.955982 -0.00859034 -0.293299 1 
0.0530566 0.282221 0.0546032 -0.969616 -0.244491 -0.00834847 1 
0.0528124 0.282535 0.054711 -0.972537 -0.0832184 -0.217361 1 
0.052722 0.282352 0.0545754 -0.982791 -0.184632 -0.0057339 1 
0.0527571 0.282133 0.0545532 -0.969616 -0.244491 -0.00834847 1 
0.0527219 0.282556 0.0548177 -0.972537 -0.0832184 -0.217361 1 
0.0525617 0.282505 0.0550664 -0.955982 -0.00859034 -0.293299 1 
0.0527849 0.282282 0.0549233 -0.970772 -0.0706692 -0.229365 1 
