0.0836995 0.232352 0.0249745 0.496847 -0.823925 0.272565 1 
0.083622 0.232026 0.0253585 0.348263 -0.884981 0.309065 1 
0.083459 0.231631 0.0242872 0.184176 -0.945435 0.26876 1 
0.0835049 0.231828 0.025141 0.310895 -0.915334 0.255946 1 
0.0833055 0.231496 0.0245843 0.423881 -0.855469 0.297487 1 
0.0831124 0.23149 0.0242798 0.422143 -0.87283 0.244873 1 
0.0832069 0.231604 0.0244476 0.434862 -0.859044 0.270072 1 
0.0834097 0.231685 0.0242188 0.184176 -0.945435 0.26876 1 
0.0835778 0.231703 0.0241119 0.236891 -0.946193 0.220459 1 
0.083594 0.231461 0.0239093 0.285137 -0.940815 0.183204 1 
0.083287 0.231191 0.0245035 0.422143 -0.87283 0.244873 1 
0.0833015 0.231074 0.0246936 0.422143 -0.87283 0.244873 1 
0.0835755 0.231156 0.0238286 0.120263 -0.990741 -0.0629951 1 
0.0838371 0.231443 0.0250365 0.158458 -0.935589 0.315537 1 
0.0834348 0.23103 0.0247085 0.422143 -0.87283 0.244873 1 
0.0827982 0.228202 0.0299632 -0.579217 -0.698712 -0.419891 1 
0.0825947 0.228092 0.0294375 -0.497483 -0.768244 -0.40288 1 
0.0826447 0.228068 0.0302603 -0.487748 -0.682177 -0.544736 1 
0.0826738 0.227834 0.0306406 -0.632822 -0.518071 -0.575446 1 
0.0830262 0.227628 0.0302241 -0.676202 -0.491631 -0.54868 1 
0.0831102 0.227637 0.0301707 -0.705892 -0.485613 -0.515651 1 
0.0814436 0.229454 0.0330967 -0.227083 -0.836701 -0.498363 1 
0.0818435 0.22932 0.0331414 -0.227083 -0.836701 -0.498363 1 
0.0822055 0.22873 0.0341716 0.120864 -0.528598 -0.840224 1 
0.0817644 0.228475 0.0339964 -0.305333 -0.372172 -0.876504 1 
0.0817952 0.228116 0.033984 0.718873 -0.424713 -0.55031 1 
0.0823382 0.228012 0.0335103 -0.94153 0.122574 -0.313843 1 
0.0824221 0.228665 0.0333786 -0.582725 -0.404441 -0.704883 1 
0.0826725 0.228817 0.033611 -0.339395 -0.586228 -0.735627 1 
0.0826192 0.228449 0.033652 0.740248 -0.427003 -0.519328 1 
0.0821914 0.227375 0.0322364 -0.517193 0.839134 -0.168423 1 
0.0821729 0.22707 0.0321556 -0.90293 0.381173 -0.198558 1 
0.0822401 0.226648 0.0316286 -0.800852 -0.0883399 -0.592312 1 
0.0823346 0.226762 0.0317964 -0.866983 0.0654064 -0.494027 1 
0.081929 0.2266 0.0322539 -0.767178 -0.287493 -0.573398 1 
0.0820769 0.226439 0.0324589 -0.45763 0.70059 0.547492 1 
0.0821359 0.22646 0.0319941 -0.645458 0.668451 0.369537 1 
0.0824332 0.226654 0.0319331 -0.856776 -0.0863857 -0.508401 1 
0.0822837 0.226298 0.0321991 -0.76847 0.51827 0.375299 1 
0.0823571 0.227489 0.0317678 -0.750345 -0.175743 -0.637258 1 
0.0827829 0.227831 0.0309985 -0.686918 -0.398909 -0.607467 1 
0.0828137 0.227472 0.030986 -0.718485 -0.361697 -0.5941 1 
0.0824573 0.227256 0.0315118 -0.72017 -0.296729 -0.627142 1 
0.0823895 0.227005 0.0313627 -0.719011 -0.272618 -0.639298 1 
0.0828937 0.227059 0.0310419 -0.767011 -0.198285 -0.610227 1 
0.0826909 0.226978 0.0312706 -0.742324 -0.264324 -0.615701 1 
0.0827749 0.226987 0.0312172 -0.777425 -0.201669 -0.595769 1 
0.0830205 0.227332 0.0307262 -0.644289 -0.460207 -0.61082 1 
0.0831699 0.227688 0.0304603 -0.710685 -0.457701 -0.534262 1 
0.0830819 0.227257 0.0306231 -0.716933 -0.393901 -0.575195 1 
0.0833566 0.227368 0.0305124 -0.686555 -0.456033 -0.566283 1 
0.0829777 0.227068 0.0309885 -0.751427 -0.243155 -0.613378 1 
0.0833978 0.227113 0.0307212 -0.744217 -0.33887 -0.575593 1 
0.0823919 0.226909 0.0317243 -0.793166 -0.135419 -0.593759 1 
0.0825374 0.226843 0.0315677 -0.772593 -0.135988 -0.620167 1 
0.0826255 0.226631 0.0314832 -0.761247 -0.0982727 -0.640973 1 
0.082636 0.226736 0.0317044 -0.792905 -0.113272 -0.598724 1 
0.0827935 0.226649 0.0313762 -0.765018 -0.12974 -0.630805 1 
0.0829964 0.22673 0.0311475 -0.78592 -0.129253 -0.604668 1 
0.0829705 0.227356 0.0299035 -0.65703 -0.512517 -0.552846 1 
0.0816697 0.226861 0.0313293 -0.791246 -0.0703649 -0.607436 1 
0.0820738 0.226505 0.0313428 -0.773499 -0.0827194 -0.628377 1 
0.081757 0.22616 0.0324701 -0.896639 -0.0815126 -0.435195 1 
0.0820188 0.226262 0.0317766 -0.761128 0.540417 0.358655 1 
0.0818977 0.226286 0.0315902 -0.770474 -0.215485 -0.599947 1 
0.0821061 0.226664 0.0308594 -0.764433 -0.155299 -0.625719 1 
0.0822231 0.226861 0.0310769 -0.754231 -0.243047 -0.60997 1 
0.083078 0.226835 0.0307324 -0.702781 -0.358762 -0.614319 1 
0.0832315 0.22697 0.0304353 -0.731782 -0.381443 -0.564798 1 
0.0833793 0.226808 0.0306404 -0.726123 -0.29654 -0.62033 1 
0.0826667 0.226376 0.0316919 -0.691833 -0.376318 -0.616241 1 
0.0825972 0.226251 0.0319355 -0.534301 0.63206 0.561269 1 
0.0828695 0.226457 0.0314632 -0.711499 -0.272184 -0.647831 1 
0.0829083 0.226299 0.0313103 -0.699311 -0.329374 -0.63441 1 
0.0830126 0.226488 0.0309449 -0.727819 -0.247869 -0.639407 1 
0.0832299 0.226452 0.0309064 -0.74838 -0.216268 -0.627021 1 
0.0833098 0.226682 0.030884 -0.786865 -0.18416 -0.589007 1 
0.0834941 0.226458 0.0305745 -0.733447 -0.29691 -0.611474 1 
0.0820109 0.228206 0.0343381 -0.709693 0.176274 -0.682102 1 
0.0819907 0.228026 0.0346501 -0.709693 0.176274 -0.682102 1 
0.0815246 0.227784 0.0340635 -0.713607 0.192658 -0.673534 1 
0.0815554 0.227425 0.0340511 -0.634997 0.236752 -0.735342 1 
0.0818366 0.227219 0.034271 -0.723183 0.230603 -0.651021 1 
0.0812293 0.226177 0.0338883 -0.949791 0.265402 -0.165708 1 
0.0813957 0.226321 0.0341741 -0.93418 0.205268 -0.291844 1 
0.0815799 0.226097 0.0338646 -0.934666 0.234017 -0.267648 1 
0.0816292 0.226043 0.033933 -0.941511 0.222589 -0.253005 1 
0.081584 0.225875 0.0338335 -0.932288 0.279827 -0.229205 1 
0.0816826 0.225767 0.0339702 -0.937763 0.232699 -0.25778 1 
0.0813918 0.225255 0.0343617 -0.995776 0.0603833 -0.0691664 1 
0.0812141 0.225621 0.033022 -0.914122 0.214495 -0.344055 1 
0.0813766 0.225343 0.0334172 -0.935129 0.219455 -0.278162 1 
0.080841 0.224974 0.0330743 -0.9525 0.175991 -0.248537 1 
0.0808533 0.22431 0.032981 -0.966768 0.0611247 -0.248241 1 
0.081165 0.225031 0.0330319 -0.923651 0.18755 -0.334206 1 
0.081241 0.22484 0.0331189 -0.940272 0.128526 -0.315228 1 
0.08119 0.225019 0.0334433 -0.942099 0.170918 -0.288509 1 
0.0814443 0.225594 0.0335663 -0.943527 0.227273 -0.241047 1 
0.0814443 0.225594 0.0335663 -0.943527 0.227273 -0.241047 1 
0.0815922 0.225432 0.0337714 -0.939108 0.119915 -0.322019 1 
0.0816084 0.22519 0.0335688 -0.890089 0.191464 -0.413621 1 
0.0816327 0.225148 0.0332257 -0.86715 0.226932 -0.443343 1 
0.0814921 0.225022 0.0341057 -0.975224 0.11893 -0.186532 1 
0.0816415 0.225379 0.0338397 -0.936257 0.152159 -0.316655 1 
0.0813128 0.22487 0.033237 -0.933394 0.144339 -0.328544 1 
0.0814276 0.22452 0.0331711 -0.94632 0.0475086 -0.31972 1 
0.0814745 0.224562 0.0328778 -0.852247 0.173414 -0.493562 1 
0.0818113 0.224628 0.0334183 -0.864778 0.214321 -0.454121 1 
0.0817435 0.224376 0.0332692 -0.874237 0.19018 -0.446701 1 
0.0810376 0.224086 0.0326715 -0.914902 0.0943621 -0.392492 1 
0.08132 0.224582 0.034322 -0.97907 0.177679 0.0992549 1 
0.0814946 0.224283 0.0345456 -0.981777 0.185486 0.0413504 1 
0.0811804 0.224301 0.0340548 -0.984919 0.173011 -0.00113079 1 
0.0812789 0.224193 0.0341915 -0.970083 0.190941 0.149934 1 
0.0812628 0.223792 0.0344723 -0.967652 0.150753 -0.202292 1 
0.0811724 0.223457 0.0342735 -0.967224 0.24212 -0.0765248 1 
0.0811047 0.223206 0.0341243 -0.98028 0.193211 0.041487 1 
0.0812049 0.222973 0.0338683 -0.847727 0.321981 -0.42153 1 
0.080604 0.222257 0.0337379 -0.227083 -0.836701 -0.498363 1 
0.081313 0.223583 0.0333935 -0.0520974 -0.564624 -0.823703 1 
0.0812032 0.223098 0.034261 -0.98028 0.193211 0.041487 1 
0.0812357 0.222614 0.0338558 -0.227083 -0.836701 -0.498363 1 
0.0821644 0.228341 0.0340411 0.718873 -0.424713 -0.55031 1 
0.0825376 0.228344 0.0340671 0.718873 -0.424713 -0.55031 1 
0.0818753 0.227703 0.0340399 -0.722682 0.202723 -0.660783 1 
0.0823342 0.22759 0.0336197 -0.867685 0.261971 -0.422485 1 
0.0824143 0.227177 0.0336756 -0.915479 0.244417 -0.319622 1 
0.0822561 0.226591 0.0333276 -0.92746 0.210337 -0.309153 1 
0.0816754 0.226055 0.0328852 -0.913373 0.153876 -0.376925 1 
0.0821738 0.226456 0.0329883 -0.918903 0.352553 -0.176984 1 
0.0820219 0.226196 0.0328926 -0.924136 0.184827 -0.334382 1 
0.0814169 0.225702 0.0327933 -0.904712 0.122031 -0.408172 1 
0.0818063 0.226106 0.0325385 -0.858226 -0.135051 -0.495186 1 
0.0819211 0.225756 0.0324726 -0.850455 -0.0688798 -0.521519 1 
0.0818225 0.225864 0.0323359 -0.724286 -0.250896 -0.642232 1 
0.0819664 0.22528 0.0326502 -0.848528 0.170894 -0.500795 1 
0.0820876 0.225257 0.0328366 -0.851992 0.0867638 -0.516316 1 
0.0818986 0.225029 0.0325011 -0.776175 0.061465 -0.627515 1 
0.0820294 0.225724 0.0320761 -0.747738 0.501231 0.435495 1 
0.082317 0.2252 0.0326266 -0.814097 0.0377026 -0.579503 1 
0.0818672 0.224715 0.0318374 -0.66839 0.172833 -0.723452 1 
0.0823333 0.224958 0.032424 -0.74486 0.00693539 -0.667184 1 
0.0817765 0.225208 0.0334619 -0.887804 0.188677 -0.419769 1 
0.0815608 0.225118 0.0331077 -0.860135 0.188665 -0.473891 1 
0.0818129 0.225146 0.0329473 -0.818283 0.202666 -0.537903 1 
0.0817313 0.225041 0.0333624 -0.859618 0.119511 -0.496764 1 
0.0819462 0.225101 0.0329622 -0.819402 0.212099 -0.532535 1 
0.082149 0.225182 0.0327335 -0.830783 0.099694 -0.547595 1 
0.0816119 0.224296 0.0328616 -0.806637 0.257437 -0.532037 1 
0.0826757 0.22532 0.0324625 -0.803776 -0.141144 -0.577946 1 
0.0828705 0.2252 0.0323742 -0.796539 -0.161115 -0.582724 1 
0.0828688 0.225326 0.0327669 -0.807569 -0.0493279 -0.587707 1 
0.0825013 0.224976 0.0323171 -0.758946 0.00691207 -0.651117 1 
0.0827082 0.224835 0.0320573 -0.596691 0.197874 -0.777692 1 
0.0829013 0.224841 0.0323617 -0.784388 0.100787 -0.612027 1 
0.0823657 0.224473 0.0320188 -0.689425 0.311614 -0.653904 1 
0.0818528 0.224189 0.0317256 -0.619047 0.432165 -0.655755 1 
0.0814455 0.224152 0.0325758 -0.737772 0.289667 -0.609742 1 
0.0816298 0.223928 0.0322662 -0.668291 0.333332 -0.665039 1 
0.0817615 0.224009 0.0326739 -0.6814 0.391021 -0.618705 1 
0.0825726 0.224333 0.031759 -0.62577 0.406668 -0.665607 1 
0.0822279 0.223423 0.0314371 -0.227083 -0.836701 -0.498363 1 
0.082874 0.224306 0.031667 -0.427137 0.576718 -0.696383 1 
0.0820693 0.223665 0.0329124 -0.803122 0.264576 -0.533849 1 
0.0829146 0.22837 0.0294263 -0.457835 -0.825992 -0.328823 1 
0.0829599 0.227895 0.029604 -0.774126 -0.477514 -0.415583 1 
0.0833307 0.227994 0.0292684 -0.531202 -0.741709 -0.409502 1 
0.0834189 0.227781 0.0291838 -0.671843 -0.601825 -0.43178 1 
0.0835231 0.22797 0.0288184 -0.391418 -0.846774 -0.36023 1 
0.083212 0.227922 0.0294436 -0.720733 -0.541793 -0.43244 1 
0.0835957 0.22803 0.0296909 -0.756476 -0.514665 -0.403563 1 
0.0836304 0.228092 0.0295691 -0.527716 -0.729538 -0.435076 1 
0.0833331 0.227898 0.02963 -0.776627 -0.473791 -0.415178 1 
0.0834867 0.228033 0.029333 -0.531202 -0.741709 -0.409502 1 
0.0835627 0.227841 0.0294199 -0.720733 -0.541793 -0.43244 1 
0.0833582 0.227886 0.0300414 -0.787854 -0.451358 -0.419002 1 
0.0833768 0.227547 0.0302005 -0.7497 -0.466297 -0.469592 1 
0.0837331 0.227763 0.0296747 -0.723428 -0.524775 -0.448624 1 
0.0837598 0.227626 0.0296933 -0.719485 -0.520089 -0.460271 1 
0.0835303 0.227682 0.0299034 -0.787854 -0.451358 -0.419002 1 
0.0837743 0.227509 0.0298834 -0.787854 -0.451358 -0.419002 1 
0.0838825 0.22812 0.0294087 -0.492477 -0.786349 -0.372991 1 
0.083422 0.227715 0.0302999 -0.7497 -0.466297 -0.469592 1 
0.0834035 0.22741 0.0302191 -0.747062 -0.463409 -0.476603 1 
0.0836063 0.227491 0.0299904 -0.759966 -0.461232 -0.457949 1 
0.0829471 0.227886 0.0290211 -0.491229 -0.787576 -0.372045 1 
0.083427 0.227338 0.0291217 -0.709836 -0.546923 -0.443855 1 
0.0834343 0.227051 0.0302066 -0.597312 -0.549933 -0.583775 1 
0.0837065 0.227258 0.0297343 -0.730819 -0.502127 -0.462355 1 
0.0835143 0.226638 0.0302625 -0.687755 -0.415967 -0.594949 1 
0.083432 0.226503 0.0299233 0.526955 -0.728486 -0.437752 1 
0.0726009 0.234292 0.0267515 0.807866 -0.459124 0.369539 1 
0.0725419 0.23427 0.0272163 0.227083 0.836701 0.498363 1 
0.0758662 0.235982 0.025436 0.42124 0.159582 -0.892799 1 
0.0755859 0.235575 0.0260487 0.456125 -0.0309466 -0.889377 1 
0.0768804 0.236786 0.0288499 -0.536564 0.819286 -0.202162 1 
0.0772989 0.236957 0.0289753 -0.51275 0.815102 -0.269623 1 
0.0770606 0.236783 0.0285714 -0.491295 0.837191 -0.240291 1 
0.0766955 0.236337 0.0284833 -0.644893 0.651525 -0.399535 1 
0.0781414 0.237595 0.0287242 -0.237863 0.688385 -0.685235 1 
0.077975 0.237451 0.0284383 -0.265347 0.694352 -0.668929 1 
0.0783894 0.237843 0.0285949 -0.250418 0.741804 -0.622107 1 
0.0782271 0.237478 0.028278 -0.246562 0.764813 -0.595204 1 
0.0783709 0.237538 0.0285141 -0.220041 0.691335 -0.688214 1 
0.0789428 0.237844 0.0283424 -0.376138 0.452966 -0.808296 1 
0.0786577 0.237628 0.0282319 -0.373945 0.640813 -0.670465 1 
0.078799 0.237784 0.0281063 -0.41211 0.570996 -0.710021 1 
0.0788096 0.237245 0.0284058 -0.104582 0.732071 -0.673152 1 
0.0789575 0.237084 0.0286109 -0.123023 0.626974 -0.769265 1 
0.0771051 0.236921 0.0279165 -0.464544 0.700979 -0.541136 1 
0.0782136 0.236797 0.0270189 -0.19381 0.801181 -0.566168 1 
0.0763427 0.236329 0.0262438 0.441087 -0.684101 -0.580903 1 
0.0766934 0.236248 0.0262201 0.488674 -0.508687 -0.708827 1 
0.0761578 0.23588 0.0258771 0.343857 0.396758 -0.851085 1 
0.0759915 0.235737 0.0255913 0.36399 0.232428 -0.901936 1 
0.0764018 0.23635 0.0257789 0.454235 -0.368169 -0.811247 1 
0.0763323 0.236224 0.0260225 0.473568 -0.447349 -0.758691 1 
0.0764099 0.235907 0.0257167 0.306225 0.446124 -0.840952 1 
0.0764535 0.235557 0.0262872 -0.244858 0.901722 0.35629 1 
0.0766418 0.235755 0.0258683 0.367493 0.563489 -0.739885 1 
0.0767298 0.236186 0.0257055 0.322825 0.428874 -0.843713 1 
0.0768776 0.236024 0.0259105 0.316183 -0.869122 -0.380336 1 
0.0769213 0.235674 0.026481 -0.275341 0.797703 0.536522 1 
0.0766588 0.235542 0.0264201 -0.168777 0.895819 0.411124 1 
0.0770691 0.235513 0.026686 0.442166 0.619033 -0.649067 1 
0.0776636 0.236545 0.0264859 0.0234484 0.823453 -0.5669 1 
0.0777453 0.236007 0.026149 0.352353 0.506809 -0.786761 1 
0.077389 0.235791 0.0266748 0.410006 0.494948 -0.766108 1 
0.0779302 0.236456 0.0265156 -0.139155 0.848114 -0.511212 1 
0.0771588 0.235818 0.0261305 0.423963 0.62015 -0.660052 1 
0.0772307 0.235848 0.0262485 0.406825 0.642617 -0.649259 1 
0.0774254 0.235728 0.0261602 0.401577 0.603192 -0.689126 1 
0.0768899 0.23536 0.0258173 0.420994 0.549769 -0.721469 1 
0.0770951 0.235345 0.0259502 0.399117 0.540368 -0.740748 1 
0.0774254 0.235728 0.0261602 0.401577 0.603192 -0.689126 1 
0.0773431 0.235594 0.025821 0.454594 0.557835 -0.69438 1 
0.0777802 0.235426 0.0261055 0.37206 0.598246 -0.7097 1 
0.077739 0.235038 0.025975 0.429674 0.555756 -0.711699 1 
0.0781806 0.236608 0.026748 -0.230174 0.842954 -0.486261 1 
0.0776551 0.237173 0.0284496 -0.319595 0.673259 -0.66677 1 
0.0774395 0.237083 0.0280954 -0.366458 0.68526 -0.629387 1 
0.0773224 0.236886 0.0278779 -0.385548 0.76947 -0.509184 1 
0.0772367 0.237002 0.0283241 -0.380456 0.643975 -0.663739 1 
0.0776406 0.23729 0.0282594 -0.343132 0.717162 -0.606579 1 
0.0779072 0.2372 0.0282892 -0.325008 0.738949 -0.590189 1 
0.0776916 0.23711 0.027935 -0.320355 0.788934 -0.524362 1 
0.0778023 0.236982 0.0279002 -0.315273 0.803234 -0.505388 1 
0.0777044 0.237119 0.0285179 -0.319595 0.673259 -0.66677 1 
0.0776012 0.236775 0.0277362 -0.334766 0.789664 -0.514162 1 
0.0783888 0.237171 0.0279187 -0.18362 0.805802 -0.562999 1 
0.0781367 0.237143 0.0280791 -0.275998 0.790143 -0.547265 1 
0.0787887 0.237036 0.0279634 -0.0883866 0.789683 -0.607114 1 
0.0783065 0.236393 0.0276577 -0.141144 0.803776 -0.577946 1 
0.0781402 0.236249 0.0273719 -0.265431 0.793152 -0.548139 1 
0.0785836 0.236408 0.0279087 -0.144586 0.797457 -0.585796 1 
0.0773526 0.235854 0.0271893 -0.154615 0.85259 -0.499185 1 
0.0772848 0.235602 0.0270402 0.175925 0.702171 -0.689932 1 
0.0770368 0.235354 0.0271695 0.100615 0.87436 -0.474733 1 
0.0778301 0.236046 0.0268499 -0.277032 0.840381 -0.465847 1 
0.0781273 0.23624 0.026789 -0.287705 0.832011 -0.474324 1 
0.0786668 0.23703 0.0270226 0.0405077 0.82552 -0.562918 1 
0.0786119 0.236788 0.0274563 -0.0547345 0.837859 -0.543135 1 
0.0789317 0.237066 0.0274451 0.020799 0.805613 -0.592077 1 
0.0788785 0.236698 0.0274861 -0.00136871 0.803435 -0.595391 1 
0.0786136 0.236662 0.0270636 -0.0849313 0.816204 -0.571487 1 
0.0785457 0.236411 0.0269145 -0.162119 0.837365 -0.522052 1 
0.0785934 0.236483 0.0273755 -0.0639564 0.817221 -0.572765 1 
0.0791434 0.236734 0.0279086 -0.0124642 0.785247 -0.619057 1 
0.0797235 0.236597 0.0276748 0.100099 0.917342 -0.385311 1 
0.0731672 0.235403 0.0250239 0.552047 0.060711 0.8316 1 
0.0732698 0.235074 0.0251295 0.324868 0.105615 0.939844 1 
0.0731963 0.235169 0.0254041 0.802497 -0.164113 0.573642 1 
0.0733206 0.235079 0.0267066 0.875511 -0.374785 0.304987 1 
0.0731867 0.234451 0.0260156 0.870319 -0.229189 0.435909 1 
0.0736462 0.235011 0.0262715 0.740763 -0.123709 0.660278 1 
0.0731228 0.234622 0.0257571 0.856545 -0.241046 0.456319 1 
0.0732707 0.23446 0.0259621 0.851612 -0.215541 0.477807 1 
0.0733256 0.234703 0.0255284 0.744883 -0.282322 0.60452 1 
0.0733611 0.234795 0.026161 0.841995 -0.133255 0.522769 1 
0.0733709 0.234227 0.0257061 0.85588 -0.254781 0.450062 1 
0.0732886 0.234092 0.0253668 0.880802 -0.249735 0.402268 1 
0.0734793 0.234194 0.0253096 0.755217 -0.355683 0.550578 1 
0.0733031 0.233975 0.0255569 0.906746 -0.163698 0.388606 1 
0.073342 0.233817 0.0254041 0.891455 -0.219548 0.396366 1 
0.0734874 0.233751 0.0252474 0.894962 -0.177836 0.409167 1 
0.073321 0.233608 0.0249616 0.944564 -0.0608978 0.322629 1 
0.0738668 0.235367 0.0253692 0.208371 0.235609 0.949247 1 
0.0739363 0.235493 0.0251256 0.0790834 0.368609 0.926214 1 
0.0742191 0.235161 0.0249528 0.0190988 0.345052 0.938389 1 
0.0741189 0.235394 0.0252089 0.0246647 0.377759 0.925575 1 
0.0742108 0.236247 0.0249367 0.0857611 -0.996311 -0.00317634 1 
0.0744097 0.235906 0.0248173 0.098298 -0.97427 0.202817 1 
0.0746456 0.235533 0.0249378 0.140201 -0.988358 -0.0590929 1 
0.0748404 0.235413 0.0248495 0.195394 -0.979369 -0.0515458 1 
0.0739978 0.234775 0.0251007 0.476713 -0.327839 0.815638 1 
0.0744453 0.234712 0.0256065 0.510938 -0.846655 0.148717 1 
0.0749615 0.235389 0.0250359 0.20583 -0.854872 -0.476264 1 
0.0751094 0.235228 0.025241 0.211526 -0.826321 -0.521967 1 
0.075321 0.235539 0.0256262 0.362762 -0.059361 -0.929989 1 
0.0756449 0.235596 0.0255839 0.398049 0.0603105 -0.915379 1 
0.075573 0.235566 0.0254659 0.395368 0.0492546 -0.917201 1 
0.0751546 0.235395 0.0253404 0.211526 -0.826321 -0.521967 1 
0.0752879 0.23535 0.0253553 0.367701 -0.737035 -0.567076 1 
0.0745924 0.235164 0.0249788 -0.0783177 0.0225298 0.996674 1 
0.0747709 0.235287 0.0250931 0.161208 -0.968541 -0.189581 1 
0.0747895 0.234949 0.0252522 0.304726 -0.93103 -0.20081 1 
0.0750868 0.235144 0.0251913 0.158046 -0.849311 -0.503678 1 
0.074943 0.235084 0.0249551 0.0555035 -0.900239 -0.431844 1 
0.0736669 0.233719 0.0242146 0.86139 -0.2729 0.428408 1 
0.0738073 0.23403 0.0252362 0.743886 -0.327568 0.582523 1 
0.0738566 0.233976 0.0253046 0.729345 -0.375326 0.572003 1 
0.0736588 0.233518 0.024355 0.862884 -0.269366 0.427637 1 
0.0737058 0.232917 0.02414 0.227083 0.836701 0.498363 1 
0.0737697 0.232747 0.0243985 0.227083 0.836701 0.498363 1 
0.0736057 0.232507 0.0244743 0.227083 0.836701 0.498363 1 
0.0755585 0.235683 0.0252757 0.365926 -0.00126618 -0.930643 1 
0.0754067 0.235422 0.02518 0.367701 -0.737035 -0.567076 1 
0.0760505 0.235758 0.0251265 0.26637 0.310038 -0.912646 1 
0.0761943 0.235818 0.0253626 0.295118 0.373816 -0.879299 1 
0.073316 0.233984 0.0261398 0.811923 -0.347967 0.468722 1 
0.0759544 0.235126 0.0254297 0.265942 0.283192 -0.921454 1 
0.0763421 0.235656 0.0255676 0.303774 0.450209 -0.839663 1 
0.0758415 0.234707 0.0251812 0.20072 0.456452 -0.866812 1 
0.0762042 0.234606 0.024986 0.170865 0.256971 -0.951195 1 
0.076016 0.234408 0.0254048 0.188663 0.341863 -0.920617 1 
0.0763706 0.23475 0.0252718 0.00992691 0.12905 -0.991588 1 
0.0771106 0.235073 0.0249932 0.364162 0.420914 -0.830793 1 
0.0771599 0.23502 0.0250616 0.36784 0.444275 -0.816893 1 
0.0768934 0.234466 0.0251101 0.285295 0.262357 -0.921833 1 
0.077142 0.235387 0.0256569 0.425341 0.500885 -0.75379 1 
0.0772568 0.235037 0.025591 0.393526 0.477737 -0.785433 1 
0.0773303 0.234942 0.0253163 0.347593 0.426234 -0.835167 1 
0.077622 0.23484 0.0257575 0.352975 0.51415 -0.781702 1 
0.076668 0.234301 0.0252891 0.226823 0.257437 -0.939296 1 
0.0769734 0.234053 0.025166 0.175018 0.264562 -0.948354 1 
0.0770267 0.234421 0.025125 0.213397 0.280345 -0.935878 1 
0.07732 0.234194 0.0251734 0.197793 0.280783 -0.939169 1 
0.0774678 0.234032 0.0253784 0.204272 0.338548 -0.918509 1 
0.0771213 0.233891 0.025371 0.206908 0.30262 -0.930382 1 
0.0768953 0.233054 0.0248739 0.0734411 0.464203 -0.882679 1 
0.076216 0.232626 0.0242949 0.227083 0.836701 0.498363 1 
0.0776382 0.234598 0.0255549 0.286237 0.386192 -0.876883 1 
0.0777877 0.234311 0.0253672 0.204923 0.317983 -0.925685 1 
0.0766931 0.233646 0.0257788 0.192407 0.230081 -0.953961 1 
0.0777206 0.234732 0.0258942 0.348644 0.506097 -0.788868 1 
0.0770843 0.233281 0.0252094 0.142051 0.389585 -0.90997 1 
0.0770658 0.232976 0.0251286 0.0790591 0.456324 -0.886295 1 
0.0777861 0.234436 0.0257599 0.250981 0.381669 -0.889571 1 
0.0778863 0.234203 0.0255039 0.185171 0.304905 -0.934208 1 
0.0775334 0.233736 0.0252442 0.162259 0.293157 -0.942195 1 
0.0779025 0.233961 0.0253013 0.166057 0.297804 -0.940073 1 
0.0781506 0.233566 0.0252503 0.0534464 0.464572 -0.883921 1 
0.0783702 0.234078 0.0254951 0.22639 0.403951 -0.886325 1 
0.078641 0.233767 0.0254938 0.200669 0.508461 -0.837376 1 
0.0785013 0.233485 0.0252266 0.0230867 0.501117 -0.865072 1 
0.0787534 0.233513 0.0250662 -0.0110884 0.296923 -0.954837 1 
0.0774656 0.233485 0.025095 0.0899533 0.430392 -0.898149 1 
0.0780829 0.233315 0.0251011 0.0883923 0.467216 -0.879713 1 
0.0775143 0.232758 0.0244873 0.0124333 0.603705 -0.797111 1 
0.0779652 0.232444 0.0242075 0.227083 0.836701 0.498363 1 
0.0485116 0.233014 0.000830545 0.94932 0.275263 -0.15173 0 
0.0482814 0.233041 0.000286235 0.97191 0.149035 -0.182153 0 
0.0484251 0.233101 0.000522349 0.955865 0.275153 -0.10302 0 
0.0482595 0.232987 0.00099092 0.853274 0.504406 -0.132279 0 
0.0443249 0.231277 -0.0092245 0.939773 0.282898 -0.191819 0 
0.0442297 0.231134 -0.0101467 0.930528 0.275346 -0.241457 0 
0.0443387 0.231131 -0.00978876 0.933138 0.274452 -0.232229 0 
0.0445908 0.231158 -0.00994912 0.940726 0.231371 -0.247997 0 
0.044577 0.231304 -0.00938488 0.936586 0.282507 -0.207357 0 
0.0446262 0.23125 -0.00931652 0.939896 0.278231 -0.197946 0 
0.0445932 0.231062 -0.00958746 0.939918 0.269932 -0.209024 0 
0.0448783 0.231278 -0.0094769 0.936586 0.282507 -0.207357 0 
0.0447386 0.230996 -0.00974408 0.931756 0.266417 -0.246683 0 
0.0446789 0.230946 -0.0100337 0.945356 0.226392 -0.234624 0 
0.0449269 0.231194 -0.0101629 0.925457 0.292325 -0.24099 0 
0.045017 0.231714 -0.00806255 0.960108 -0.0514568 -0.274854 0 
0.0449701 0.231672 -0.00776924 0.955562 -0.14181 -0.258439 0 
0.0452222 0.231699 -0.00792962 0.955562 -0.14181 -0.258439 0 
0.0451139 0.231732 -0.00753314 0.93321 -0.176628 -0.312924 0 
0.0453295 0.231822 -0.00717895 0.904646 -0.26245 -0.33576 0 
0.0454524 0.231672 -0.0073853 0.913403 -0.220775 -0.341985 0 
0.0454194 0.231484 -0.00765624 0.939001 -0.183388 -0.290939 0 
0.0445857 0.231534 -0.00877091 0.972321 0.143624 -0.184296 0 
0.0447005 0.231185 -0.00883681 0.968892 0.173706 -0.176279 0 
0.0444815 0.231346 -0.0084055 0.969932 0.00118719 -0.243373 0 
0.0447336 0.231373 -0.00856589 0.969857 0.0529909 -0.237843 0 
0.0446019 0.231292 -0.0089735 0.964115 0.207435 -0.165687 0 
0.0446827 0.230909 -0.0081632 0.973381 0.0130416 -0.228822 0 
0.0447796 0.230927 -0.00763375 0.957008 -0.0862982 -0.276927 0 
0.0449785 0.230586 -0.00775315 0.962885 -0.074652 -0.259384 0 
0.0450769 0.231121 -0.00769471 0.960305 -0.0859017 -0.265398 0 
0.0449413 0.230619 -0.007993 0.969301 -0.0867468 -0.230067 0 
0.0446909 0.230466 -0.00822537 0.981576 0.0859333 -0.170656 0 
0.0448791 0.230664 -0.00864423 0.968879 0.17113 -0.17885 0 
0.0448606 0.230359 -0.00872501 0.95962 0.253902 -0.121092 0 
0.0446707 0.230286 -0.00791341 0.973379 -0.0374842 -0.226114 0 
0.0449033 0.231265 -0.00906553 0.967817 0.195114 -0.158934 0 
0.0450349 0.231346 -0.0086579 0.972869 0.080556 -0.216882 0 
0.0450657 0.230987 -0.00867035 0.974432 0.0879093 -0.206773 0 
0.0450383 0.231095 -0.00944339 0.939169 0.280783 -0.197793 0 
0.0450713 0.231284 -0.00917244 0.960482 0.217991 -0.173072 0 
0.0450876 0.231041 -0.00937504 0.939169 0.280783 -0.197793 0 
0.0449705 0.230844 -0.00959253 0.939918 0.269932 -0.209024 0 
0.0448993 0.230844 -0.00895616 0.966588 0.198507 -0.162179 0 
0.0448299 0.230718 -0.00871256 0.967327 0.197598 -0.158853 0 
0.0447823 0.230646 -0.00917366 0.949097 0.265963 -0.168758 0 
0.0449301 0.230485 -0.00896862 0.956819 0.263814 -0.122063 0 
0.0452894 0.231277 -0.0084566 0.973992 0.0300244 -0.224583 0 
0.0451359 0.231143 -0.00815954 0.968831 0.0278887 -0.246149 0 
0.0442088 0.230925 -0.0105891 0.948488 0.214263 -0.233369 0 
0.0444591 0.231077 -0.0103568 0.945228 0.21813 -0.242823 0 
0.0443154 0.231017 -0.0105929 0.920353 0.277978 -0.275098 0 
0.0445982 0.230686 -0.0107657 0.899068 0.312526 -0.306601 0 
0.044284 0.230703 -0.0112566 0.918006 0.301198 -0.257964 0 
0.0443802 0.230692 -0.0114815 0.937558 0.250109 -0.241725 0 
0.0444683 0.230479 -0.0115661 0.950082 0.250735 -0.185679 0 
0.0444319 0.230542 -0.0110515 0.908988 0.311779 -0.276649 0 
0.0445773 0.230476 -0.0112081 0.914326 0.286363 -0.286363 0 
0.0446161 0.230318 -0.011361 0.920338 0.280854 -0.272213 0 
0.0440552 0.23079 -0.0102921 0.948573 0.222471 -0.225201 0 
0.0446765 0.231041 -0.0103953 0.946633 0.212342 -0.242481 0 
0.044607 0.230916 -0.0101517 0.948573 0.222471 -0.225201 0 
0.044775 0.230934 -0.0102586 0.946143 0.217709 -0.239617 0 
0.0443728 0.230521 -0.0105867 0.941684 0.230927 -0.244755 0 
0.0445392 0.230664 -0.0103009 0.926855 0.283324 -0.246307 0 
0.0447548 0.230754 -0.00994669 0.945905 0.221031 -0.237506 0 
0.0446887 0.230377 -0.0104886 0.943252 0.230634 -0.23892 0 
0.0448551 0.230521 -0.0102027 0.935275 0.27541 -0.222285 0 
0.0446686 0.230198 -0.0101766 0.943252 0.23892 -0.230634 0 
0.0444731 0.230288 -0.0108427 0.911545 0.307737 -0.272734 0 
0.044188 0.230072 -0.0109533 0.90516 0.327149 -0.271401 0 
0.0442906 0.229743 -0.0108477 0.916653 0.293966 -0.270796 0 
0.0443358 0.22991 -0.0107483 0.947142 0.254842 -0.19488 0 
0.0444529 0.230108 -0.0105308 0.941938 0.263412 -0.208247 0 
0.0447913 0.230692 -0.0104612 0.927419 0.276948 -0.251383 0 
0.0446927 0.230799 -0.0105979 0.926202 0.283125 -0.248979 0 
0.0447147 0.23021 -0.0112243 0.91308 0.286885 -0.289797 0 
0.0451947 0.229663 -0.0111238 0.94771 0.22291 -0.22838 0 
0.0444172 0.2302 -0.00926185 0.96325 0.22289 -0.149897 0 
0.0449027 0.230593 -0.00974166 0.955252 0.17769 -0.236475 0 
0.0448349 0.230341 -0.0098908 0.933138 0.274452 -0.232229 0 
0.0449335 0.230234 -0.00975411 0.94357 0.232793 -0.235548 0 
0.0447985 0.230404 -0.00937625 0.958873 0.213525 -0.187 0 
0.0449463 0.230242 -0.00917122 0.958087 0.244477 -0.149329 0 
0.0449392 0.229887 -0.0101779 0.945328 0.223641 -0.237361 0 
0.0460258 0.232037 -0.0060481 0.815962 0.0697769 -0.573879 0 
0.0462415 0.232127 -0.00569395 0.832966 0.201061 -0.515502 0 
0.0461737 0.231875 -0.00584308 0.813207 0.16324 -0.558612 0 
0.0464612 0.231995 -0.00537084 0.861504 0.218007 -0.458567 0 
0.0462907 0.232073 -0.0056256 0.833071 0.210923 -0.511375 0 
0.0462907 0.232073 -0.0056256 0.833071 0.210923 -0.511375 0 
0.0470863 0.23221 -0.00360365 0.775706 0.421191 -0.469977 0 
0.0473182 0.232058 -0.00345208 0.760272 0.420193 -0.495403 0 
0.0465523 0.23236 -0.00441761 0.826211 0.382182 -0.413898 0 
0.04647 0.232225 -0.00475688 0.839897 0.359507 -0.406604 0 
0.0466728 0.232306 -0.0049856 0.853089 0.314296 -0.416481 0 
0.046768 0.23245 -0.00406342 0.797265 0.423597 -0.43004 0 
0.0466178 0.232064 -0.00455185 0.855851 0.313041 -0.411734 0 
0.0467002 0.232198 -0.00421256 0.832242 0.374272 -0.409015 0 
0.0467164 0.231956 -0.00441516 0.868135 0.272147 -0.415063 0 
0.0466688 0.231884 -0.00487625 0.865117 0.24999 -0.434831 0 
0.0465598 0.231887 -0.00523416 0.848034 0.229075 -0.477873 0 
0.0465501 0.231812 -0.00470099 0.859044 0.270072 -0.434862 0 
0.0466503 0.231579 -0.00495704 0.860765 0.230643 -0.453748 0 
0.0467489 0.231471 -0.00482036 0.861028 0.24363 -0.446403 0 
0.0468335 0.232153 -0.00419768 0.827214 0.381183 -0.412816 0 
0.0469158 0.232288 -0.00385838 0.775903 0.401778 -0.486363 0 
0.0468868 0.231878 -0.00416041 0.815214 0.378093 -0.438716 0 
0.0466979 0.231651 -0.00449596 0.863588 0.26654 -0.427986 0 
0.0472166 0.231588 -0.00462655 0.869201 0.265463 -0.417156 0 
0.0469807 0.231319 -0.00466877 0.865117 0.24999 -0.434831 0 
0.0468144 0.231175 -0.0049546 0.85754 0.218529 -0.465694 0 
0.0469622 0.231014 -0.00474957 0.859981 0.231243 -0.454928 0 
0.0471964 0.231409 -0.00431461 0.834234 0.304066 -0.459998 0 
0.0473442 0.231247 -0.00410957 0.819004 0.317187 -0.478147 0 
0.0471286 0.231157 -0.00446375 0.86027 0.279626 -0.426315 0 
0.0475841 0.231939 -0.0041767 0.787532 0.409129 -0.460876 0 
0.0483703 0.233317 -0.00102373 0.871016 0.184225 -0.455404 0 
0.0479107 0.233401 -0.00135796 0.833995 0.143181 -0.532871 0 
0.047771 0.233119 -0.00162515 0.926494 0.113253 -0.358863 0 
0.0480417 0.232809 -0.00162645 0.899329 0.1468 -0.411895 0 
0.0480585 0.233239 -0.00115293 0.867017 0.162841 -0.470918 0 
0.0482573 0.232898 -0.00127228 0.889918 0.0905237 -0.447048 0 
0.0481588 0.233006 -0.00140898 0.884565 0.154402 -0.440118 0 
0.048091 0.232755 -0.00155811 0.907052 0.118797 -0.403911 0 
0.0487442 0.233993 -0.000321571 0.81523 0.531672 -0.229621 0 
0.04851 0.233598 -0.00075653 0.879767 0.291244 -0.375749 0 
0.0486086 0.233491 -0.000619839 0.913773 0.211535 -0.346802 0 
0.0485182 0.233156 -0.000818686 0.914496 0.112064 -0.388765 0 
0.0484001 0.233113 0.000110968 0.964431 0.176182 -0.197062 0 
0.0486522 0.23314 -4.94081e-005 0.952783 0.167507 -0.253271 0 
0.0486562 0.233562 -0.000158768 0.899682 0.373039 -0.226749 0 
0.0485658 0.233227 -0.000357616 0.950429 0.0928205 -0.296764 0 
0.0487137 0.233066 -0.000152584 0.957363 0.0781782 -0.278109 0 
0.0483066 0.232844 -0.00120394 0.889028 0.0876507 -0.449384 0 
0.0481983 0.232877 -0.000807457 0.924241 0.0543671 -0.377918 0 
0.0485223 0.232934 -0.000849776 0.927325 0.0651921 -0.368535 0 
0.0484545 0.232683 -0.00099891 0.911663 0.0439195 -0.408585 0 
0.0482388 0.232593 -0.00135307 0.899859 0.10153 -0.424199 0 
0.0483374 0.232485 -0.00121639 0.923434 0.0737139 -0.376611 0 
0.0484302 0.232725 -0.000655896 0.934587 0.0784362 -0.34698 0 
0.0486208 0.232826 -0.000713089 0.926036 0.0652888 -0.371747 0 
0.0485983 0.232743 -0.000762802 0.928068 0.0679074 -0.366167 0 
0.0484853 0.232324 -0.00101136 0.915805 0.0493229 -0.398582 0 
0.0486331 0.232162 -0.000806318 0.914395 0.0493907 -0.4018 0 
0.0485439 0.233173 0.000347073 0.972162 0.161815 -0.169459 0 
0.0485601 0.232931 0.0001445 0.972132 0.117261 -0.203 0 
0.0487467 0.233254 0.000118357 0.966901 0.182997 -0.177806 0 
0.0490522 0.233006 -4.74279e-006 0.96773 0.143033 -0.207463 0 
0.048763 0.233012 -8.42314e-005 0.964441 0.0561447 -0.258266 0 
0.0487491 0.233158 0.000480024 0.949983 0.285659 -0.126221 0 
0.0487637 0.233041 0.000670163 0.945049 0.288803 -0.153215 0 
0.048897 0.232997 0.00068507 0.937771 0.2997 -0.1754 0 
0.0486895 0.232464 0.000268726 0.981605 0.0510387 -0.183977 0 
0.0488946 0.233093 0.000323388 0.96305 0.203092 -0.176887 0 
0.0489931 0.232985 0.000460084 0.951353 0.252345 -0.176776 0 
0.0492 0.232844 0.000200291 0.95959 0.170741 -0.223684 0 
0.0488488 0.232252 -0.000452153 0.948644 0.0526311 -0.311936 0 
0.0487317 0.232055 -0.000669638 0.93201 0.0063575 -0.362378 0 
0.048474 0.231731 -7.17354e-006 0.979636 -0.0343524 -0.197822 0 
0.0487898 0.232231 1.26646e-005 0.969377 0.0377996 -0.242649 0 
0.048806 0.231989 -0.00018993 0.968005 0.0107956 -0.250698 0 
0.0490497 0.233102 -0.000366408 0.95012 0.129259 -0.283837 0 
0.049066 0.23286 -0.000569006 0.945534 0.052888 -0.321198 0 
0.0491031 0.232827 -0.000329146 0.95726 0.0311203 -0.287551 0 
0.0489368 0.232683 -0.000614967 0.945534 0.052888 -0.321198 0 
0.049121 0.232459 -0.000924478 0.918515 -0.0221486 -0.394766 0 
0.0478214 0.232267 -0.00262568 0.865857 0.285565 -0.410786 0 
0.0479442 0.232118 -0.00283203 0.866512 0.30412 -0.395814 0 
0.047658 0.232701 -0.00187372 0.929071 0.153691 -0.33646 0 
0.0479715 0.232653 -0.00213726 0.93866 0.125967 -0.321014 0 
0.0480208 0.232599 -0.00206891 0.9276 0.145154 -0.344221 0 
0.047924 0.231938 -0.00252006 0.88596 0.264443 -0.380978 0 
0.0478562 0.231687 -0.0026692 0.907156 0.224975 -0.355605 0 
0.0483627 0.232289 -0.00270656 0.89889 0.233154 -0.370994 0 
0.0480719 0.231777 -0.00231504 0.937941 0.140215 -0.317185 0 
0.0479426 0.2316 -0.00236101 0.951375 0.0871986 -0.295434 0 
0.0475437 0.231579 -0.00355281 0.767999 0.39949 -0.500585 0 
0.0474613 0.231445 -0.00389209 0.765454 0.419449 -0.487998 0 
0.0475913 0.231651 -0.00309173 0.817536 0.324168 -0.475973 0 
0.0482162 0.232509 -0.00140279 0.906858 0.109712 -0.406906 0 
0.0481484 0.232258 -0.00155193 0.907617 0.145388 -0.393818 0 
0.0480668 0.232153 -0.00113682 0.898241 0.0640627 -0.434809 0 
0.0483641 0.232348 -0.00119777 0.920929 0.0712544 -0.38316 0 
0.0483439 0.232168 -0.000885814 0.915805 0.0493229 -0.398582 0 
0.0481921 0.231908 -0.000981512 0.907807 0.00914338 -0.419289 0 
0.0480128 0.231755 -0.0018502 0.941434 0.148076 -0.302944 0 
0.0484917 0.232007 -0.000680781 0.93201 0.0063575 -0.362378 0 
0.0483399 0.231746 -0.000776469 0.916618 -0.0972794 -0.387747 0 
0.0485556 0.231836 -0.000422304 0.941785 -0.0345962 -0.33443 0 
0.0450718 0.231498 -0.00651649 0.8613 -0.131728 -0.490724 0 
0.0455598 0.231795 -0.00663466 0.838549 -0.133173 -0.5283 0 
0.045798 0.231968 -0.00623077 0.804228 -0.058154 -0.591469 0 
0.0458142 0.231726 -0.00643335 0.805527 -0.0729696 -0.588049 0 
0.0452109 0.231106 -0.00692544 0.887197 -0.185624 -0.422405 0 
0.0454774 0.23166 -0.00697392 0.883954 -0.170383 -0.435424 0 
0.0455284 0.231481 -0.00729832 0.907668 -0.160511 -0.387783 0 
0.045576 0.231552 -0.00683724 0.862694 -0.110162 -0.493581 0 
0.0455446 0.231238 -0.00750091 0.92105 -0.224194 -0.318441 0 
0.0455946 0.231214 -0.00667818 0.852807 -0.0925416 -0.513962 0 
0.0454718 0.231364 -0.00647183 0.841412 -0.0899983 -0.532847 0 
0.0453588 0.230945 -0.0067204 0.858678 -0.116504 -0.499098 0 
0.0455582 0.231277 -0.00616363 0.814564 -0.0464259 -0.578214 0 
0.0460073 0.231732 -0.0061289 0.82399 0.0347382 -0.565538 0 
0.0461059 0.231624 -0.00599222 0.815194 0.0320504 -0.5783 0 
0.046471 0.231427 -0.00582574 0.826244 0.106003 -0.553249 0 
0.0462352 0.231157 -0.00586798 0.795442 0.0293573 -0.605319 0 
0.0455744 0.231034 -0.00636622 0.809192 -0.0670759 -0.583703 0 
0.0455066 0.230783 -0.00651537 0.823713 -0.0607542 -0.563742 0 
0.0460196 0.231068 -0.00622214 0.800514 -0.0407995 -0.597924 0 
0.0461674 0.230906 -0.00601711 0.777403 -0.0380942 -0.627848 0 
0.0461222 0.230739 -0.00611653 0.767168 -0.0351912 -0.64048 0 
0.0449952 0.231016 -0.0072796 0.928398 -0.207093 -0.308527 0 
0.0451431 0.230855 -0.00707457 0.896678 -0.190381 -0.399654 0 
0.0449849 0.230268 -0.00742256 0.940116 -0.220795 -0.259677 0 
0.0452208 0.230538 -0.00738034 0.939319 -0.16916 -0.298437 0 
0.0451795 0.230792 -0.0075891 0.953415 -0.122638 -0.275607 0 
0.0452069 0.230684 -0.00681608 0.871081 -0.12485 -0.475005 0 
0.046875 0.231714 -0.00589045 0.841408 0.142437 -0.521291 0 
0.0466867 0.231517 -0.00547159 0.848809 0.202813 -0.488253 0 
0.0466189 0.231265 -0.00562072 0.824451 0.124473 -0.552075 0 
0.0463338 0.23105 -0.00573128 0.797253 0.0853683 -0.597578 0 
0.0465455 0.230718 -0.00526777 0.841216 0.123923 -0.526307 0 
0.0465987 0.231086 -0.00530877 0.845968 0.177549 -0.502806 0 
0.0468346 0.231355 -0.00526656 0.85434 0.208705 -0.475968 0 
0.0465309 0.230834 -0.00545791 0.833866 0.0993726 -0.542949 0 
0.0463153 0.230745 -0.00581207 0.783901 -0.0124429 -0.620761 0 
0.0466933 0.230556 -0.00506273 0.881261 0.0765709 -0.466386 0 
0.0467466 0.230924 -0.00510374 0.872381 0.190418 -0.450214 0 
0.0494128 0.2334 0.00399588 0.427669 0.902556 -0.0499172 0 
0.0496649 0.233427 0.00383551 0.548903 0.825562 -0.130971 0 
0.0495461 0.233355 0.00401077 0.546443 0.829137 -0.118032 0 
0.0495745 0.233092 0.00363665 0.749746 0.621931 -0.226015 0 
0.0496463 0.233122 0.00375472 0.749746 0.621931 -0.226015 0 
0.0498265 0.233119 0.00347629 0.753658 0.601978 -0.263859 0 
0.0500786 0.233146 0.00331592 0.754457 0.599453 -0.267302 0 
0.049862 0.233211 0.0041089 0.725226 0.663896 -0.182456 0 
0.0497925 0.233085 0.00435249 0.749746 0.621931 -0.226015 0 
0.0498685 0.232894 0.00443947 0.784581 0.588818 -0.194233 0 
0.0497449 0.233014 0.00389141 0.794106 0.573776 -0.200439 0 
0.0499251 0.233011 0.00361298 0.769956 0.599543 -0.218438 0 
0.0501449 0.232879 0.00393606 0.793139 0.563424 -0.231267 0 
0.0499768 0.232861 0.00404299 0.786627 0.572516 -0.231178 0 
0.0501942 0.232826 0.0040044 0.786627 0.572516 -0.231178 0 
0.0499914 0.232745 0.00423313 0.788918 0.571927 -0.224741 0 
0.0504729 0.232715 0.00386268 0.808076 0.546413 -0.220104 0 
0.0509161 0.233059 0.00630103 0.854702 0.126246 -0.503534 0 
0.0503144 0.232957 0.00533794 0.903071 0.216679 -0.370826 0 
0.0503531 0.232798 0.00518508 0.89049 0.278931 -0.359478 0 
0.0498014 0.232672 0.00504473 0.852811 0.419441 -0.311098 0 
0.0500042 0.232753 0.00481601 0.822393 0.518031 -0.235189 0 
0.0500882 0.232762 0.00476256 0.817446 0.523845 -0.239516 0 
0.0500535 0.232699 0.00488435 0.833815 0.481107 -0.270719 0 
0.0503056 0.232727 0.004724 0.81915 0.508277 -0.265796 0 
0.0504534 0.232565 0.00492902 0.880446 0.383784 -0.278432 0 
0.0502321 0.232179 0.00507693 0.923062 0.241857 -0.299101 0 
0.050367 0.232652 0.00462082 0.812271 0.534835 -0.232738 0 
0.0504719 0.23287 0.00500982 0.874041 0.358464 -0.327956 0 
0.0506724 0.232404 0.0044977 0.83965 0.480458 -0.253276 0 
0.0503087 0.23266 0.00584005 0.893448 0.0199728 -0.448721 0 
0.0505033 0.233184 0.00567349 0.852162 0.212663 -0.478116 0 
0.0506019 0.233076 0.00581017 0.885236 0.050468 -0.462396 0 
0.0504355 0.232933 0.00552435 0.89599 0.0902935 -0.434798 0 
0.0506181 0.232834 0.00560759 0.88671 0.0646129 -0.45779 0 
0.0507861 0.232852 0.00550067 0.883424 0.0620188 -0.464452 0 
0.0508442 0.233029 0.00618298 0.860037 0.104464 -0.499423 0 
0.0509299 0.232912 0.00573679 0.865484 0.11913 -0.486566 0 
0.0511004 0.232834 0.00599152 0.859899 0.0804832 -0.504079 0 
0.0509155 0.232386 0.00562491 0.869502 0.122161 -0.478585 0 
0.0504147 0.23208 0.00516017 0.935687 0.196036 -0.293358 0 
0.0504971 0.232215 0.00549945 0.906961 0.12476 -0.402315 0 
0.0507491 0.232242 0.0053391 0.886328 0.169722 -0.430834 0 
0.0506449 0.232053 0.00570447 0.873009 0.0826766 -0.480645 0 
0.0506876 0.23296 0.00536399 0.911587 0.145121 -0.384642 0 
0.050749 0.232885 0.00526081 0.900145 0.211541 -0.380774 0 
0.0508847 0.232745 0.00563737 0.87436 0.100615 -0.474733 0 
0.0510326 0.232583 0.0058424 0.864796 0.0832348 -0.495177 0 
0.0507183 0.232601 0.00535154 0.920114 0.111404 -0.375472 0 
0.0508308 0.232347 0.00492396 0.928258 0.26014 -0.265826 0 
0.0512078 0.232957 0.00674217 0.821942 0.130864 -0.554333 0 
0.0511875 0.232777 0.00705414 0.786712 0.135332 -0.602303 0 
0.051257 0.232903 0.00681052 0.806583 0.0941255 -0.583578 0 
0.0512611 0.232682 0.00677945 0.812503 0.0909195 -0.575823 0 
0.051358 0.232699 0.00730888 0.73163 0.424444 -0.533446 0 
0.0516205 0.232831 0.00736973 0.674319 0.409231 -0.614674 0 
0.0514049 0.232741 0.00701554 0.789947 0.144849 -0.59582 0 
0.0514437 0.232583 0.00686269 0.795386 0.113207 -0.595437 0 
0.0515034 0.232634 0.00715224 0.769412 0.24289 -0.59077 0 
0.0518048 0.232607 0.00706022 0.688914 0.426628 -0.585992 0 
0.0516246 0.23261 0.00733865 0.698712 0.419891 -0.579217 0 
0.0517191 0.232723 0.00750641 0.517524 -0.835539 -0.184509 0 
0.0519017 0.232625 0.00758965 0.546398 -0.803345 -0.236824 0 
0.0520552 0.23276 0.00729258 0.520377 -0.825583 -0.218222 0 
0.052203 0.232598 0.00749761 0.528066 -0.773528 -0.350429 0 
0.0522088 0.232251 0.00707379 0.381343 -0.873595 -0.30234 0 
0.0509921 0.232867 0.00638801 0.838015 0.037399 -0.544364 0 
0.0511562 0.232463 0.00639046 0.828419 0.0904513 -0.552758 0 
0.0509631 0.232457 0.006086 0.866983 0.0654064 -0.494027 0 
0.0511086 0.232392 0.00592936 0.877538 0.0709262 -0.474232 0 
0.05114 0.232706 0.00659305 0.828387 0.0965251 -0.551778 0 
0.0514228 0.232374 0.00642023 0.81264 0.0640434 -0.579237 0 
0.0509592 0.232035 0.00619534 0.842693 0.0961847 -0.529734 0 
0.051107 0.231874 0.00640037 0.81942 0.106248 -0.56326 0 
0.0505407 0.231865 0.00606989 0.847102 0.0516356 -0.528916 0 
0.0506886 0.231703 0.00627493 0.863045 0.0397906 -0.503557 0 
0.0507007 0.231682 0.00610341 0.859711 0.0314362 -0.509813 0 
0.0507993 0.231574 0.00624011 0.855828 0.00134353 -0.517259 0 
0.0510634 0.232224 0.00582994 0.870564 0.0888906 -0.48396 0 
0.051544 0.23235 0.00660662 0.807343 0.119116 -0.577934 0 
0.0515069 0.231739 0.00644504 0.8018 0.0942442 -0.590114 0 
0.0511959 0.231691 0.00707023 0.706721 0.265219 -0.6559 0 
0.0508979 0.231467 0.00637678 0.805563 0.0235707 -0.592041 0 
0.0516587 0.232 0.00654072 0.792861 0.109916 -0.599409 0 
0.0518268 0.232018 0.00643381 0.79589 0.0945756 -0.598009 0 
0.0518518 0.232006 0.00684519 0.750483 0.198793 -0.630283 0 
0.0516733 0.231883 0.00673087 0.76277 0.188774 -0.618504 0 
0.0526351 0.232807 0.00896035 -0.367014 -0.902183 0.226642 0 
0.0527296 0.232921 0.00912813 -0.324209 -0.930882 0.168366 0 
0.0530858 0.233137 0.00860235 -0.380944 -0.890846 0.247539 0 
0.0534365 0.233056 0.00857868 -0.474261 -0.838839 0.267255 0 
0.0530931 0.232849 0.00968733 -0.492044 -0.851786 0.179871 0 
0.0532757 0.232751 0.00977057 -0.587388 -0.774355 0.235267 0 
0.0532999 0.232709 0.00942754 -0.537325 -0.82188 0.189199 0 
0.0533476 0.23278 0.00988862 -0.687775 -0.652173 0.318804 0 
0.0535033 0.233463 0.00987494 -0.684411 -0.674839 0.275998 0 
0.0534437 0.232769 0.00966366 -0.608 -0.758047 0.23601 0 
0.0531829 0.232511 0.00921005 -0.524045 -0.829109 0.194818 0 
0.053552 0.232736 0.00926716 -0.604685 -0.768614 0.208779 0 
0.053493 0.232715 0.009732 -0.605028 -0.761366 0.232944 0 
0.0538929 0.23258 0.00977665 -0.645071 -0.717978 0.261515 0 
0.0536999 0.232574 0.00947219 -0.607443 -0.760474 0.229548 0 
0.053627 0.2327 0.0105013 -0.716027 -0.615361 0.3296 0 
0.0538427 0.232789 0.0108554 -0.690358 -0.628045 0.359117 0 
0.0539551 0.232535 0.0104279 -0.716027 -0.615361 0.3296 0 
0.0541708 0.232625 0.010782 -0.68324 -0.634086 0.362101 0 
0.0537087 0.232805 0.0100862 -0.739875 -0.57076 0.356115 0 
0.0538072 0.232697 0.0102229 -0.723227 -0.565073 0.397034 0 
0.054103 0.232374 0.0106329 -0.682174 -0.656249 0.322453 0 
0.0536409 0.232553 0.00993703 -0.72075 -0.600354 0.346546 0 
0.053762 0.232529 0.0101234 -0.723227 -0.565073 0.397034 0 
0.0540408 0.232419 0.00998169 -0.737209 -0.550033 0.392412 0 
0.0539099 0.232368 0.0103285 -0.720148 -0.603104 0.343005 0 
0.0541418 0.232215 0.01048 -0.681465 -0.671845 0.290224 0 
0.0517667 0.232795 0.0079675 0.540851 -0.788278 -0.293424 0 
0.0520188 0.232822 0.00780712 0.559203 -0.74506 -0.363563 0 
0.0520826 0.232652 0.00806562 0.498873 -0.730907 -0.465725 0 
0.052308 0.232816 0.00788663 0.513649 -0.655113 -0.554068 0 
0.0521528 0.232807 0.00857643 -0.15363 -0.984901 0.0797925 0 
0.0524049 0.232834 0.00841606 -0.400477 -0.855072 0.329349 0 
0.0527167 0.232912 0.00854524 -0.329458 -0.926688 0.180851 0 
0.052392 0.232826 0.00783317 0.419406 -0.738484 -0.527958 0 
0.0524865 0.232939 0.00800093 0.467561 -0.668663 -0.578167 0 
0.0528209 0.233101 0.00817984 -0.360028 -0.905172 0.225929 0 
0.0528702 0.233047 0.00824819 -0.368816 -0.906855 0.203934 0 
0.0528024 0.232796 0.00809905 -0.37176 -0.893112 0.253271 0 
0.0530528 0.232948 0.0083314 -0.373795 -0.903217 0.210896 0 
0.0530545 0.232823 0.00793869 -0.376954 -0.894341 0.240955 0 
0.0523016 0.23249 0.0076343 0.469431 -0.778054 -0.417453 0 
0.0524495 0.232329 0.00783934 0.511334 -0.685691 -0.51804 0 
0.0524646 0.232885 0.00870561 -0.339238 -0.917518 0.207551 0 
0.052766 0.232858 0.00861358 -0.329458 -0.926688 0.180851 0 
0.0531659 0.232724 0.00865825 -0.437564 -0.855169 0.277892 0 
0.0531531 0.232715 0.00807536 -0.395143 -0.884225 0.249014 0 
0.0533009 0.232554 0.0082804 -0.428244 -0.875886 0.222329 0 
0.0529138 0.232697 0.00881863 -0.389061 -0.886939 0.248939 0 
0.0530981 0.232473 0.00850912 -0.366095 -0.90728 0.206923 0 
0.0530124 0.232589 0.00895531 -0.440875 -0.862055 0.249981 0 
0.0529446 0.232338 0.00880618 -0.382496 -0.900247 0.207973 0 
0.0531967 0.232365 0.00864579 -0.413769 -0.88241 0.223939 0 
0.0534488 0.232392 0.00848544 -0.44219 -0.867892 0.226342 0 
0.053498 0.232338 0.00855379 -0.444036 -0.868637 0.219776 0 
0.0521677 0.231862 0.00694328 0.515546 0.542415 -0.663324 0 
0.0530925 0.232176 0.00901122 -0.458264 -0.860936 0.220868 0 
0.0532936 0.232383 0.00917522 -0.556567 -0.800161 0.223552 0 
0.0541035 0.233047 0.011309 -0.625234 -0.697062 0.35098 0 
0.0541819 0.232759 0.0117577 -0.50091 -0.803046 0.322809 0 
0.0542538 0.232789 0.0118757 -0.50954 -0.801613 0.312708 0 
0.0543726 0.232861 0.0117005 -0.50091 -0.803046 0.322809 0 
0.0545292 0.23293 0.0125195 -0.406893 -0.911815 0.0550581 0 
0.0546497 0.232876 0.0119515 -0.568585 -0.769261 0.291459 0 
0.0548896 0.232924 0.0119626 -0.543261 -0.806379 0.233711 0 
0.0546149 0.232813 0.0120733 -0.541907 -0.807458 0.233128 0 
0.0547611 0.232777 0.0126711 -0.33443 -0.941785 -0.0345962 0 
0.0547135 0.232706 0.01221 -0.503808 -0.844663 0.180892 0 
0.0548839 0.232628 0.0124647 -0.391213 -0.919808 0.0300933 0 
0.0551853 0.232601 0.0123727 -0.376854 -0.925946 0.0246056 0 
0.0547176 0.232484 0.0121789 -0.503808 -0.844663 0.180892 0 
0.0550496 0.232742 0.0119961 -0.492305 -0.852238 0.176992 0 
0.0548218 0.232673 0.0118135 -0.568585 -0.769261 0.291459 0 
0.0553881 0.232682 0.012144 -0.387877 -0.919362 0.0657646 0 
0.0541836 0.232634 0.0113649 -0.528771 -0.78437 0.324291 0 
0.05422 0.232571 0.0108504 -0.705581 -0.607356 0.365068 0 
0.0541522 0.23232 0.0107013 -0.710507 -0.616206 0.339808 0 
0.0540382 0.232699 0.0115216 -0.541751 -0.773241 0.329552 0 
0.0543888 0.232619 0.0114979 -0.516311 -0.795913 0.316141 0 
0.0543001 0.232158 0.0109063 -0.60108 -0.718364 0.350223 0 
0.0548089 0.232664 0.0112306 -0.511108 -0.797711 0.32004 0 
0.0545505 0.232311 0.0111387 -0.537354 -0.77796 0.32562 0 
0.0542362 0.232329 0.0106478 -0.710507 -0.616206 0.339808 0 
0.0550142 0.232006 0.0114418 -0.562055 -0.753186 0.341768 0 
0.0553953 0.232394 0.013229 -0.47342 -0.866227 -0.159761 0 
0.0548103 0.232723 0.0127394 -0.310464 -0.949278 -0.0498275 0 
0.0549582 0.232562 0.0129444 -0.0715673 -0.94599 -0.316198 0 
0.0549106 0.23249 0.0124834 -0.394403 -0.918526 0.0275165 0 
0.0552839 0.232493 0.0125094 -0.407641 -0.912214 -0.0411625 0 
0.0550318 0.232466 0.0126697 -0.372531 -0.925318 -0.0707674 0 
0.0552741 0.232418 0.0130425 -0.461433 -0.871596 -0.16553 0 
0.0553581 0.232427 0.0129891 -0.438791 -0.879049 -0.186376 0 
0.0554317 0.232332 0.0127144 -0.504557 -0.862806 -0.0314493 0 
0.0555262 0.232446 0.0128822 -0.47047 -0.869569 -0.150026 0 
0.0554567 0.23232 0.0131258 -0.461433 -0.871596 -0.16553 0 
0.0552467 0.232526 0.0122695 -0.376854 -0.925946 0.0246056 0 
0.0552161 0.232242 0.0123602 -0.376854 -0.925946 0.0246056 0 
0.0554132 0.232027 0.0126336 -0.573161 -0.819387 0.00957548 0 
0.0553363 0.232373 0.0136938 -0.541947 -0.835202 -0.0934391 0 
0.0554898 0.232508 0.0133967 -0.494332 -0.859645 -0.129019 0 
0.0558404 0.232428 0.013373 -0.463356 -0.876504 -0.130543 0 
0.0555907 0.232305 0.0138951 0.00876863 -0.943254 -0.331955 0 
0.0555334 0.232158 0.0139672 0.045014 -0.942721 -0.330531 0 
0.0555924 0.232179 0.0135023 -0.497359 -0.86294 -0.0892696 0 
0.0559431 0.232099 0.0134786 -0.00122847 -0.952066 -0.30589 0 
0.0549526 0.232265 0.0134465 -0.441395 -0.878391 -0.183304 0 
0.055506 0.232266 0.0131941 -0.463734 -0.870416 -0.165306 0 
0.0555004 0.231969 0.0136962 -0.172287 -0.954924 -0.241736 0 
0.0558792 0.232269 0.0132201 -0.480639 -0.863398 -0.153396 0 
0.0556248 0.232338 0.0130189 -0.461433 -0.871596 -0.16553 0 
0.0568632 0.231961 0.0149015 0.111782 -0.984407 -0.135822 0 
