0.0912175 0.234454 -0.028687 -0.110485 -0.976981 0.182486 0 
0.091446 0.234545 -0.0290181 -0.116806 -0.973382 0.197188 0 
0.091538 0.2344 -0.0288431 -0.141348 -0.971607 0.189737 0 
0.0911648 0.234227 -0.0283324 -0.125687 -0.976874 0.172975 0 
0.0913405 0.234091 -0.0283089 -0.134329 -0.975451 0.174502 0 
0.0913917 0.234448 -0.028327 -0.128503 -0.976869 0.170921 0 
0.091852 0.234617 -0.0286576 -0.143336 -0.972909 0.18139 0 
0.0916461 0.234461 -0.0284498 -0.148435 -0.973072 0.176346 0 
0.0918956 0.234616 -0.0285676 -0.154393 -0.971015 0.182464 0 
0.0917165 0.234763 -0.0289226 -0.141348 -0.971607 0.189737 0 
0.0913951 0.234436 -0.0279955 -0.127418 -0.978521 0.162056 0 
0.0914787 0.234444 -0.028147 -0.136243 -0.976199 0.168741 0 
0.0916093 0.234439 -0.0278769 -0.121708 -0.979814 0.15859 0 
0.0917943 0.234532 -0.028298 -0.139375 -0.975623 0.16951 0 
0.0917927 0.234661 -0.0279615 -0.130166 -0.978102 0.162397 0 
0.0920262 0.23461 -0.0282976 -0.142184 -0.975156 0.169866 0 
0.0914546 0.234639 -0.0276873 -0.110262 -0.982665 0.149036 0 
0.0916639 0.234784 -0.0275636 -0.102376 -0.984012 0.145735 0 
0.0919233 0.234656 -0.0276915 -0.116064 -0.981048 0.155159 0 
0.0922095 0.234832 -0.0283821 -0.145234 -0.9737 0.175544 0 
0.0920196 0.234881 -0.027956 -0.129953 -0.978982 0.157182 0 
0.0923352 0.234969 -0.028107 -0.138472 -0.97679 0.163422 0 
0.0921067 0.234878 -0.027776 -0.124178 -0.979897 0.156144 0 
0.0923611 0.234891 -0.0278988 -0.135748 -0.977631 0.160655 0 
0.0913869 0.234836 -0.0273176 -0.0945439 -0.984933 0.144808 0 
0.0916398 0.234979 -0.0271039 -0.0893438 -0.985164 0.146524 0 
0.0916332 0.23525 -0.0267624 -0.0766333 -0.986801 0.142656 0 
0.091788 0.23505 -0.0269521 -0.0868057 -0.98578 0.143883 0 
0.0918426 0.235394 -0.0266387 -0.0818619 -0.985902 0.145928 0 
0.0917896 0.23492 -0.0272885 -0.0973398 -0.984214 0.147812 0 
0.0919779 0.235001 -0.0273781 -0.0973398 -0.984214 0.147812 0 
0.0922373 0.234873 -0.027506 -0.112924 -0.982315 0.149351 0 
0.0921035 0.235137 -0.0271031 -0.089554 -0.985094 0.146869 0 
0.0921471 0.235135 -0.027013 -0.0871534 -0.984953 0.149235 0 
0.0923679 0.234868 -0.0272359 -0.0919222 -0.98488 0.146837 0 
0.0924985 0.234863 -0.0269659 -0.0871534 -0.984953 0.149235 0 
0.0931599 0.23533 -0.0274993 -0.131275 -0.976437 0.171283 0 
0.0914283 0.23483 -0.0251157 -0.0496852 -0.987926 0.146745 0 
0.0910901 0.234808 -0.0248415 0.059028 -0.994566 0.0857576 0 
0.0912433 0.234738 -0.0246946 0.0118848 -0.995084 0.0983199 0 
0.0914267 0.23496 -0.0247792 -0.0304341 -0.990798 0.131881 0 
0.09146 0.234993 -0.0256835 -0.0593253 -0.987592 0.145405 0 
0.091481 0.235057 -0.0254703 -0.0545429 -0.987575 0.147382 0 
0.0916116 0.235052 -0.0252002 -0.054775 -0.987116 0.15034 0 
0.091523 0.235185 -0.0250438 -0.0420645 -0.990221 0.133015 0 
0.0918645 0.235195 -0.0249866 -0.0699349 -0.985016 0.15765 0 
0.0917749 0.235591 -0.026269 -0.0766333 -0.986801 0.142656 0 
0.091645 0.235085 -0.0261045 -0.0742634 -0.986642 0.14499 0 
0.0915823 0.235141 -0.0257399 -0.0568758 -0.987782 0.145091 0 
0.0917756 0.23508 -0.0258345 -0.0695235 -0.986291 0.149652 0 
0.0919815 0.235236 -0.0260423 -0.0770911 -0.985581 0.150624 0 
0.0920266 0.235105 -0.0262888 -0.0769385 -0.985996 0.147959 0 
0.0921473 0.235383 -0.0260087 -0.0746784 -0.985043 0.155284 0 
0.0919682 0.235531 -0.0263637 -0.0793187 -0.986157 0.145615 0 
0.0921455 0.235265 -0.0266766 -0.0823516 -0.984639 0.153962 0 
0.0922761 0.23526 -0.0264065 -0.0844155 -0.985641 0.146241 0 
0.0926291 0.234858 -0.0266959 -0.0895223 -0.984746 0.149204 0 
0.0929959 0.235301 -0.026865 -0.0924742 -0.983589 0.154924 0 
0.0931281 0.235167 -0.0269315 -0.0921061 -0.984459 0.149523 0 
0.0926066 0.234923 -0.0265727 -0.0871534 -0.984953 0.149235 0 
0.0925389 0.23512 -0.026203 -0.0821585 -0.984712 0.153601 0 
0.0928033 0.234851 -0.0263359 -0.0873274 -0.984527 0.151926 0 
0.0929718 0.235497 -0.0264053 -0.0873274 -0.984527 0.151926 0 
0.09317 0.235295 -0.026505 -0.0924742 -0.983589 0.154924 0 
0.0933683 0.235093 -0.0266046 -0.0926932 -0.98351 0.155291 0 
0.0916694 0.235137 -0.0255599 -0.0524322 -0.986891 0.152636 0 
0.0919062 0.235075 -0.0255645 -0.0699349 -0.985016 0.15765 0 
0.092051 0.235157 -0.0257441 -0.0746784 -0.985043 0.155284 0 
0.0920946 0.235156 -0.0256541 -0.0797631 -0.984538 0.155955 0 
0.092441 0.235025 -0.0256019 -0.0802666 -0.983565 0.161731 0 
0.0918435 0.235131 -0.0251998 -0.0696354 -0.985518 0.154614 0 
0.0920368 0.23507 -0.0252945 -0.0673925 -0.984877 0.159614 0 
0.0921239 0.235067 -0.0251144 -0.0775198 -0.983905 0.161003 0 
0.0922863 0.235225 -0.0254122 -0.0778549 -0.983368 0.164094 0 
0.0925716 0.235019 -0.0253319 -0.0808988 -0.981653 0.172665 0 
0.0924426 0.234895 -0.0259384 -0.0825149 -0.9842 0.156659 0 
0.092631 0.234976 -0.026028 -0.0848897 -0.984003 0.156627 0 
0.0927616 0.234971 -0.025758 -0.0828092 -0.982909 0.164418 0 
0.0926828 0.234821 -0.0256116 -0.0802666 -0.983565 0.161731 0 
0.0928904 0.234848 -0.0261558 -0.0849212 -0.984369 0.154294 0 
0.093196 0.235217 -0.0262968 -0.0900582 -0.983436 0.157302 0 
0.0934554 0.23509 -0.0264246 -0.0900582 -0.983436 0.157302 0 
0.0931367 0.235261 -0.0256007 -0.0783133 -0.981928 0.172289 0 
0.0930645 0.234841 -0.0257958 -0.0802666 -0.983565 0.161731 0 
0.0931516 0.234838 -0.0256158 -0.083005 -0.982827 0.164807 0 
0.0930496 0.235265 -0.0257807 -0.0805827 -0.982628 0.167179 0 
0.0932479 0.235063 -0.0258804 -0.083005 -0.982827 0.164807 0 
0.0936295 0.235083 -0.0260646 -0.087642 -0.983271 0.159677 0 
0.0934572 0.235207 -0.0257567 -0.0805501 -0.98223 0.169516 0 
0.0911756 0.234934 -0.024325 0.0502026 -0.994012 0.0970584 0 
0.0913078 0.2348 -0.0243914 0.0252616 -0.993988 0.106538 0 
0.0916135 0.23517 -0.0245323 -0.0353558 -0.988823 0.144845 0 
0.0916119 0.235299 -0.0241959 -0.0171384 -0.986032 0.165672 0 
0.0916554 0.235298 -0.0241058 -0.0195397 -0.985032 0.17126 0 
0.091738 0.234677 -0.0244906 -0.0573419 -0.986514 0.153302 0 
0.0923021 0.234537 -0.0239884 -0.0523189 -0.974592 0.217793 0 
0.0923892 0.234534 -0.0238084 -0.0450186 -0.972158 0.22996 0 
0.0917258 0.2356 -0.0245786 -0.0191014 -0.989903 0.140452 0 
0.0917082 0.235524 -0.0244604 -0.0191317 -0.989221 0.145176 0 
0.0920562 0.235264 -0.0247447 -0.0706209 -0.982708 0.171166 0 
0.0921868 0.235259 -0.0244747 -0.053554 -0.981824 0.182084 0 
0.0921223 0.235196 -0.024778 -0.0706209 -0.982708 0.171166 0 
0.0922545 0.235062 -0.0248444 -0.0704837 -0.983188 0.168444 0 
0.0923558 0.235146 -0.025114 -0.073032 -0.982939 0.168812 0 
0.092575 0.235008 -0.0250004 -0.0732858 -0.981549 0.176607 0 
0.0925491 0.235085 -0.0252087 -0.07556 -0.982281 0.171509 0 
0.092504 0.235216 -0.0249622 -0.0707284 -0.981806 0.176222 0 
0.0927458 0.235013 -0.0249718 -0.0610977 -0.981158 0.183293 0 
0.0922529 0.235191 -0.0245079 -0.061448 -0.979553 0.191573 0 
0.0922353 0.235116 -0.0243897 -0.0487627 -0.981201 0.186726 0 
0.0924286 0.235055 -0.0244844 -0.0542667 -0.978007 0.20139 0 
0.09239 0.234915 -0.0245794 -0.0638774 -0.979855 0.189222 0 
0.0925306 0.234628 -0.0243194 -0.0567771 -0.977291 0.204156 0 
0.0926346 0.235211 -0.0246922 -0.0539364 -0.979245 0.19537 0 
0.0926991 0.235274 -0.0243889 -0.044552 -0.976531 0.210719 0 
0.0928103 0.235075 -0.0246686 -0.0489244 -0.979681 0.194504 0 
0.0929357 0.234964 -0.0253979 -0.0810222 -0.980732 0.177765 0 
0.0930228 0.23496 -0.0252179 -0.0636338 -0.980921 0.183698 0 
0.0930663 0.234959 -0.0251279 -0.0637556 -0.980393 0.186455 0 
0.0932161 0.2349 -0.0253125 -0.065772 -0.981797 0.178182 0 
0.093649 0.235276 -0.0255149 -0.070865 -0.9813 0.178964 0 
0.0931484 0.235097 -0.0249428 -0.0540633 -0.979147 0.195829 0 
0.0932145 0.235029 -0.0249761 -0.056485 -0.979475 0.193491 0 
0.0933367 0.235177 -0.0250324 -0.0539364 -0.979245 0.19537 0 
0.0934624 0.235314 -0.0247574 -0.0395375 -0.976456 0.212065 0 
0.0937795 0.235271 -0.0252448 -0.0514488 -0.979921 0.192634 0 
0.0923224 0.235112 -0.0242097 -0.0468684 -0.977026 0.207903 0 
0.0925592 0.23505 -0.0242143 -0.0498651 -0.974194 0.220136 0 
0.0925141 0.235181 -0.0239679 -0.0299704 -0.974636 0.221781 0 
0.092654 0.235405 -0.0241424 -0.0325 -0.973795 0.225092 0 
0.093018 0.235349 -0.0242085 -0.032617 -0.97247 0.230735 0 
0.0928974 0.235072 -0.0244886 -0.044552 -0.976531 0.210719 0 
0.0929504 0.235546 -0.0238388 -0.0354054 -0.968154 0.247838 0 
0.0931468 0.235226 -0.0246063 -0.0421267 -0.976135 0.213041 0 
0.0933737 0.235446 -0.0246009 -0.0373286 -0.974157 0.222768 0 
0.0932113 0.235289 -0.0243031 -0.0400652 -0.972492 0.229464 0 
0.0931437 0.235485 -0.0239334 -0.0404973 -0.968254 0.246666 0 
0.0933419 0.235283 -0.0240331 -0.0505936 -0.968682 0.243096 0 
0.0934383 0.235509 -0.0242976 -0.0401147 -0.971262 0.23461 0 
0.093635 0.235436 -0.0240608 -0.0664136 -0.96613 0.249364 0 
0.093279 0.235092 -0.0246728 -0.0394847 -0.977545 0.206995 0 
0.0937268 0.235044 -0.0248902 -0.0420492 -0.976744 0.210246 0 
0.0936591 0.235241 -0.0245206 -0.0399929 -0.97316 0.226626 0 
0.0941084 0.235064 -0.0250745 -0.0394847 -0.977545 0.206995 0 
0.0939796 0.235187 -0.0246766 -0.0525783 -0.972087 0.228654 0 
0.094239 0.235059 -0.0248044 -0.0524826 -0.97276 0.225797 0 
0.0937286 0.235162 -0.0242223 -0.0689081 -0.965966 0.249322 0 
0.093988 0.235034 -0.0243502 -0.0632669 -0.968852 0.239422 0 
0.0943696 0.235054 -0.0245344 -0.0656567 -0.969985 0.234134 0 
0.0931633 0.235318 -0.0271678 -0.108697 -0.980714 0.162435 0 
0.0930773 0.23595 -0.0271145 -0.10607 -0.981448 0.159714 0 
0.0938389 0.235227 -0.0259409 -0.0902369 -0.982981 0.16002 0 
0.0940306 0.235296 -0.0256991 -0.0732858 -0.981549 0.176607 0 
0.0941612 0.235291 -0.0254291 -0.053835 -0.979798 0.19261 0 
0.0912425 0.234641 -0.0299177 -0.0464345 -0.979888 0.194073 0 
0.0913731 0.234636 -0.0296477 -0.07182 -0.977483 0.198418 0 
0.0915037 0.234631 -0.0293777 -0.111734 -0.972965 0.202126 0 
0.0915572 0.234346 -0.0292977 -0.109042 -0.973856 0.199283 0 
0.0916325 0.234508 -0.0297755 -0.0848004 -0.977049 0.19541 0 
0.091887 0.234521 -0.0298984 -0.0927818 -0.976064 0.196697 0 
0.0922686 0.234541 -0.0300826 -0.101006 -0.973901 0.20326 0 
0.0916871 0.234852 -0.0294622 -0.117034 -0.972763 0.20009 0 
0.0917306 0.234851 -0.0293722 -0.11427 -0.97318 0.199659 0 
0.0922477 0.234477 -0.0302958 -0.0932701 -0.97374 0.207681 0 
0.0926393 0.234215 -0.0304901 -0.101642 -0.972499 0.209558 0 
0.0925716 0.234411 -0.0301204 -0.117321 -0.972627 0.200581 0 
0.0927022 0.234406 -0.0298504 -0.138783 -0.971481 0.192259 0 
0.0927699 0.23421 -0.0302201 -0.122593 -0.9719 0.200952 0 
0.0929005 0.234205 -0.0299501 -0.144199 -0.97111 0.190138 0 
0.0919048 0.234844 -0.0290122 -0.144415 -0.970006 0.195535 0 
0.092678 0.234602 -0.0293907 -0.155634 -0.968533 0.194221 0 
0.0919483 0.234842 -0.0289222 -0.147061 -0.970602 0.19054 0 
0.0920789 0.234837 -0.0286521 -0.1519 -0.971394 0.182535 0 
0.0928522 0.234595 -0.0290307 -0.179251 -0.964294 0.194952 0 
0.092683 0.23446 -0.0293957 -0.156334 -0.967721 0.197679 0 
0.0930746 0.234198 -0.02959 -0.152206 -0.970792 0.185461 0 
0.0932052 0.234193 -0.02932 -0.175475 -0.965764 0.191073 0 
0.0928635 0.233935 -0.0303816 -0.109198 -0.972738 0.204589 0 
0.0929941 0.23393 -0.0301116 -0.131082 -0.971028 0.199805 0 
0.0931053 0.233732 -0.0303913 -0.130759 -0.971173 0.199313 0 
0.0931858 0.233999 -0.0298697 -0.157272 -0.970481 0.182844 0 
0.0932729 0.233996 -0.0296897 -0.164129 -0.967973 0.189976 0 
0.093447 0.233989 -0.0293297 -0.174414 -0.967675 0.182166 0 
0.0928716 0.234788 -0.0284809 -0.162807 -0.970434 0.178191 0 
0.0931134 0.234585 -0.0284906 -0.180403 -0.966907 0.180403 0 
0.0930022 0.234783 -0.0282109 -0.161744 -0.97174 0.171933 0 
0.0930054 0.234524 -0.0288839 -0.178441 -0.965142 0.191465 0 
0.0931375 0.23439 -0.0289503 -0.181782 -0.963839 0.19486 0 
0.0932682 0.234385 -0.0286803 -0.184495 -0.964347 0.189729 0 
0.0933358 0.234188 -0.02905 -0.184869 -0.963679 0.192736 0 
0.0934664 0.234183 -0.0287799 -0.199087 -0.961154 0.191176 0 
0.0932666 0.234514 -0.0283438 -0.17414 -0.968734 0.17672 0 
0.0933988 0.23438 -0.0284102 -0.186642 -0.964536 0.186642 0 
0.0935971 0.234178 -0.0285099 -0.196055 -0.961853 0.190792 0 
0.0931328 0.234778 -0.0279409 -0.150305 -0.973824 0.170514 0 
0.0933311 0.234576 -0.0280406 -0.162477 -0.971021 0.17527 0 
0.092933 0.23511 -0.0275047 -0.111197 -0.981218 0.15763 0 
0.0931087 0.234973 -0.0274812 -0.125235 -0.978325 0.164914 0 
0.0932634 0.234773 -0.0276709 -0.139315 -0.975205 0.171947 0 
0.0934617 0.234571 -0.0277705 -0.154464 -0.971464 0.179995 0 
0.0933069 0.234772 -0.0275808 -0.136852 -0.975543 0.172007 0 
0.0935294 0.234375 -0.0281402 -0.168973 -0.968695 0.181872 0 
0.0937277 0.234173 -0.0282399 -0.194308 -0.960965 0.196952 0 
0.09366 0.234369 -0.0278702 -0.169316 -0.968076 0.184826 0 
0.0937906 0.234364 -0.0276002 -0.161208 -0.968541 0.189581 0 
0.0938583 0.234168 -0.0279699 -0.188254 -0.962333 0.196153 0 
0.094055 0.234095 -0.0277331 -0.185147 -0.9625 0.198278 0 
0.0931292 0.234543 -0.0292767 -0.175917 -0.965588 0.191554 0 
0.0930259 0.234093 -0.0306794 -0.114714 -0.971916 0.205476 0 
0.0929244 0.235015 -0.0288355 -0.175562 -0.96624 0.188566 0 
0.0931179 0.235202 -0.0279258 -0.152838 -0.973868 0.167995 0 
0.0932393 0.234968 -0.0272111 -0.111153 -0.980837 0.160012 0 
0.0933764 0.234693 -0.0272826 -0.122496 -0.97873 0.164565 0 
0.0937229 0.234561 -0.0272305 -0.133788 -0.976528 0.168798 0 
0.0933699 0.234963 -0.0269411 -0.100521 -0.982204 0.158654 0 
0.0935005 0.234958 -0.0266711 -0.0947341 -0.984515 0.147497 0 
0.0935682 0.234761 -0.0270408 -0.119478 -0.979228 0.163821 0 
0.093897 0.234555 -0.0268704 -0.12473 -0.979318 0.159309 0 
0.0937019 0.234497 -0.0274437 -0.142696 -0.973619 0.178055 0 
0.0939212 0.234359 -0.0273301 -0.1519 -0.971394 0.182535 0 
0.0939268 0.233707 -0.0269006 -0.15 -0.974369 0.167647 0 
0.0939036 0.234284 -0.0272119 -0.139315 -0.975205 0.171947 0 
0.0940342 0.234279 -0.0269419 -0.14471 -0.975218 0.16736 0 
0.0939948 0.233758 -0.026266 -0.131309 -0.980526 0.146036 0 
0.0936311 0.234953 -0.0264011 -0.0924742 -0.983589 0.154924 0 
0.0937617 0.234948 -0.026131 -0.087642 -0.983271 0.159677 0 
0.0941087 0.234058 -0.0266487 -0.135471 -0.978127 0.157843 0 
0.0940502 0.234484 -0.0267236 -0.130166 -0.978102 0.162397 0 
0.0942244 0.234477 -0.0263636 -0.132117 -0.979144 0.154342 0 
0.0942503 0.2344 -0.0261554 -0.130166 -0.978102 0.162397 0 
0.0938923 0.234943 -0.025861 -0.0855959 -0.982545 0.165164 0 
0.0940229 0.234938 -0.025591 -0.070865 -0.9813 0.178964 0 
0.0941567 0.234674 -0.0259939 -0.103164 -0.981875 0.158993 0 
0.0942212 0.234736 -0.0256906 -0.0785848 -0.980497 0.180141 0 
0.0941535 0.234933 -0.0253209 -0.051425 -0.979467 0.194937 0 
0.0942587 0.234247 -0.025829 -0.114341 -0.979891 0.16352 0 
0.0943893 0.234242 -0.0255589 -0.104238 -0.979836 0.17046 0 
0.0942841 0.234928 -0.0250509 -0.0420492 -0.976744 0.210246 0 
0.0945485 0.234659 -0.0251838 -0.0720923 -0.976301 0.204058 0 
0.0944148 0.234923 -0.0247809 -0.0600995 -0.97263 0.224453 0 
0.0945454 0.234918 -0.0245108 -0.0874956 -0.964988 0.24727 0 
0.0938871 0.234837 -0.0268604 -0.122496 -0.97873 0.164565 0 
0.0940789 0.234906 -0.0266185 -0.135471 -0.978127 0.157843 0 
0.0941483 0.234827 -0.0263203 -0.122496 -0.97873 0.164565 0 
0.094932 0.234797 -0.0247001 -0.112611 -0.961723 0.249815 0 
0.0928613 0.234539 -0.0234812 -0.0435516 -0.961869 0.27002 0 
0.0930149 0.235608 -0.0235355 -0.0513682 -0.960961 0.271875 0 
0.0934067 0.235593 -0.0227254 -0.126178 -0.937514 0.324263 0 
0.0934663 0.235797 -0.0224171 -0.154194 -0.926551 0.343115 0 
0.0935984 0.235662 -0.0224836 -0.166612 -0.925466 0.340224 0 
0.0937719 0.236166 -0.0225581 -0.163731 -0.925009 0.342855 0 
0.0934859 0.234984 -0.0234417 -0.0920218 -0.955212 0.28125 0 
0.0931329 0.235386 -0.0231523 -0.0707906 -0.953742 0.292172 0 
0.0933422 0.235531 -0.0230287 -0.110533 -0.944193 0.310292 0 
0.0931421 0.235615 -0.0235969 -0.0564407 -0.962 0.267153 0 
0.0934577 0.235702 -0.0237479 -0.0722149 -0.961599 0.264788 0 
0.0932727 0.23561 -0.0233269 -0.0840333 -0.955394 0.283128 0 
0.0935883 0.235697 -0.0234779 -0.0920218 -0.955212 0.28125 0 
0.093646 0.235783 -0.0238375 -0.0751006 -0.961034 0.266034 0 
0.0933162 0.235608 -0.0232369 -0.0816241 -0.952281 0.294106 0 
0.0936318 0.235695 -0.0233879 -0.0951564 -0.952868 0.288076 0 
0.0938202 0.235776 -0.0234775 -0.106611 -0.951603 0.288245 0 
0.0939072 0.235773 -0.0232975 -0.124588 -0.944457 0.304102 0 
0.0939832 0.235423 -0.0233408 -0.138778 -0.944498 0.297766 0 
0.0937369 0.235009 -0.0238959 -0.0914388 -0.959463 0.266589 0 
0.0941186 0.235029 -0.0240801 -0.0934875 -0.961769 0.257411 0 
0.0945003 0.235049 -0.0242644 -0.104846 -0.959147 0.262762 0 
0.0941204 0.235147 -0.0234122 -0.147938 -0.943274 0.297233 0 
0.0942927 0.235023 -0.0237201 -0.128932 -0.950379 0.28312 0 
0.0942167 0.235372 -0.0236768 -0.126764 -0.94873 0.289556 0 
0.0946744 0.235043 -0.0239043 -0.170612 -0.943142 0.285263 0 
0.0945021 0.235167 -0.0235965 -0.184846 -0.935348 0.301591 0 
0.0936118 0.235368 -0.0221622 -0.186944 -0.914741 0.35819 0 
0.0934469 0.235603 -0.0229669 -0.116961 -0.939724 0.321308 0 
0.0936302 0.235825 -0.0230514 -0.122987 -0.939296 0.320307 0 
0.0935775 0.235598 -0.0226968 -0.141283 -0.934112 0.327831 0 
0.0937608 0.23582 -0.0227814 -0.165634 -0.928387 0.33266 0 
0.0940329 0.235909 -0.0230224 -0.17451 -0.928392 0.328078 0 
0.0942972 0.23564 -0.0231553 -0.202717 -0.92286 0.327467 0 
0.0941635 0.235904 -0.0227524 -0.198723 -0.916415 0.347408 0 
0.094207 0.235902 -0.0226624 -0.208235 -0.914797 0.3461 0 
0.0944278 0.235635 -0.0228853 -0.23715 -0.909319 0.341904 0 
0.0943121 0.235216 -0.0231704 -0.192692 -0.926891 0.322091 0 
0.0946938 0.235236 -0.0233546 -0.230818 -0.918973 0.319705 0 
0.0948921 0.235034 -0.0234543 -0.271196 -0.907407 0.321037 0 
0.094565 0.235359 -0.0229568 -0.256466 -0.904227 0.341466 0 
0.0937115 0.235581 -0.0220954 -0.212901 -0.908086 0.360628 0 
0.0937191 0.235939 -0.0222035 -0.196517 -0.910865 0.362912 0 
0.0938448 0.236076 -0.0219284 -0.190493 -0.912361 0.362366 0 
0.0939025 0.236161 -0.022288 -0.196208 -0.912294 0.359475 0 
0.0940331 0.236156 -0.022018 -0.206923 -0.90728 0.366095 0 
0.0935727 0.235987 -0.0216874 -0.190592 -0.909967 0.368286 0 
0.0938432 0.236205 -0.0215919 -0.199795 -0.909856 0.363655 0 
0.0937595 0.236197 -0.0214405 -0.206271 -0.910191 0.359172 0 
0.0941587 0.236293 -0.0217429 -0.260462 -0.891524 0.3706 0 
0.09427 0.236094 -0.0220226 -0.260864 -0.88992 0.374154 0 
0.0936869 0.236535 -0.0210658 -0.126274 -0.935517 0.329943 0 
0.0937514 0.236597 -0.0207625 -0.122574 -0.94153 0.313843 0 
0.0938384 0.236594 -0.0205825 -0.12247 -0.940731 0.316269 0 
0.0939302 0.236202 -0.0214119 -0.218874 -0.908834 0.355127 0 
0.0940173 0.236199 -0.0212319 -0.275294 -0.894334 0.352674 0 
0.0942007 0.23642 -0.0213165 -0.262277 -0.896483 0.357112 0 
0.0942458 0.236289 -0.0215629 -0.303914 -0.881503 0.361371 0 
0.0944876 0.236086 -0.0215726 -0.297288 -0.882809 0.363687 0 
0.0944861 0.236215 -0.0212361 -0.276176 -0.891228 0.359776 0 
0.0946182 0.236081 -0.0213026 -0.279229 -0.891443 0.356876 0 
0.0942041 0.236409 -0.020985 -0.256722 -0.905129 0.338873 0 
0.0943313 0.236415 -0.0210464 -0.277141 -0.896633 0.345315 0 
0.0947053 0.236077 -0.0211225 -0.298613 -0.886837 0.352634 0 
0.0942054 0.236032 -0.0223259 -0.236435 -0.900215 0.365666 0 
0.0944231 0.236023 -0.0218758 -0.291573 -0.880762 0.373153 0 
0.0949261 0.23581 -0.0213454 -0.314265 -0.875995 0.365883 0 
0.0954098 0.235403 -0.0213647 -0.334109 -0.863757 0.37722 0 
0.0943293 0.23605 -0.0227187 -0.208027 -0.913885 0.348625 0 
0.0944565 0.236057 -0.0227801 -0.238829 -0.901102 0.361906 0 
0.0949252 0.236073 -0.0227844 -0.272824 -0.890031 0.365256 0 
0.09514 0.235318 -0.0232356 -0.282985 -0.899328 0.333359 0 
0.0943888 0.236254 -0.0224104 -0.240213 -0.897482 0.369898 0 
0.0944759 0.23625 -0.0222304 -0.247058 -0.89503 0.371327 0 
0.0948641 0.235999 -0.0227562 -0.266998 -0.89049 0.368427 0 
0.0946742 0.236048 -0.0223301 -0.266704 -0.889509 0.371001 0 
0.0946776 0.236037 -0.0219987 -0.294665 -0.880971 0.370219 0 
0.0948048 0.236043 -0.0220601 -0.304391 -0.879856 0.364966 0 
0.0948048 0.236043 -0.0220601 -0.304391 -0.879856 0.364966 0 
0.0951253 0.235989 -0.0222161 -0.317841 -0.874443 0.366506 0 
0.094879 0.235576 -0.0227713 -0.265874 -0.892683 0.363906 0 
0.0953928 0.235461 -0.023022 -0.315589 -0.873586 0.370474 0 
0.095188 0.235934 -0.0225808 -0.307611 -0.877374 0.368225 0 
0.0957068 0.235678 -0.0228365 -0.355963 -0.853379 0.380834 0 
0.0954199 0.236013 -0.0225804 -0.336205 -0.867378 0.366909 0 
0.0956116 0.236082 -0.0223385 -0.334608 -0.861962 0.380867 0 
0.0958374 0.235673 -0.0225664 -0.366525 -0.846906 0.385241 0 
0.0946936 0.236242 -0.0217804 -0.298213 -0.879501 0.370874 0 
0.0947371 0.23624 -0.0216904 -0.29867 -0.877818 0.374475 0 
0.0949388 0.236027 -0.0214586 -0.314265 -0.875995 0.365883 0 
0.0948918 0.23604 -0.02188 -0.300967 -0.878704 0.370538 0 
0.0951898 0.236052 -0.0219129 -0.304987 -0.875511 0.374785 0 
0.0952559 0.235984 -0.0219461 -0.304987 -0.875511 0.374785 0 
0.0951982 0.235899 -0.0215864 -0.323266 -0.868681 0.375356 0 
0.0951221 0.236248 -0.0215432 -0.291573 -0.880762 0.373153 0 
0.0952467 0.235756 -0.0215015 -0.329989 -0.867182 0.372965 0 
0.0953204 0.236047 -0.0216428 -0.334109 -0.863757 0.37722 0 
0.0953865 0.235979 -0.021676 -0.333607 -0.865532 0.373578 0 
0.0954542 0.235782 -0.0220457 -0.334608 -0.861962 0.380867 0 
0.0958458 0.23552 -0.02224 -0.369558 -0.849827 0.375795 0 
0.0959153 0.235441 -0.0219418 -0.352307 -0.855158 0.380243 0 
0.096112 0.235369 -0.021705 -0.353336 -0.851431 0.38758 0 
0.0957781 0.235717 -0.0218704 -0.34501 -0.858657 0.379047 0 
0.0957104 0.235914 -0.0215006 -0.313526 -0.867168 0.386937 0 
0.0959087 0.235712 -0.0216003 -0.331473 -0.861831 0.383892 0 
0.0942079 0.236892 -0.0186448 -0.0226231 -0.975175 0.220278 0 
0.0944089 0.237189 -0.0188476 0.0129327 -0.97701 0.212802 0 
0.0944784 0.23711 -0.0185493 0.00115567 -0.978855 0.204554 0 
0.0940952 0.23722 -0.0180286 0.0011536 -0.979409 0.201881 0 
0.0942675 0.237095 -0.0183365 0.00348109 -0.978185 0.207705 0 
0.0944256 0.236883 -0.0181948 -0.00815936 -0.977957 0.208646 0 
0.0945219 0.237109 -0.0184593 0.00349525 -0.977506 0.21088 0 
0.0946266 0.237181 -0.0183975 0.008178 -0.977855 0.209123 0 
0.0942357 0.236932 -0.0177687 -0.00349525 -0.977506 0.21088 0 
0.0944241 0.237013 -0.0178583 -0.008178 -0.977855 0.209123 0 
0.0945204 0.237238 -0.0181229 -0.0104955 -0.978409 0.206411 0 
0.0946174 0.236952 -0.0179529 -0.0200407 -0.977277 0.211016 0 
0.0945111 0.23701 -0.0176783 -0.0201596 -0.975961 0.217012 0 
0.0946803 0.237144 -0.0173132 -0.0129031 -0.977116 0.212315 0 
0.0948702 0.237095 -0.0177393 -0.0273969 -0.975568 0.217984 0 
0.0950008 0.23709 -0.0174692 -0.0201596 -0.975961 0.217012 0 
0.0949749 0.237167 -0.0176774 -0.0105521 -0.976654 0.214559 0 
0.0937245 0.236293 -0.0201998 -0.157236 -0.939315 0.304901 0 
0.0937708 0.236791 -0.0202128 -0.0210169 -0.958124 0.285583 0 
0.0938143 0.236789 -0.0201228 -0.03895 -0.956161 0.290241 0 
0.093969 0.236589 -0.0203125 -0.110436 -0.946025 0.304697 0 
0.0942896 0.236535 -0.0204685 -0.232391 -0.913684 0.33343 0 
0.0939499 0.236643 -0.0198578 -0.0734061 -0.95428 0.289761 0 
0.0940997 0.236584 -0.0200425 -0.0989047 -0.948167 0.301989 0 
0.0944813 0.236604 -0.0202267 -0.232 -0.915032 0.329988 0 
0.0942303 0.236579 -0.0197724 -0.127209 -0.946702 0.295928 0 
0.0944797 0.236733 -0.0198902 -0.173181 -0.935177 0.308955 0 
0.0942025 0.236538 -0.0206485 -0.229435 -0.91341 0.336216 0 
0.0944619 0.23641 -0.0207764 -0.259889 -0.903004 0.342114 0 
0.0944829 0.236474 -0.0205632 -0.249649 -0.906622 0.340166 0 
0.0944813 0.236604 -0.0202267 -0.232 -0.915032 0.329988 0 
0.0941599 0.236276 -0.0192996 -0.103566 -0.953072 0.284479 0 
0.0941691 0.236505 -0.0197442 -0.127209 -0.946702 0.295928 0 
0.0942997 0.2365 -0.0194742 -0.097713 -0.954982 0.280111 0 
0.0943961 0.236725 -0.0197388 -0.132681 -0.947531 0.290826 0 
0.0945007 0.236797 -0.019677 -0.10883 -0.953249 0.28191 0 
0.0942982 0.236629 -0.0191377 -0.0378666 -0.968651 0.245522 0 
0.0941534 0.236547 -0.0189581 -0.0428201 -0.970181 0.238569 0 
0.0943284 0.236922 -0.0193691 -0.0380905 -0.967006 0.251889 0 
0.0943879 0.237125 -0.0190608 -0.0252863 -0.971714 0.234801 0 
0.0941777 0.236599 -0.0184135 -0.0224193 -0.978191 0.206494 0 
0.0940814 0.236374 -0.0181489 -0.0370766 -0.977148 0.209303 0 
0.0943803 0.236767 -0.0189527 -0.0252863 -0.971714 0.234801 0 
0.0948668 0.237107 -0.0180707 -0.0104955 -0.978409 0.206411 0 
0.0950426 0.236971 -0.0180471 -0.0348601 -0.974881 0.219979 0 
0.0954391 0.236567 -0.0182465 -0.0604298 -0.970577 0.233086 0 
0.0946618 0.237332 -0.0186339 0.0688388 -0.979444 0.189609 0 
0.0948695 0.236353 -0.0207524 -0.276687 -0.898123 0.34179 0 
0.0949131 0.236351 -0.0206624 -0.257148 -0.90369 0.342374 0 
0.0947342 0.236747 -0.020013 -0.215268 -0.922372 0.320763 0 
0.0946841 0.237019 -0.0197615 -0.0464952 -0.958807 0.280228 0 
0.0945988 0.23714 -0.0192736 0.0276927 -0.971653 0.234786 0 
0.0947261 0.237147 -0.019335 0.00356976 -0.969785 0.243934 0 
0.0957327 0.236854 -0.0200496 -0.216368 -0.91849 0.331 0 
0.0958634 0.236849 -0.0197796 -0.212712 -0.920802 0.32692 0 
0.0956021 0.236859 -0.0203197 -0.246086 -0.910082 0.333454 0 
0.0958214 0.236721 -0.0202061 -0.210491 -0.917857 0.3365 0 
0.0954643 0.235747 -0.0210514 -0.273549 -0.889409 0.366227 0 
0.0954797 0.236464 -0.0212677 -0.287272 -0.882872 0.371498 0 
0.0957739 0.235347 -0.0214308 -0.336841 -0.862866 0.376831 0 
0.0960393 0.235707 -0.0213303 -0.31712 -0.865568 0.387591 0 
0.0962229 0.236176 -0.0204104 -0.267199 -0.899029 0.346916 0 
0.0960181 0.236649 -0.0199693 -0.219304 -0.918784 0.32824 0 
0.0961553 0.236373 -0.0200408 -0.21343 -0.918181 0.333754 0 
0.0961652 0.23609 -0.0200508 -0.258594 -0.907272 0.331644 0 
0.0962329 0.235894 -0.0204205 -0.265313 -0.896727 0.354244 0 
0.0961801 0.235667 -0.0200659 -0.285505 -0.900893 0.326925 0 
0.0963043 0.236825 -0.0206599 -0.239461 -0.900549 0.362864 0 
0.096435 0.23682 -0.0203899 -0.227962 -0.907492 0.352833 0 
0.0969305 0.237141 -0.0209569 -0.0613471 -0.898395 0.434883 0 
0.0946859 0.237137 -0.0190936 0.0324239 -0.973919 0.224566 0 
0.0948341 0.237208 -0.0189418 0.0250613 -0.975002 0.220778 0 
0.0949647 0.237203 -0.0186717 0.0249709 -0.976245 0.215226 0 
0.0949873 0.237137 -0.018795 0.0226516 -0.97402 0.225324 0 
0.0949907 0.237125 -0.0184635 0.0295906 -0.978856 0.202399 0 
0.0950568 0.237058 -0.0184968 0.0249257 -0.976851 0.212462 0 
0.0953872 0.236722 -0.0186629 -0.0533391 -0.966306 0.25181 0 
0.0953949 0.23708 -0.018771 0.0082513 -0.974833 0.222785 0 
0.0961773 0.237066 -0.0195941 -0.205972 -0.921902 0.328135 0 
0.0951213 0.23712 -0.0181935 0.0247446 -0.979178 0.201491 0 
0.0953807 0.236992 -0.0183214 0.0151736 -0.979283 0.201926 0 
0.0957623 0.237012 -0.0185056 -0.0252414 -0.972393 0.23198 0 
0.0952083 0.237117 -0.0180135 0.00581775 -0.978546 0.205948 0 
0.0953825 0.23711 -0.0176535 -0.0105952 -0.975938 0.217791 0 
0.0960747 0.237359 -0.0179837 0.0610708 -0.980724 0.185607 0 
0.0963181 0.237026 -0.0183298 0.0270995 -0.979118 0.201479 0 
0.0960763 0.237229 -0.0183201 0.0684446 -0.98104 0.181318 0 
0.0961792 0.237184 -0.0189262 0.0130876 -0.972055 0.234388 0 
0.0963098 0.237178 -0.0186562 0.0222967 -0.979883 0.198324 0 
0.0967526 0.237272 -0.0188686 0.0862706 -0.980569 0.176187 0 
0.096822 0.237193 -0.0185704 0.0994937 -0.978968 0.178106 0 
0.0964314 0.235939 -0.0195158 -0.253305 -0.906333 0.338228 0 
0.096271 0.236792 -0.0197556 -0.213072 -0.9195 0.330334 0 
0.0962809 0.236509 -0.0197657 -0.216732 -0.917162 0.334427 0 
0.0964115 0.236504 -0.0194957 -0.209589 -0.919626 0.332206 0 
0.0964627 0.23686 -0.0195138 -0.138924 -0.931201 0.336993 0 
0.0967305 0.23658 -0.0193152 -0.197556 -0.919558 0.339682 0 
0.0965933 0.236855 -0.0192437 -0.115063 -0.935395 0.33436 0 
0.0970528 0.236643 -0.0188034 -0.0559515 -0.940766 0.334408 0 
0.0968069 0.23737 -0.0195597 -0.0556381 -0.94326 0.327359 0 
0.0977703 0.237326 -0.0193599 0.543616 -0.838365 0.0403194 0 
0.0947421 0.234846 -0.024274 -0.133631 -0.953942 0.268586 0 
0.0948727 0.234841 -0.024004 -0.173707 -0.942395 0.285864 0 
0.0947004 0.234965 -0.0236961 -0.183715 -0.937914 0.294221 0 
0.0951932 0.234787 -0.0241601 -0.204899 -0.935289 0.288532 0 
0.0952061 0.235251 -0.0232688 -0.282704 -0.898437 0.335989 0 
0.09552 0.235468 -0.0230834 -0.336205 -0.867378 0.366909 0 
0.0956507 0.235463 -0.0228133 -0.361264 -0.854319 0.373668 0 
0.0957813 0.235458 -0.0225433 -0.358674 -0.852432 0.380411 0 
0.0957285 0.235231 -0.0221887 -0.358674 -0.852432 0.380411 0 
0.0960926 0.235175 -0.0222547 -0.401855 -0.824359 0.398678 0 
0.096352 0.235047 -0.0223826 -0.434253 -0.806012 0.402205 0 
0.0958591 0.235226 -0.0219187 -0.358563 -0.855274 0.374085 0 
0.0961009 0.235022 -0.0219283 -0.379083 -0.838387 0.391667 0 
0.0959897 0.235221 -0.0216486 -0.352824 -0.853305 0.383909 0 
0.0964215 0.234968 -0.0220844 -0.43377 -0.794976 0.424095 0 
0.095937 0.234994 -0.021294 -0.35189 -0.854147 0.382893 0 
0.0960824 0.234565 -0.0210391 -0.373779 -0.846086 0.380035 0 
0.0964641 0.234585 -0.0212234 -0.465804 -0.769802 0.436385 0 
0.0966658 0.234372 -0.0209916 -0.556634 -0.721807 0.411282 0 
0.0964549 0.234356 -0.0207788 -0.483817 -0.773781 0.408882 0 
0.0966531 0.234155 -0.0208784 -0.649211 -0.625846 0.432251 0 
0.096389 0.234671 -0.0197411 -0.303595 -0.87112 0.385978 0 
0.0967939 0.234114 -0.0196141 -0.764396 -0.503621 0.402571 0 
0.0962315 0.235017 -0.0216583 -0.379658 -0.833358 0.401713 0 
0.0962575 0.23494 -0.0214501 -0.371175 -0.844149 0.386836 0 
0.0964298 0.234815 -0.021758 -0.449309 -0.786696 0.423356 0 
0.0965604 0.23481 -0.0214879 -0.45884 -0.772353 0.439245 0 
0.0966827 0.234958 -0.0215443 -0.45884 -0.772353 0.439245 0 
0.0967621 0.234597 -0.0212562 -0.533743 -0.725428 0.434596 0 
0.0968491 0.234593 -0.0210762 -0.559869 -0.706067 0.433608 0 
0.0946176 0.2372 -0.0169485 -0.0249581 -0.975743 0.217492 0 
0.0947238 0.237142 -0.0172232 -0.0129031 -0.977116 0.212315 0 
0.0950879 0.237087 -0.0172892 -0.0348601 -0.974881 0.219979 0 
0.0946821 0.237262 -0.0166453 -0.0351127 -0.972258 0.231259 0 
0.0948544 0.237137 -0.0169531 -0.0201596 -0.975961 0.217012 0 
0.0949415 0.237134 -0.0167731 -0.0226638 -0.974541 0.223059 0 
0.095175 0.237083 -0.0171092 -0.0226231 -0.975175 0.220278 0 
0.0952169 0.237211 -0.0166827 -0.0082178 -0.97557 0.219533 0 
0.0948353 0.237191 -0.0164985 -0.0301156 -0.972132 0.232492 0 
0.0949659 0.237186 -0.0162284 -0.0328502 -0.96969 0.242118 0 
0.0950721 0.237129 -0.0165031 -0.0301156 -0.972132 0.232492 0 
0.0952027 0.237124 -0.0162331 -0.0481025 -0.968216 0.245446 0 
0.0951944 0.237277 -0.0165595 -0.0227728 -0.972037 0.23372 0 
0.0950965 0.237181 -0.0159584 -0.045936 -0.964656 0.259476 0 
0.0951576 0.237255 -0.0159866 -0.03314 -0.965969 0.256528 0 
0.0954732 0.237342 -0.0161376 -0.0380905 -0.967006 0.251889 0 
0.0953861 0.237346 -0.0163176 -0.0378666 -0.968651 0.245522 0 
0.0951743 0.236949 -0.0153338 -0.0386222 -0.960571 0.275339 0 
0.0951335 0.23745 -0.0155269 -0.0332908 -0.962966 0.267559 0 
0.0953379 0.237736 -0.0153982 -0.0135272 -0.957975 0.286532 0 
0.0953203 0.237661 -0.01528 -0.00608172 -0.959696 0.280976 0 
0.0953286 0.237508 -0.0149536 0.00854827 -0.958627 0.284535 0 
0.0954685 0.237731 -0.0151282 0.04118 -0.959618 0.278277 0 
0.095161 0.237243 -0.0156552 -0.0486146 -0.963566 0.263017 0 
0.0953879 0.237464 -0.0156497 -0.00603511 -0.964411 0.264338 0 
0.095449 0.237538 -0.0156779 -0.0108881 -0.964202 0.264944 0 
0.095512 0.237729 -0.0150382 0.0386611 -0.959044 0.280605 0 
0.0954057 0.237787 -0.0147635 0.0703059 -0.957438 0.279945 0 
0.0955104 0.237859 -0.0147017 0.0971272 -0.957027 0.273251 0 
0.0953965 0.237558 -0.0143189 0.0567349 -0.95945 0.27611 0 
0.0954703 0.237849 -0.0144603 0.0726467 -0.959701 0.271469 0 
0.0955298 0.238052 -0.014152 0.121757 -0.95704 0.263153 0 
0.095641 0.237854 -0.0144317 0.096955 -0.957915 0.270181 0 
0.095128 0.237097 -0.0175306 -0.0105521 -0.976654 0.214559 0 
0.095502 0.236759 -0.0176067 -0.0373961 -0.973506 0.225583 0 
0.0951826 0.237442 -0.0172173 -0.0201596 -0.975961 0.217012 0 
0.0953132 0.237437 -0.0169473 -0.0178113 -0.974873 0.222048 0 
0.0955065 0.237376 -0.0170419 -0.00585953 -0.976198 0.216803 0 
0.0954003 0.237433 -0.0167673 -0.0227324 -0.972709 0.230914 0 
0.0956371 0.237371 -0.0167719 -0.0202933 -0.972887 0.230389 0 
0.0955309 0.237428 -0.0164972 -0.0277909 -0.970263 0.240451 0 
0.0957678 0.237366 -0.0165019 -0.0155025 -0.97189 0.234923 0 
0.0955244 0.237699 -0.0161557 -0.0382241 -0.965467 0.257705 0 
0.0957788 0.237712 -0.0162785 -0.0205797 -0.967245 0.253009 0 
0.095574 0.238185 -0.0158374 0.00361879 -0.963805 0.266584 0 
0.0958059 0.238264 -0.0158369 0.0232918 -0.96232 0.270921 0 
0.0957707 0.238113 -0.0156006 0.03088 -0.962222 0.270509 0 
0.0955212 0.237958 -0.0154828 0.0159597 -0.958812 0.283592 0 
0.0955632 0.238086 -0.0150563 0.0785069 -0.95624 0.281853 0 
0.0957481 0.238178 -0.0154773 0.028489 -0.959956 0.278697 0 
0.0960335 0.237973 -0.015397 0.0785069 -0.95624 0.281853 0 
0.0956502 0.238083 -0.0148763 0.100366 -0.955429 0.277635 0 
0.0958787 0.238173 -0.0152073 0.0836805 -0.956532 0.279364 0 
0.0959658 0.23817 -0.0150273 0.100116 -0.955656 0.276945 0 
0.0957808 0.238077 -0.0146062 0.108136 -0.957587 0.267082 0 
0.0958244 0.238076 -0.0145162 0.128013 -0.954159 0.270543 0 
0.09614 0.238163 -0.0146672 0.1251 -0.954712 0.269953 0 
0.096227 0.23816 -0.0144872 0.15101 -0.952831 0.263265 0 
0.096077 0.237971 -0.015307 0.0891372 -0.957256 0.275163 0 
0.0962076 0.237966 -0.0150369 0.0946598 -0.955675 0.278793 0 
0.0963382 0.237961 -0.0147669 0.1251 -0.954712 0.269953 0 
0.096744 0.237786 -0.0154108 0.0758927 -0.955734 0.284276 0 
0.0968746 0.237781 -0.0151408 0.103384 -0.954016 0.281363 0 
0.0970052 0.237776 -0.0148708 0.119952 -0.953024 0.27813 0 
0.0959559 0.237199 -0.0175958 0.0199778 -0.978912 0.203303 0 
0.0961618 0.237355 -0.0178036 0.0839849 -0.979824 0.181359 0 
0.0954856 0.237312 -0.0172551 -0.00583866 -0.977391 0.211359 0 
0.0960253 0.23712 -0.0172976 -0.0153739 -0.975653 0.218783 0 
0.0962847 0.236992 -0.0174255 -0.00583576 -0.976906 0.213589 0 
0.0964487 0.237021 -0.0180598 0.0636338 -0.980921 0.183698 0 
0.096673 0.236741 -0.0179512 -0.0249581 -0.975743 0.217492 0 
0.0965182 0.236942 -0.0177615 -0.0011536 -0.979409 0.201881 0 
0.0966924 0.236935 -0.0174015 -0.0153464 -0.976266 0.21603 0 
0.0966813 0.236588 -0.0176248 -0.0425127 -0.972934 0.227139 0 
0.0967868 0.237042 -0.018334 0.104858 -0.978268 0.178876 0 
0.0958614 0.237092 -0.0166634 -0.0178968 -0.972394 0.232659 0 
0.0962171 0.237189 -0.0170558 -0.0129955 -0.974666 0.223287 0 
0.0963718 0.236989 -0.0172454 -0.0226231 -0.975175 0.220278 0 
0.096546 0.236982 -0.0168854 -0.0106086 -0.974811 0.22278 0 
0.0962365 0.237382 -0.0165061 0.00828053 -0.973554 0.228306 0 
0.0963477 0.237184 -0.0167857 -0.0106274 -0.974177 0.225537 0 
0.0964783 0.237179 -0.0165157 0.00117628 -0.97278 0.231726 0 
0.0967553 0.237127 -0.0167618 -0.0130487 -0.973907 0.226573 0 
0.0967007 0.236782 -0.0170751 -0.0299704 -0.974636 0.221781 0 
0.0969536 0.236925 -0.0168614 -0.0106274 -0.974177 0.225537 0 
0.0964106 0.237376 -0.016146 0.00119942 -0.965534 0.260274 0 
0.0969294 0.23712 -0.0164017 0.00829513 -0.9729 0.231079 0 
0.0967312 0.237322 -0.0163021 0.0254206 -0.969615 0.243312 0 
0.0966811 0.237594 -0.0160506 0.013361 -0.963205 0.268434 0 
0.0969229 0.237391 -0.0160602 0.0158639 -0.962817 0.269687 0 
0.0970165 0.237117 -0.0162217 0.0256433 -0.965897 0.257654 0 
0.0971906 0.23711 -0.0158617 0.0360839 -0.959333 0.279961 0 
0.0970842 0.23692 -0.0165914 -0.00354503 -0.97252 0.23279 0 
0.0972148 0.236915 -0.0163214 0.0228934 -0.969959 0.242189 0 
0.0973195 0.236987 -0.0162596 0.028035 -0.9666 0.254753 0 
0.0968552 0.237588 -0.0156905 0.0703059 -0.957438 0.279945 0 
0.0970535 0.237386 -0.0157902 0.0464952 -0.958807 0.280228 0 
0.0971841 0.237381 -0.0155201 0.0599449 -0.955293 0.289521 0 
0.0972777 0.237106 -0.0156816 0.0491693 -0.95691 0.286191 0 
0.0972536 0.237302 -0.0152219 0.0732803 -0.955216 0.286693 0 
0.0970084 0.237517 -0.0155437 0.0648511 -0.957508 0.281022 0 
0.0971825 0.23751 -0.0151837 0.0813449 -0.954189 0.287935 0 
0.0956638 0.238036 -0.0135505 0.202021 -0.956591 0.210049 0 
0.0956379 0.238113 -0.0137587 0.204433 -0.951765 0.228803 0 
0.0955752 0.238169 -0.0133941 0.194597 -0.959745 0.202539 0 
0.0957008 0.238305 -0.013119 0.233522 -0.959157 0.15964 0 
0.0956992 0.238434 -0.0127825 0.212995 -0.966869 0.140706 0 
0.0960992 0.238019 -0.0126504 0.203543 -0.969072 0.139536 0 
0.0954109 0.237893 -0.0137642 0.13783 -0.959556 0.245468 0 
0.0955943 0.238115 -0.0138487 0.163863 -0.9552 0.24646 0 
0.0961168 0.238095 -0.0127686 0.193075 -0.970487 0.144486 0 
0.0961621 0.238211 -0.0120107 0.214153 -0.968176 0.129518 0 
0.0963538 0.23828 -0.0117688 0.213164 -0.96881 0.126367 0 
0.0964409 0.238276 -0.0115888 0.223706 -0.96769 0.116327 0 
0.0963732 0.238473 -0.0112191 0.238715 -0.961382 0.136968 0 
0.096064 0.237868 -0.012414 0.203181 -0.969904 0.134176 0 
0.0961603 0.238093 -0.0126786 0.203543 -0.969072 0.139536 0 
0.0961946 0.237863 -0.012144 0.195606 -0.970361 0.14191 0 
0.0976306 0.237065 -0.0121868 0.174133 -0.975897 0.131539 0 
0.0958907 0.238256 -0.0135451 0.207793 -0.955847 0.207793 0 
0.0958842 0.238527 -0.0132035 0.220506 -0.959926 0.172972 0 
0.0960825 0.238325 -0.0133032 0.204346 -0.961087 0.185889 0 
0.0959762 0.238382 -0.0130286 0.21269 -0.96428 0.157886 0 
0.0957842 0.238066 -0.0142748 0.133482 -0.955518 0.262999 0 
0.0958873 0.238268 -0.0138765 0.199243 -0.950131 0.239905 0 
0.095955 0.238071 -0.0142462 0.136076 -0.955177 0.262905 0 
0.0960856 0.238066 -0.0139762 0.175991 -0.9525 0.248537 0 
0.0963576 0.238155 -0.0142172 0.182465 -0.950171 0.252748 0 
0.0959744 0.238264 -0.0136965 0.22102 -0.950522 0.218308 0 
0.0960455 0.238056 -0.0137347 0.192032 -0.954787 0.226947 0 
0.0961066 0.23813 -0.0137629 0.197823 -0.954127 0.224738 0 
0.0963236 0.238632 -0.0137474 0.193969 -0.956468 0.218048 0 
0.096269 0.238288 -0.0140607 0.182243 -0.951714 0.247041 0 
0.0972581 0.237919 -0.0146571 0.163863 -0.946613 0.277619 0 
0.0970582 0.23825 -0.014221 0.159458 -0.952728 0.258617 0 
0.0969662 0.238395 -0.014396 0.165708 -0.949791 0.265402 0 
0.0970968 0.23839 -0.0141259 0.155569 -0.95602 0.248645 0 
0.0973887 0.237914 -0.0143871 0.148456 -0.95092 0.2715 0 
0.0972515 0.23819 -0.0143156 0.153903 -0.951519 0.266318 0 
0.0960389 0.238327 -0.0133932 0.22555 -0.95692 0.182842 0 
0.0962223 0.238548 -0.0134778 0.204764 -0.960408 0.188911 0 
0.0964492 0.238769 -0.0134723 0.181507 -0.96499 0.189342 0 
0.0963529 0.238543 -0.0132078 0.198423 -0.966178 0.164704 0 
0.0962792 0.238252 -0.0130664 0.203995 -0.965405 0.162417 0 
0.0964014 0.2384 -0.0131228 0.189581 -0.968541 0.161208 0 
0.0963437 0.238315 -0.0127632 0.198977 -0.969209 0.14506 0 
0.0966734 0.238489 -0.0133638 0.183747 -0.965647 0.183747 0 
0.0966718 0.238619 -0.0130273 0.180298 -0.970538 0.159838 0 
0.0967781 0.238562 -0.013302 0.170782 -0.969477 0.175918 0 
0.0968988 0.238839 -0.0130219 0.161943 -0.975427 0.14939 0 
0.0969599 0.238913 -0.0130501 0.159497 -0.97582 0.14945 0 
0.0973431 0.238804 -0.0135708 0.12539 -0.971454 0.201383 0 
0.0975655 0.238406 -0.0141301 0.138509 -0.956372 0.257231 0 
0.0975705 0.238265 -0.0141352 0.139116 -0.95526 0.261007 0 
0.0978795 0.238623 -0.0139447 0.10377 -0.964679 0.24213 0 
0.0979456 0.238556 -0.0139779 0.0958003 -0.96439 0.246526 0 
0.0981935 0.23884 -0.0137592 0.0914949 -0.97135 0.219337 0 
0.0983307 0.238564 -0.0138307 0.0953897 -0.965343 0.242926 0 
0.096281 0.23837 -0.0123985 0.186423 -0.972696 0.138232 0 
0.096841 0.238753 -0.0126622 0.183455 -0.972945 0.140438 0 
0.0965614 0.238306 -0.0123131 0.19471 -0.971003 0.138715 0 
0.0964066 0.238507 -0.0121234 0.206069 -0.968906 0.136952 0 
0.0965598 0.238436 -0.0119766 0.19471 -0.971003 0.138715 0 
0.0968753 0.238523 -0.0121276 0.189336 -0.972094 0.138508 0 
0.0964937 0.238503 -0.0119434 0.201815 -0.970998 0.128197 0 
0.0965372 0.238502 -0.0118534 0.213164 -0.96881 0.126367 0 
0.0966243 0.238498 -0.0116734 0.216669 -0.967959 0.126924 0 
0.0970059 0.238518 -0.0118576 0.199738 -0.970701 0.133583 0 
0.0966227 0.238628 -0.0113369 0.233199 -0.96276 0.136793 0 
0.0967901 0.238644 -0.0116397 0.229087 -0.964234 0.13331 0 
0.0968771 0.238641 -0.0114597 0.226144 -0.96531 0.130517 0 
0.0970495 0.238516 -0.0117676 0.203181 -0.969904 0.134176 0 
0.0966642 0.238261 -0.0129192 0.185002 -0.970939 0.151829 0 
0.0964307 0.238311 -0.0125831 0.180943 -0.973044 0.142983 0 
0.0967975 0.238755 -0.0127522 0.186357 -0.972353 0.140719 0 
0.0966141 0.238533 -0.0126677 0.186357 -0.972353 0.140719 0 
0.0967883 0.238527 -0.0123077 0.192191 -0.971135 0.141279 0 
0.0969766 0.238607 -0.0123973 0.189737 -0.971607 0.141348 0 
0.0969197 0.238903 -0.0128086 0.180563 -0.973526 0.140157 0 
0.0971791 0.238775 -0.0129365 0.161943 -0.975427 0.14939 0 
0.0972755 0.239 -0.0132011 0.14471 -0.975218 0.16736 0 
0.0970736 0.238321 -0.0122273 0.18675 -0.971862 0.143556 0 
0.0983282 0.238312 -0.0127232 0.161666 -0.976265 0.144121 0 
0.0983927 0.238375 -0.0124199 0.180563 -0.973526 0.140157 0 
0.0975134 0.239567 -0.0129723 0.148169 -0.977419 0.150659 0 
0.0979657 0.240137 -0.0126249 0.159714 -0.981448 0.10607 0 
0.0980703 0.240209 -0.0125631 0.169323 -0.980609 0.09867 0 
0.0975811 0.23937 -0.013342 0.12373 -0.976089 0.178721 0 
0.0975745 0.239641 -0.0130005 0.148169 -0.977419 0.150659 0 
0.0980498 0.239387 -0.0133462 0.123428 -0.976207 0.178286 0 
0.0977051 0.239636 -0.0127304 0.173094 -0.974129 0.145298 0 
0.0984464 0.238983 -0.0135455 0.103925 -0.972891 0.206598 0 
0.0985919 0.238554 -0.0132906 0.114714 -0.971916 0.205476 0 
0.0984681 0.238536 -0.0128978 0.141319 -0.97673 0.161329 0 
0.0979673 0.240007 -0.0129614 0.140167 -0.978686 0.15009 0 
0.0977922 0.239632 -0.0125504 0.173029 -0.977177 0.123236 0 
0.0987159 0.23882 -0.0126791 0.151282 -0.976455 0.153782 0 
0.0988141 0.239163 -0.0122757 0.18042 -0.976759 0.115718 0 
0.0973842 0.237297 -0.0149519 0.0816861 -0.953004 0.291736 0 
0.097642 0.237298 -0.0147433 0.101169 -0.949933 0.295622 0 
0.0977726 0.237293 -0.0144733 0.097713 -0.954982 0.280111 0 
0.0973918 0.237655 -0.01506 0.104109 -0.950157 0.293876 0 
0.0974002 0.237502 -0.0147336 0.114869 -0.951957 0.283871 0 
0.0976531 0.237645 -0.01452 0.143008 -0.950267 0.27666 0 
0.0976465 0.237915 -0.0141785 0.13667 -0.954038 0.266706 0 
0.0978448 0.237714 -0.0142781 0.122727 -0.954106 0.273167 0 
0.0979754 0.237709 -0.0140081 0.102285 -0.959404 0.262833 0 
0.0979605 0.238132 -0.013993 0.0933187 -0.962589 0.254389 0 
0.098106 0.237704 -0.0137381 0.0983922 -0.964755 0.244064 0 
0.0982134 0.238275 -0.0137793 0.0953897 -0.965343 0.242926 0 
0.0982217 0.238122 -0.0134529 0.102031 -0.971181 0.215398 0 
0.0982996 0.23789 -0.0128283 0.153527 -0.973185 0.171291 0 
0.0982912 0.238043 -0.0131547 0.13286 -0.973038 0.188534 0 
0.0959097 0.239816 -0.00763693 0.0859376 -0.987694 0.130672 0 
0.0959081 0.239945 -0.00730045 0.083351 -0.992219 0.0924853 0 
0.0962237 0.240033 -0.00745145 0.122084 -0.989458 0.0779009 0 
0.0962303 0.239762 -0.00779296 0.124589 -0.983409 0.131847 0 
0.0964897 0.239634 -0.00792082 0.117818 -0.986578 0.113058 0 
0.0964881 0.239764 -0.00758435 0.122084 -0.989458 0.0779009 0 
0.09644 0.239148 -0.00823917 0.0631463 -0.982938 0.172759 0 
0.0966444 0.239434 -0.0081105 0.113994 -0.98515 0.128393 0 
0.0966234 0.23937 -0.00832374 0.134043 -0.980111 0.14634 0 
0.0967556 0.239235 -0.00839018 0.123215 -0.982062 0.142734 0 
0.0968186 0.239427 -0.00775046 0.103721 -0.989425 0.10139 0 
0.0970051 0.23939 -0.00850796 0.0778241 -0.982978 0.166424 0 
0.0968327 0.239514 -0.00820009 0.111782 -0.984407 0.135822 0 
0.0970161 0.239736 -0.00828465 0.0744108 -0.986238 0.14764 0 
0.097232 0.23961 -0.00850252 0.067814 -0.983897 0.165371 0 
0.0971131 0.23945 -0.0081147 0.0934047 -0.987252 0.128875 0 
0.0970069 0.239508 -0.00784005 0.0893787 -0.99013 0.107951 0 
0.0971853 0.239871 -0.00791958 0.0873851 -0.989199 0.117679 0 
0.0973191 0.239607 -0.0083225 0.067261 -0.985315 0.156942 0 
0.0973836 0.239669 -0.00801925 0.0352308 -0.989873 0.137514 0 
0.0978317 0.240762 -0.00843783 0.0346092 -0.992502 0.117225 0 
0.0983812 0.241938 -0.00912603 0.261472 -0.954307 0.144672 0 
0.0986004 0.2418 -0.00901247 0.167272 -0.980433 0.103782 0 
0.0988506 0.241444 -0.00869571 0.0363819 -0.998944 0.0280661 0 
0.0957284 0.238061 -0.00624878 0.00895433 -0.9999 0.0109442 0 
0.0955435 0.237969 -0.00582775 0.0743846 -0.985891 -0.14995 0 
0.0957744 0.24021 -0.00689753 0.0437482 -0.997674 0.0522845 0 
0.0960949 0.240156 -0.00705357 0.0624525 -0.995952 0.0646438 0 
0.0961384 0.240154 -0.00696356 0.0713693 -0.995877 0.0559975 0 
0.0959684 0.239638 -0.00655764 0.013696 -0.997701 0.0663729 0 
0.0960654 0.239352 -0.00638768 0.00311587 -0.998116 0.0612787 0 
0.0963081 0.23953 -0.00716835 0.020906 -0.993586 0.111132 0 
0.0963593 0.239886 -0.00718646 0.07669 -0.994747 0.0677984 0 
0.0965316 0.239762 -0.00749434 0.109998 -0.992248 0.0578339 0 
0.0967509 0.239624 -0.00738075 0.072853 -0.994163 0.0795779 0 
0.0964127 0.239602 -0.00710652 0.00760204 -0.993695 0.111859 0 
0.0967944 0.239622 -0.00729074 0.0456387 -0.994033 0.0990694 0 
0.0964261 0.239308 -0.00678515 -0.00530504 -0.996286 0.0859416 0 
0.0966656 0.239745 -0.00689286 0.0350663 -0.997797 0.0563187 0 
0.0966336 0.239335 -0.00732943 0.00994581 -0.991266 0.131506 0 
0.0972104 0.239412 -0.00694036 0.0286856 -0.997621 0.0626833 0 
0.0961349 0.239273 -0.00608947 0.00312152 -0.997844 0.0655518 0 
0.0962025 0.239076 -0.00645916 -0.057704 -0.992283 0.109751 0 
0.0961166 0.239708 -0.00640579 0.00313409 -0.997687 0.0679054 0 
0.0978666 0.239128 -0.00626317 -0.0285752 -0.998017 0.0560921 0 
0.0968521 0.239708 -0.00765038 0.104953 -0.990708 0.0864995 0 
0.0969827 0.239703 -0.00738035 0.07402 -0.995404 0.0607627 0 
0.0970504 0.239506 -0.00775004 0.0645274 -0.992817 0.100753 0 
0.0973098 0.239378 -0.00787789 0.0559874 -0.990633 0.124543 0 
0.0971986 0.239577 -0.0075982 0.0567969 -0.994502 0.0879794 0 
0.0973308 0.239442 -0.00766465 0.0622579 -0.99273 0.103008 0 
0.0975803 0.239597 -0.00778244 0.0505045 -0.993255 0.104376 0 
0.0971134 0.239698 -0.00711032 0.0688973 -0.99742 0.0201392 0 
0.0971745 0.239772 -0.0071385 0.0688973 -0.99742 0.0201392 0 
0.0973067 0.239637 -0.00720494 0.063992 -0.996756 0.0488074 0 
0.0973937 0.239634 -0.00702492 0.062169 -0.997865 0.0200205 0 
0.0976272 0.239583 -0.00736099 0.059901 -0.996534 0.0577227 0 
0.0977143 0.23958 -0.00718097 0.0517545 -0.998123 0.0327427 0 
0.0976448 0.239659 -0.00747918 0.0448166 -0.995803 0.0797954 0 
0.0976883 0.239657 -0.00738917 0.0575977 -0.996549 0.0597712 0 
0.0977327 0.240037 -0.00807016 -0.00774817 -0.990658 0.136146 0 
0.0978809 0.240108 -0.00791833 -0.00326352 -0.993197 0.116399 0 
0.0975243 0.239629 -0.0067549 0.0240477 -0.998502 0.049141 0 
0.0977127 0.239709 -0.0068445 0.0506051 -0.998676 0.00929481 0 
0.0977754 0.239654 -0.00720915 0.0519699 -0.998035 0.0350002 0 
0.097906 0.239649 -0.00693913 0.0338216 -0.999276 0.0174233 0 
0.0975728 0.239486 -0.00666992 0.0258829 -0.999081 0.0341655 0 
0.0978884 0.239573 -0.00682093 0.0236225 -0.999336 0.0277308 0 
0.0978356 0.239346 -0.00646634 0.00100662 -0.999573 0.029192 0 
0.0978968 0.23942 -0.00649452 0.0191293 -0.999756 0.0110748 0 
0.0981027 0.239577 -0.00670232 0.0232475 -0.999643 0.0131399 0 
0.0980499 0.23935 -0.00634772 -0.00895433 -0.9999 0.0109442 0 
0.098137 0.239346 -0.0061677 -0.0548629 -0.997213 0.0505599 0 
0.0983112 0.23934 -0.00580766 -0.0697633 -0.997078 0.0311251 0 
0.0984945 0.239561 -0.00589222 -0.0992679 -0.993794 0.0501916 0 
0.0985473 0.239788 -0.00624681 -0.029192 -0.999573 0.00100662 0 
0.0983432 0.23975 -0.00537112 -0.107742 -0.99236 0.0601087 0 
0.0980953 0.239466 -0.0055898 -0.0674822 -0.997237 0.0310632 0 
0.0982886 0.239405 -0.00568443 -0.0674822 -0.997237 0.0310632 0 
0.0982259 0.239461 -0.00531977 -0.0999088 -0.993475 0.055006 0 
0.0985441 0.240047 -0.00557387 -0.135639 -0.987213 0.0837421 0 
0.098308 0.239599 -0.00513472 -0.0976602 -0.99344 0.0594941 0 
0.0984914 0.23982 -0.00521928 -0.168707 -0.978991 0.114523 0 
0.0986747 0.240042 -0.00530384 -0.148406 -0.98334 0.10497 0 
