0.0895356 0.237077 -0.027025 0.289688 0.632193 0.718619 0 
0.0894132 0.23769 -0.0276803 0.272685 0.642644 0.715997 0 
0.089502 0.237717 -0.0277177 0.275493 0.635387 0.721379 0 
0.0894028 0.236992 -0.0268669 0.296815 0.630531 0.717169 0 
0.0896371 0.236738 -0.0264918 0.293963 0.634511 0.714829 0 
0.089769 0.236916 -0.0268538 0.272685 0.642644 0.715997 0 
0.0900354 0.236996 -0.0269661 0.251531 0.64702 0.71979 0 
0.0899036 0.236818 -0.0266041 0.272685 0.642644 0.715997 0 
0.09017 0.236898 -0.0267165 0.248106 0.652662 0.715874 0 
0.0898572 0.237824 -0.0278675 0.247595 0.654471 0.714398 0 
0.090256 0.2372 -0.0273655 0.24066 0.659063 0.712543 0 
0.089946 0.23785 -0.0279049 0.248106 0.652662 0.715874 0 
0.0902125 0.23793 -0.0280173 0.237552 0.649729 0.722095 0 
0.0906113 0.237307 -0.0275153 0.223434 0.673428 0.704678 0 
0.0902909 0.237258 -0.0272413 0.241236 0.663794 0.707942 0 
0.0905253 0.237004 -0.0268662 0.237604 0.653017 0.719106 0 
0.0907917 0.237084 -0.0269786 0.223411 0.670232 0.707727 0 
0.0899394 0.236784 -0.0262762 0.279713 0.637746 0.717664 0 
0.0902058 0.236864 -0.0263885 0.262167 0.649856 0.713412 0 
0.0901628 0.236713 -0.026064 0.262167 0.649856 0.713412 0 
0.0904822 0.236853 -0.0265417 0.234149 0.655302 0.71816 0 
0.0906598 0.236907 -0.0266166 0.230775 0.664068 0.711165 0 
0.0910151 0.237013 -0.0267664 0.21695 0.666457 0.71328 0 
0.0909208 0.237538 -0.0279521 0.22721 0.65656 0.719239 0 
0.0911442 0.237467 -0.0277399 0.213526 0.668634 0.712274 0 
0.0911872 0.237618 -0.0280644 0.220256 0.654519 0.723251 0 
0.0908338 0.237327 -0.0275069 0.223434 0.673428 0.704678 0 
0.0909235 0.237262 -0.0273405 0.220482 0.677083 0.702102 0 
0.09119 0.237342 -0.0274528 0.213576 0.675026 0.706205 0 
0.0910581 0.237164 -0.0270909 0.217026 0.676058 0.704162 0 
0.0913246 0.237244 -0.0272032 0.206752 0.682438 0.701093 0 
0.0913666 0.237487 -0.0277316 0.21346 0.662194 0.718286 0 
0.0914564 0.237422 -0.0275652 0.209693 0.675678 0.706744 0 
0.091591 0.237324 -0.0273155 0.206738 0.679283 0.704154 0 
0.0914536 0.237698 -0.0281768 0.230489 0.644429 0.729099 0 
0.0915882 0.2376 -0.0279272 0.22373 0.655544 0.721254 0 
0.0914958 0.237941 -0.0287051 0.254359 0.617729 0.744119 0 
0.0916743 0.237902 -0.0285762 0.247065 0.62789 0.738047 0 
0.0917201 0.237778 -0.0282891 0.240815 0.637452 0.73189 0 
0.0918547 0.23768 -0.0280395 0.23357 0.650548 0.722657 0 
0.0918089 0.237804 -0.0283265 0.240815 0.637452 0.73189 0 
0.0917228 0.237502 -0.0276775 0.223813 0.662048 0.715262 0 
0.0918574 0.237404 -0.0274279 0.209736 0.685137 0.697566 0 
0.0919893 0.237582 -0.0277898 0.220378 0.664261 0.714276 0 
0.0922557 0.237662 -0.0279022 0.234192 0.658568 0.715152 0 
0.0921239 0.237484 -0.0275402 0.213144 0.679882 0.701663 0 
0.0924352 0.237531 -0.0275693 0.217043 0.679234 0.701095 0 
0.090677 0.237001 -0.02731 0.223411 0.670232 0.707727 0 
0.0898366 0.236426 -0.0262408 0.279845 0.644442 0.711605 0 
0.0906842 0.237186 -0.0279626 0.223411 0.670232 0.707727 0 
0.0913489 0.237523 -0.0285491 0.22654 0.645247 0.729614 0 
0.0919407 0.237982 -0.0286885 0.254359 0.617729 0.744119 0 
0.0920653 0.237975 -0.0283979 0.25051 0.625487 0.738925 0 
0.0923875 0.23784 -0.0282641 0.243703 0.633627 0.734252 0 
0.0922071 0.238062 -0.0288008 0.261156 0.609364 0.748647 0 
0.0924736 0.238142 -0.0289132 0.264361 0.599958 0.755092 0 
0.0923418 0.237964 -0.0285512 0.25051 0.625487 0.738925 0 
0.0927428 0.237946 -0.0284139 0.246977 0.62452 0.74093 0 
0.0922548 0.237754 -0.028106 0.240461 0.645943 0.724525 0 
0.0925222 0.237742 -0.0280145 0.237552 0.649729 0.722095 0 
0.0929521 0.238295 -0.0276691 0.229963 0.642958 0.730563 0 
0.092601 0.237859 -0.028011 0.240815 0.637452 0.73189 0 
0.0928674 0.237939 -0.0281233 0.233323 0.637331 0.734418 0 
0.0933853 0.238611 -0.0280193 0.229952 0.621026 0.749299 0 
0.09274 0.238222 -0.0290255 0.263859 0.601978 0.753658 0 
0.0930065 0.238302 -0.0291378 0.274465 0.601285 0.750417 0 
0.0931588 0.238168 -0.0280706 0.233172 0.630659 0.740203 0 
0.0929653 0.237967 -0.0284056 0.240105 0.629295 0.739147 0 
0.0933205 0.238074 -0.0285553 0.23706 0.626403 0.742578 0 
0.0934882 0.238218 -0.0285893 0.240105 0.629295 0.739147 0 
0.0932729 0.238382 -0.0292501 0.278718 0.603623 0.746964 0 
0.0935393 0.238462 -0.0293625 0.296534 0.601083 0.742137 0 
0.0934523 0.238251 -0.0289173 0.261269 0.612794 0.745803 0 
0.0936739 0.238364 -0.0291128 0.292473 0.605723 0.739973 0 
0.0938058 0.238542 -0.0294748 0.321023 0.598491 0.733998 0 
0.0937346 0.238479 -0.0286198 0.253863 0.619677 0.742667 0 
0.0940011 0.238559 -0.0287321 0.264428 0.619109 0.739447 0 
0.0940722 0.238622 -0.0295871 0.335529 0.598116 0.727789 0 
0.0942517 0.238491 -0.0292543 0.311448 0.614827 0.72456 0 
0.0943386 0.238702 -0.0296994 0.328941 0.617373 0.714597 0 
0.0946051 0.238782 -0.0298118 0.323064 0.647752 0.689961 0 
0.092673 0.23783 -0.0286622 0.25051 0.625487 0.738925 0 
0.0929494 0.237819 -0.0288154 0.233172 0.630659 0.740203 0 
0.0932059 0.23799 -0.0288868 0.25051 0.625487 0.738925 0 
0.0948045 0.23847 -0.0295608 0.304496 0.662157 0.684712 0 
0.0940848 0.240677 -0.0302305 0.369298 0.628627 0.684432 0 
0.0939053 0.240057 -0.031098 0.362913 0.635507 0.681487 0 
0.0947046 0.240297 -0.031435 0.33712 0.705183 0.623753 0 
0.0948913 0.240351 -0.0317546 0.325448 0.730233 0.600702 0 
0.094981 0.240286 -0.0315882 0.313862 0.735565 0.600362 0 
0.0949411 0.239898 -0.0319592 0.318125 0.734756 0.599108 0 
0.0944659 0.24009 -0.030546 0.337679 0.663939 0.667202 0 
0.0942855 0.240312 -0.0310827 0.359465 0.658199 0.661482 0 
0.094483 0.240184 -0.0312394 0.343952 0.689533 0.63737 0 
0.0939601 0.239934 -0.0310557 0.359303 0.638214 0.680871 0 
0.0940798 0.239596 -0.031012 0.347696 0.644789 0.680701 0 
0.0942266 0.240013 -0.031168 0.344932 0.662073 0.665343 0 
0.0943462 0.239676 -0.0311243 0.337679 0.663939 0.667202 0 
0.0941446 0.239382 -0.0310106 0.340492 0.650031 0.679356 0 
0.0943154 0.24004 -0.0312054 0.352187 0.666698 0.65687 0 
0.094435 0.239703 -0.0311618 0.340558 0.669709 0.659932 0 
0.0944998 0.239489 -0.0311604 0.330395 0.678693 0.655907 0 
0.0946775 0.239542 -0.0312353 0.325865 0.695503 0.640381 0 
0.0947921 0.239626 -0.0309038 0.312125 0.70026 0.642039 0 
0.0943639 0.23964 -0.0303068 0.329708 0.661039 0.674033 0 
0.0945284 0.23927 -0.0301799 0.326043 0.653708 0.682906 0 
0.094693 0.2389 -0.0300531 0.319585 0.663504 0.676482 0 
0.0949167 0.239619 -0.0306133 0.304186 0.706549 0.638952 0 
0.0948837 0.239377 -0.0303297 0.311614 0.689425 0.653904 0 
0.094769 0.239293 -0.0306612 0.318764 0.690925 0.648855 0 
0.0950482 0.239007 -0.0302029 0.283371 0.712429 0.641986 0 
0.0950813 0.239249 -0.0304864 0.27579 0.731721 0.623318 0 
0.0952624 0.240605 -0.0314946 0.305809 0.754116 0.581197 0 
0.0945818 0.24012 -0.0313178 0.340865 0.699671 0.62791 0 
0.0946117 0.239848 -0.0314406 0.336517 0.70067 0.62914 0 
0.0948483 0.2402 -0.0314301 0.326047 0.715356 0.618029 0 
0.0948782 0.239928 -0.0315529 0.311088 0.733395 0.604447 0 
0.094909 0.239564 -0.0314717 0.29679 0.736361 0.608019 0 
0.0950885 0.239434 -0.0311389 0.277924 0.751188 0.598727 0 
0.0951755 0.239644 -0.0315841 0.291616 0.756927 0.584826 0 
0.0952642 0.239671 -0.0316215 0.280941 0.760288 0.585691 0 
0.0953549 0.239514 -0.0312513 0.259754 0.776114 0.574608 0 
0.0951932 0.239608 -0.0307665 0.282445 0.742018 0.607976 0 
0.0953577 0.239238 -0.0306397 0.253054 0.762304 0.595698 0 
0.0954923 0.23914 -0.0303901 0.221007 0.786661 0.576473 0 
0.0954795 0.239506 -0.0309607 0.238464 0.787087 0.568884 0 
0.0953263 0.240483 -0.0316971 0.283702 0.771859 0.568988 0 
0.0951776 0.24025 -0.0319488 0.298912 0.762464 0.573846 0 
0.0954092 0.240272 -0.0321852 0.305458 0.759648 0.574134 0 
0.0952076 0.239978 -0.0320715 0.298912 0.762464 0.573846 0 
0.095474 0.240058 -0.0321839 0.29437 0.768544 0.568054 0 
0.0953784 0.240636 -0.0322663 0.305831 0.763777 0.568429 0 
0.0955859 0.240417 -0.032464 0.298184 0.763798 0.57245 0 
0.0956198 0.240567 -0.0325437 0.291643 0.766558 0.57213 0 
0.0957055 0.24008 -0.0324203 0.25074 0.798942 0.546645 0 
0.0956625 0.239928 -0.0320958 0.254518 0.801028 0.541826 0 
0.0957168 0.240687 -0.0330298 0.337027 0.708245 0.620325 0 
0.0959384 0.240799 -0.0332253 0.333703 0.698335 0.633222 0 
0.096116 0.240852 -0.0333002 0.332945 0.699997 0.631784 0 
0.0957635 0.24047 -0.0325389 0.277175 0.774507 0.568606 0 
0.0959411 0.240523 -0.0326138 0.233684 0.800096 0.552484 0 
0.0959711 0.240251 -0.0327365 0.244658 0.796307 0.553207 0 
0.0958831 0.240133 -0.0324952 0.212443 0.820734 0.530344 0 
0.0961066 0.240062 -0.0322831 0.219556 0.815274 0.535839 0 
0.0962833 0.240207 -0.0325618 0.233899 0.803931 0.546797 0 
0.096373 0.240142 -0.0323954 0.230392 0.8056 0.545829 0 
0.0961827 0.240455 -0.0328911 0.238464 0.787087 0.568884 0 
0.0962375 0.240331 -0.0328488 0.227037 0.798491 0.557554 0 
0.0965506 0.240195 -0.0324702 0.21264 0.812315 0.543073 0 
0.095441 0.239816 -0.0319003 0.272335 0.785521 0.555689 0 
0.095885 0.239949 -0.0320875 0.229418 0.81759 0.528123 0 
0.0966413 0.240038 -0.0321 0.205372 0.826054 0.524841 0 
0.0970881 0.239896 -0.0316756 0.197072 0.840942 0.503963 0 
0.0952842 0.239489 -0.0317034 0.284915 0.762427 0.580972 0 
0.095339 0.239366 -0.0316611 0.265366 0.786676 0.557425 0 
0.0956811 0.239049 -0.0316091 0.240552 0.805463 0.541631 0 
0.0957437 0.238981 -0.0307084 0.217088 0.795989 0.565044 0 
0.0954709 0.239544 -0.032023 0.269219 0.788763 0.552607 0 
0.0956485 0.239597 -0.0320979 0.264974 0.791786 0.55033 0 
0.0956712 0.23914 -0.0315682 0.247419 0.804501 0.539965 0 
0.0957831 0.239499 -0.0318483 0.247213 0.806941 0.536406 0 
0.0959947 0.239702 -0.0320029 0.225759 0.815497 0.532914 0 
0.0960495 0.239579 -0.0319606 0.215359 0.820197 0.529997 0 
0.0960495 0.239579 -0.0319606 0.215359 0.820197 0.529997 0 
0.096204 0.2393 -0.0317929 0.204857 0.827016 0.523524 0 
0.0957759 0.239314 -0.0311958 0.247201 0.800683 0.545708 0 
0.0960301 0.238879 -0.0309025 0.204667 0.82928 0.520006 0 
0.0960373 0.239064 -0.031555 0.215166 0.822515 0.526471 0 
0.0963265 0.238687 -0.0311376 0.179871 0.851786 0.492044 0 
0.0961909 0.238877 -0.0315911 0.188167 0.835462 0.51633 0 
0.0964673 0.238866 -0.0317443 0.197371 0.842216 0.501714 0 
0.0965929 0.238767 -0.0312499 0.17285 0.858338 0.483092 0 
0.0960925 0.23973 -0.0322852 0.225928 0.819179 0.527164 0 
0.0961814 0.239757 -0.0323226 0.222037 0.825365 0.519107 0 
0.0965275 0.239862 -0.0322276 0.205372 0.826054 0.524841 0 
0.0962271 0.239632 -0.0320355 0.218974 0.822302 0.525232 0 
0.0964256 0.239413 -0.0319884 0.221684 0.824052 0.521339 0 
0.0964705 0.23938 -0.0319052 0.221684 0.824052 0.521339 0 
0.0966721 0.239674 -0.0320189 0.201374 0.834264 0.513277 0 
0.0965575 0.23959 -0.0323503 0.229418 0.81759 0.528123 0 
0.0967959 0.239759 -0.0319322 0.197965 0.835684 0.512291 0 
0.0966921 0.239492 -0.0321007 0.197072 0.840942 0.503963 0 
0.0967369 0.23946 -0.0320175 0.197466 0.836592 0.511 0 
0.0966051 0.239282 -0.0316555 0.197371 0.842216 0.501714 0 
0.0968394 0.239028 -0.0312804 0.16376 0.857157 0.488329 0 
0.0970959 0.239199 -0.0313518 0.183674 0.849679 0.494277 0 
0.0974072 0.239246 -0.0313809 0.183279 0.853811 0.487253 0 
0.0969713 0.239206 -0.0316424 0.190116 0.84579 0.498492 0 
0.0971031 0.239384 -0.0320043 0.217382 0.834563 0.506211 0 
0.0972377 0.239286 -0.0317547 0.200264 0.841712 0.501413 0 
0.0975243 0.241645 -0.03447 0.358002 0.593401 0.720909 0 
0.0974753 0.241256 -0.0345962 0.381443 0.564798 0.731782 0 
0.0977318 0.241426 -0.0346676 0.364191 0.569967 0.736548 0 
0.097744 0.241941 -0.0350732 0.366816 0.565712 0.738523 0 
0.0977109 0.2417 -0.0347896 0.367019 0.569287 0.735669 0 
0.0979683 0.241778 -0.0346572 0.360867 0.576407 0.733164 0 
0.0978206 0.241453 -0.034705 0.371613 0.571334 0.731766 0 
0.0979194 0.241389 -0.0347834 0.374229 0.567064 0.733751 0 
0.0980802 0.242138 -0.0349373 0.363702 0.575726 0.732298 0 
0.098145 0.241924 -0.0349359 0.363884 0.579278 0.729401 0 
0.0979973 0.241598 -0.0349838 0.356493 0.577876 0.734147 0 
0.0982447 0.241768 -0.0348104 0.353151 0.584245 0.730713 0 
0.0983226 0.241977 -0.0350108 0.354154 0.589169 0.726261 0 
0.098643 0.242025 -0.0352847 0.361048 0.579964 0.730264 0 
0.0985311 0.241666 -0.0350046 0.349941 0.594085 0.724296 0 
0.0987975 0.241746 -0.0351169 0.354154 0.589169 0.726261 0 
0.0986299 0.241602 -0.035083 0.361048 0.579964 0.730264 0 
0.0963425 0.241295 -0.0332489 0.297499 0.715605 0.631984 0 
0.0962478 0.24103 -0.0336622 0.394769 0.62271 0.675566 0 
0.0963366 0.241057 -0.0336996 0.384854 0.635917 0.668952 0 
0.0963824 0.240932 -0.0334125 0.336773 0.688189 0.642635 0 
0.096537 0.240653 -0.0332448 0.259597 0.769352 0.583701 0 
0.096638 0.241195 -0.0336878 0.355826 0.657541 0.6641 0 
0.0966489 0.241012 -0.0335249 0.344094 0.680035 0.647419 0 
0.0968134 0.240642 -0.033398 0.253246 0.769177 0.586714 0 
0.0969153 0.241092 -0.0336372 0.318717 0.694059 0.645524 0 
0.0969901 0.240788 -0.0336768 0.290096 0.726041 0.623465 0 
0.0963594 0.2406 -0.0331699 0.260074 0.770765 0.58162 0 
0.096504 0.240411 -0.0329612 0.2383 0.789659 0.565377 0 
0.0966367 0.240497 -0.0331193 0.245691 0.78089 0.574322 0 
0.0968134 0.240642 -0.033398 0.253246 0.769177 0.586714 0 
0.0972307 0.241562 -0.0336234 0.330416 0.675481 0.659204 0 
0.0969053 0.241183 -0.0335963 0.318717 0.694059 0.645524 0 
0.0971718 0.241263 -0.0337086 0.334054 0.669737 0.663219 0 
0.0970241 0.240938 -0.0337565 0.312229 0.694023 0.648726 0 
0.0971228 0.240873 -0.0338349 0.326091 0.676518 0.660294 0 
0.0973485 0.241408 -0.0339874 0.358762 0.614319 0.702781 0 
0.0973725 0.241649 -0.0340262 0.3507 0.614948 0.706293 0 
0.0971559 0.241115 -0.0341185 0.362444 0.615006 0.700287 0 
0.0973426 0.24117 -0.0344381 0.362105 0.6046 0.709463 0 
0.0977168 0.241938 -0.0343389 0.350297 0.584915 0.731551 0 
0.0978646 0.242263 -0.034291 0.339858 0.596784 0.726874 0 
0.0974912 0.241403 -0.0341864 0.362105 0.6046 0.709463 0 
0.0983195 0.241463 -0.03485 0.356493 0.577876 0.734147 0 
0.098498 0.241424 -0.034721 0.34736 0.601764 0.719181 0 
0.0987672 0.241229 -0.0342218 0.337027 0.620325 0.708245 0 
0.0977617 0.241154 -0.0347904 0.407296 0.515254 0.754071 0 
0.0968361 0.240185 -0.0328682 0.223718 0.797669 0.560066 0 
0.0969249 0.240212 -0.0329057 0.241828 0.787891 0.566345 0 
0.0970998 0.240541 -0.0335922 0.264361 0.755092 0.599958 0 
0.0971527 0.240601 -0.0339576 0.373904 0.637449 0.673687 0 
0.0973634 0.240897 -0.0343161 0.403518 0.564925 0.719745 0 
0.0974183 0.240773 -0.0342738 0.389953 0.587398 0.709155 0 
0.097794 0.239817 -0.0335291 0.267169 0.757242 0.595992 0 
0.0980604 0.239897 -0.0336415 0.271259 0.756671 0.594867 0 
0.0975275 0.239737 -0.0334168 0.245403 0.776848 0.579901 0 
0.0977949 0.239725 -0.0333253 0.274712 0.757442 0.592297 0 
0.0972399 0.239892 -0.0321194 0.240552 0.805463 0.541631 0 
0.0969426 0.239425 -0.0326229 0.229621 0.81523 0.531672 0 
0.0973315 0.239643 -0.0315453 0.190794 0.842799 0.503276 0 
0.0975041 0.239366 -0.031867 0.217716 0.835847 0.503944 0 
0.098099 0.239588 -0.0327019 0.234612 0.79395 0.560892 0 
0.0981062 0.239772 -0.0333544 0.26003 0.761179 0.59413 0 
0.0982308 0.239765 -0.0330639 0.270466 0.760784 0.589963 0 
0.0983007 0.239882 -0.0328156 0.234836 0.782269 0.576982 0 
0.0981688 0.239704 -0.0324536 0.241307 0.795534 0.555784 0 
0.0984054 0.240056 -0.0324432 0.210471 0.794258 0.569961 0 
0.0978466 0.239088 -0.0331222 0.265366 0.786676 0.557425 0 
0.098113 0.239168 -0.0332345 0.270158 0.775716 0.570333 0 
0.098051 0.238355 -0.0331589 0.44361 0.712767 0.543298 0 
0.0975411 0.24095 -0.034391 0.399592 0.560744 0.725185 0 
0.0977287 0.240912 -0.0345068 0.392374 0.563114 0.727287 0 
0.0979951 0.240992 -0.0346191 0.388442 0.558897 0.73263 0 
0.0979511 0.240933 -0.0344985 0.392374 0.563114 0.727287 0 
0.0981627 0.241136 -0.0346531 0.384265 0.551052 0.740731 0 
0.0982076 0.241104 -0.0345699 0.388442 0.558897 0.73263 0 
0.098432 0.240941 -0.0341538 0.351779 0.626658 0.695378 0 
0.0982833 0.240707 -0.0344056 0.382754 0.57331 0.724441 0 
0.0983568 0.239705 -0.0338766 0.274333 0.753226 0.597823 0 
0.0984292 0.241216 -0.0347655 0.380782 0.554014 0.74032 0 
0.0985737 0.241028 -0.0345567 0.377296 0.556961 0.739893 0 
0.0987383 0.240658 -0.0344298 0.361841 0.59761 0.715495 0 
0.0986068 0.24127 -0.0348403 0.370522 0.566393 0.736147 0 
0.0989621 0.241376 -0.03499 0.367756 0.583506 0.72407 0 
0.0992112 0.240611 -0.0349437 0.401136 0.51902 0.75479 0 
0.099258 0.240395 -0.0344527 0.384265 0.551052 0.740731 0 
0.0990346 0.240466 -0.0346649 0.400501 0.51166 0.760134 0 
0.0987451 0.240053 -0.0343099 0.393154 0.577394 0.715574 0 
0.0990115 0.240133 -0.0344222 0.377983 0.554702 0.741239 0 
0.099186 0.239673 -0.0343363 0.409343 0.497409 0.764868 0 
0.0994424 0.239843 -0.0344077 0.423862 0.486051 0.764261 0 
0.0988684 0.2401 -0.0329161 0.238624 0.784496 0.572385 0 
0.0983926 0.239671 -0.0335485 0.271259 0.756671 0.594867 0 
0.0984624 0.239787 -0.0333003 0.266886 0.762757 0.589044 0 
0.0987288 0.239867 -0.0334127 0.274195 0.756017 0.594353 0 
0.098669 0.23966 -0.0337018 0.332378 0.71826 0.611251 0 
0.0990601 0.239733 -0.0335236 0.288309 0.753426 0.590954 0 
0.0989354 0.23974 -0.0338141 0.3508 0.703232 0.618388 0 
0.0996029 0.239802 -0.0337892 0.394889 0.669164 0.62951 0 
0.0987728 0.239175 -0.034068 0.39218 0.663563 0.637086 0 
0.0996247 0.238686 -0.033998 0.633072 0.0497922 0.77249 0 
0.0949164 0.238829 -0.0298409 0.300924 0.683917 0.664607 0 
0.0951828 0.238909 -0.0299532 0.275633 0.715372 0.642082 0 
0.0952159 0.239151 -0.0302368 0.275415 0.724358 0.632022 0 
0.0953373 0.23863 -0.0297854 0.254136 0.733995 0.629815 0 
0.0957886 0.238948 -0.0306252 0.217088 0.795989 0.565044 0 
0.096085 0.238756 -0.0308602 0.188167 0.835462 0.51633 0 
0.0963514 0.238836 -0.0309725 0.173414 0.852247 0.493562 0 
0.0966178 0.238916 -0.0310849 0.176992 0.852238 0.492305 0 
0.0968544 0.239268 -0.0310745 0.176992 0.852238 0.492305 0 
0.0970977 0.239015 -0.0309441 0.152159 0.879622 0.45068 0 
0.0972423 0.238827 -0.0307354 0.122879 0.894051 0.430783 0 
0.0971208 0.239348 -0.0311868 0.173414 0.852247 0.493562 0 
0.0973442 0.239277 -0.0309746 0.166117 0.865867 0.47189 0 
0.0973872 0.239428 -0.0312991 0.183478 0.851754 0.490766 0 
0.0974987 0.238997 -0.0308068 0.134079 0.901856 0.410704 0 
0.0976238 0.23978 -0.0312887 0.183478 0.851754 0.490766 0 
0.0979949 0.240034 -0.0310286 0.16358 0.859166 0.484846 0 
0.0981594 0.239664 -0.0309018 0.11157 0.918734 0.378788 0 
0.0985056 0.23977 -0.0308068 0.0189955 0.940911 0.33812 0 
0.0984847 0.240043 -0.0309288 0.0800088 0.915355 0.39462 0 
0.0986193 0.239945 -0.0306792 -0.0604644 0.971132 0.230752 0 
0.0990048 0.240569 -0.0317241 0.224517 0.829338 0.511654 0 
0.0995206 0.240635 -0.0312553 -0.198462 0.972086 0.125145 0 
0.0976107 0.239357 -0.0310869 0.168377 0.87117 0.461208 0 
0.0977783 0.239501 -0.0311209 0.172657 0.860332 0.479602 0 
0.0977452 0.239259 -0.0308373 0.12138 0.908259 0.400415 0 
0.0980117 0.239339 -0.0309496 0.117477 0.916317 0.382835 0 
0.0980316 0.239157 -0.0310314 0.117477 0.916317 0.382835 0 
0.0983579 0.239444 -0.0308546 0.0530966 0.941493 0.332825 0 
0.0985355 0.239497 -0.0309295 0.0264266 0.950099 0.310827 0 
0.0988097 0.242261 -0.0355226 0.35716 0.592004 0.722474 0 
0.0987318 0.242052 -0.0353222 0.361048 0.579964 0.730264 0 
0.0989752 0.2418 -0.0351918 0.34736 0.601764 0.719181 0 
0.0990313 0.242374 -0.0357181 0.35403 0.605277 0.712954 0 
0.0989982 0.242132 -0.0354345 0.354154 0.589169 0.726261 0 
0.0991759 0.242185 -0.0355094 0.357308 0.595513 0.71951 0 
0.0991528 0.241853 -0.0352667 0.358002 0.593401 0.720909 0 
0.0994183 0.242025 -0.0355829 0.368457 0.581343 0.725451 0 
0.0992538 0.242395 -0.0357098 0.358416 0.603907 0.711923 0 
0.0995202 0.242475 -0.0358221 0.361504 0.61014 0.705014 0 
0.0994423 0.242265 -0.0356217 0.358416 0.603907 0.711923 0 
0.0997087 0.242345 -0.035734 0.354559 0.62252 0.69768 0 
0.0994622 0.242084 -0.0357035 0.365535 0.598297 0.713039 0 
0.0997867 0.242555 -0.0359344 0.361969 0.627304 0.689543 0 
0.0997966 0.242464 -0.0359753 0.369808 0.616347 0.69524 0 
0.0999163 0.242127 -0.0359317 0.362444 0.615006 0.700287 0 
0.0997387 0.242073 -0.0358568 0.358762 0.614319 0.702781 0 
0.10029 0.242987 -0.0360363 0.376627 0.629904 0.679244 0 
0.100017 0.242668 -0.0363747 0.376488 0.623097 0.685571 0 
0.10018 0.242482 -0.0366556 0.402864 0.618388 0.674756 0 
0.100259 0.242599 -0.0366521 0.405467 0.610684 0.680192 0 
0.100505 0.242861 -0.0366826 0.41263 0.60486 0.681088 0 
0.100446 0.242562 -0.0367679 0.43724 0.576891 0.689941 0 
0.100008 0.242667 -0.03613 0.362854 0.632121 0.684661 0 
0.100127 0.242422 -0.0362902 0.394201 0.602023 0.694388 0 
0.100137 0.242331 -0.0363311 0.391525 0.606285 0.69219 0 
0.100535 0.242589 -0.0368054 0.437399 0.580427 0.686867 0 
0.100613 0.242798 -0.0370057 0.461973 0.558704 0.68879 0 
0.100712 0.242734 -0.0370841 0.475368 0.53875 0.695538 0 
0.100938 0.243177 -0.0370327 0.447794 0.56765 0.690835 0 
0.100835 0.242911 -0.0372013 0.455439 0.555535 0.69567 0 
0.101021 0.242965 -0.0375209 0.488158 0.514815 0.704746 0 
0.100978 0.242814 -0.0371964 0.47485 0.531499 0.701446 0 
0.0988524 0.241623 -0.0350747 0.361048 0.579964 0.730264 0 
0.0991655 0.241487 -0.034696 0.347489 0.605251 0.716186 0 
0.0990042 0.241619 -0.0355185 0.354154 0.589169 0.726261 0 
0.0992706 0.241699 -0.0356308 0.360694 0.589188 0.72302 0 
0.0993703 0.241543 -0.0355052 0.367583 0.579964 0.726997 0 
0.0994482 0.241753 -0.0357057 0.361841 0.59761 0.715495 0 
0.0996367 0.241623 -0.0356176 0.365245 0.59127 0.719024 0 
0.0997146 0.241833 -0.035818 0.364947 0.603881 0.708619 0 
0.0999031 0.241703 -0.03573 0.37192 0.594744 0.71271 0 
0.0998565 0.24192 -0.0362208 0.36622 0.619126 0.694669 0 
0.0999661 0.241673 -0.0361363 0.376868 0.607267 0.699427 0 
0.0999733 0.241858 -0.0367888 0.401459 0.59971 0.692227 0 
0.100127 0.241671 -0.0368249 0.420206 0.586295 0.692593 0 
0.100285 0.241905 -0.0368179 0.427303 0.580267 0.693327 0 
0.10021 0.24221 -0.0367784 0.424301 0.597349 0.680546 0 
0.100475 0.242382 -0.0370945 0.466316 0.553228 0.690281 0 
0.100329 0.241965 -0.0369385 0.427605 0.587333 0.687163 0 
0.100641 0.24192 -0.0367638 0.466316 0.553228 0.690281 0 
0.100653 0.242435 -0.0371694 0.48248 0.535904 0.692835 0 
0.100595 0.242045 -0.0370509 0.46979 0.550039 0.690474 0 
0.100773 0.242098 -0.0371257 0.48248 0.535904 0.692835 0 
0.100919 0.242515 -0.0372818 0.478268 0.528261 0.70157 0 
0.101008 0.242542 -0.0373192 0.492992 0.516388 0.700216 0 
0.101128 0.242204 -0.0372756 0.492992 0.516388 0.700216 0 
0.101305 0.242258 -0.0373504 0.508218 0.494888 0.70484 0 
0.10073 0.241947 -0.0368012 0.472163 0.545574 0.692395 0 
0.100996 0.242027 -0.0369136 0.475611 0.542364 0.692557 0 
0.101262 0.242107 -0.0370259 0.492992 0.516388 0.700216 0 
0.101206 0.241532 -0.0364996 0.465656 0.559121 0.685966 0 
0.101473 0.241612 -0.036612 0.483598 0.537145 0.691093 0 
0.101739 0.241692 -0.0367243 0.496102 0.522828 0.693206 0 
0.099403 0.240996 -0.0350165 0.377983 0.554702 0.741239 0 
0.0993889 0.240664 -0.0350185 0.414461 0.502923 0.758479 0 
0.0992376 0.241457 -0.0353472 0.363884 0.579278 0.729401 0 
0.0996594 0.241166 -0.0350879 0.361388 0.587051 0.724411 0 
0.099804 0.240978 -0.0348791 0.364572 0.577103 0.73078 0 
0.0995245 0.240475 -0.0345651 0.39983 0.514067 0.758861 0 
0.0998267 0.240521 -0.0343494 0.35716 0.592004 0.722474 0 
0.0997809 0.240645 -0.0346365 0.364191 0.569967 0.736548 0 
0.100136 0.240752 -0.0347862 0.361388 0.587051 0.724411 0 
0.100073 0.240782 -0.0343799 0.343933 0.607996 0.715577 0 
0.0996002 0.240078 -0.0344007 0.427607 0.486588 0.761829 0 
0.099939 0.241669 -0.0354019 0.37192 0.594744 0.71271 0 
0.0999358 0.241156 -0.0352411 0.364226 0.586355 0.723552 0 
0.0999817 0.241031 -0.034954 0.358002 0.593401 0.720909 0 
0.100337 0.241138 -0.0351038 0.367921 0.587038 0.721125 0 
0.100245 0.241387 -0.0356779 0.386654 0.577513 0.719012 0 
0.100202 0.241236 -0.0353534 0.367921 0.587038 0.721125 0 
0.100469 0.241316 -0.0354657 0.383119 0.580433 0.718553 0 
0.100534 0.24101 -0.0352605 0.367921 0.587038 0.721125 0 
0.100383 0.241013 -0.0348167 0.350909 0.598993 0.719771 0 
0.100669 0.240912 -0.0350109 0.367921 0.587038 0.721125 0 
0.100601 0.241493 -0.0358277 0.397638 0.595633 0.69793 0 
0.10089 0.241116 -0.0354103 0.386654 0.577513 0.719012 0 
0.100755 0.241214 -0.0356599 0.407622 0.572652 0.711276 0 
0.100808 0.241274 -0.0360254 0.408585 0.593854 0.693106 0 
0.101031 0.241203 -0.0358132 0.415835 0.591446 0.690849 0 
0.101067 0.24117 -0.0354852 0.412472 0.578123 0.704018 0 
0.101423 0.241276 -0.035635 0.433862 0.58347 0.686533 0 
0.100935 0.240992 -0.0351232 0.379744 0.586877 0.715102 0 
0.101202 0.241072 -0.0352356 0.404865 0.573421 0.712231 0 
0.101301 0.241008 -0.0353139 0.412472 0.578123 0.704018 0 
0.101163 0.241381 -0.0361751 0.461973 0.558704 0.68879 0 
0.101298 0.241283 -0.0359255 0.441778 0.575145 0.688506 0 
0.101564 0.241363 -0.0360378 0.459898 0.570273 0.680649 0 
0.1016 0.241329 -0.0357099 0.448302 0.578292 0.681618 0 
0.101821 0.241534 -0.0361092 0.465656 0.559121 0.685966 0 
0.101386 0.241402 -0.0361668 0.454988 0.564985 0.688315 0 
0.101741 0.241508 -0.0363166 0.470211 0.557225 0.684399 0 
0.101499 0.243248 -0.0377879 0.511771 0.432784 0.742151 0 
0.101332 0.243104 -0.0377539 0.527456 0.441476 0.725872 0 
0.101498 0.24334 -0.0379917 0.505644 0.433174 0.746113 0 
0.10173 0.243362 -0.0382282 0.505497 0.385218 0.772062 0 
0.101907 0.243507 -0.038507 0.482703 0.38584 0.786209 0 
0.102388 0.243515 -0.0381623 0.474021 0.39313 0.787878 0 
0.101213 0.24335 -0.0375937 0.487649 0.497635 0.717327 0 
0.101243 0.243078 -0.0377164 0.50752 0.477568 0.717184 0 
0.102309 0.243397 -0.0381658 0.471497 0.400205 0.785828 0 
0.102786 0.243773 -0.0386366 0.475251 0.37859 0.794233 0 
0.103062 0.243762 -0.0387899 0.470964 0.380951 0.795656 0 
0.10324 0.243815 -0.0388647 0.475131 0.363147 0.801483 0 
0.103372 0.243993 -0.0392267 0.49484 0.365892 0.788198 0 
0.102545 0.243749 -0.0381554 0.469695 0.388992 0.79251 0 
0.102397 0.243424 -0.0382032 0.474021 0.39313 0.787878 0 
0.102812 0.243829 -0.0382677 0.471497 0.400205 0.785828 0 
0.104047 0.243228 -0.037367 0.449708 0.4078 0.794646 0 
0.101618 0.243003 -0.0379481 0.515107 0.422947 0.745507 0 
0.10176 0.24309 -0.038351 0.506709 0.399176 0.764137 0 
0.101895 0.242992 -0.0381013 0.502238 0.417169 0.757448 0 
0.101972 0.243201 -0.0383017 0.489476 0.398411 0.775681 0 
0.101131 0.242718 -0.0374364 0.496052 0.509413 0.703158 0 
0.101407 0.2428 -0.0377935 0.529212 0.446264 0.721653 0 
0.101275 0.242622 -0.0374315 0.494559 0.50455 0.707702 0 
0.101541 0.242702 -0.0375438 0.517298 0.467398 0.716898 0 
0.101572 0.242338 -0.0374627 0.526602 0.463476 0.712657 0 
0.101584 0.242853 -0.0378684 0.535256 0.41997 0.732889 0 
0.101664 0.242878 -0.037661 0.514538 0.44505 0.732927 0 
0.101674 0.242788 -0.0377019 0.517722 0.441635 0.73275 0 
0.101723 0.242426 -0.0381104 0.509613 0.443644 0.737207 0 
0.101571 0.24243 -0.0376666 0.522951 0.463185 0.715529 0 
0.102026 0.241591 -0.0369184 0.526981 0.490176 0.694276 0 
0.102068 0.241834 -0.0374468 0.515267 0.481916 0.708701 0 
0.101855 0.241722 -0.0374961 0.518095 0.484777 0.704676 0 
0.102122 0.241802 -0.0376084 0.504628 0.484643 0.714473 0 
0.102292 0.241671 -0.0370308 0.508908 0.502234 0.699123 0 
0.102167 0.241678 -0.0373213 0.509056 0.492365 0.706002 0 
0.101806 0.242965 -0.0380639 0.51039 0.399507 0.761509 0 
0.101836 0.242693 -0.0381867 0.503485 0.418204 0.756048 0 
0.101954 0.242448 -0.0383468 0.487636 0.435096 0.756903 0 
0.102102 0.242773 -0.038299 0.48753 0.409265 0.771244 0 
0.102206 0.243039 -0.0381304 0.490073 0.402153 0.773371 0 
0.102226 0.242858 -0.0382123 0.480024 0.414936 0.77292 0 
0.102427 0.243152 -0.038326 0.474623 0.396869 0.785639 0 
0.102257 0.242494 -0.0381312 0.487636 0.435096 0.756903 0 
0.102433 0.242639 -0.0384099 0.469977 0.421191 0.775706 0 
0.102355 0.24243 -0.0382096 0.473263 0.437236 0.764753 0 
0.102552 0.242394 -0.0385701 0.449835 0.427099 0.784369 0 
0.102562 0.242303 -0.038611 0.44921 0.429749 0.783279 0 
0.10255 0.241788 -0.0382054 0.45563 0.481948 0.748417 0 
0.102464 0.241486 -0.0375564 0.497552 0.497552 0.710551 0 
0.102499 0.241544 -0.0374323 0.4979 0.50123 0.707717 0 
0.10276 0.241294 -0.0377915 0.462884 0.519293 0.718383 0 
0.102805 0.241261 -0.0377083 0.459768 0.526161 0.71538 0 
0.103056 0.241101 -0.0380266 0.440566 0.516469 0.734276 0 
0.103181 0.241094 -0.037736 0.457144 0.526963 0.71647 0 
0.102594 0.243388 -0.0385638 0.460308 0.405394 0.789792 0 
0.102754 0.242688 -0.0386838 0.460876 0.409129 0.787532 0 
0.102871 0.243285 -0.0385132 0.466584 0.398776 0.789479 0 
0.102826 0.24341 -0.0388003 0.475914 0.388797 0.788887 0 
0.103048 0.24343 -0.038792 0.466584 0.398776 0.789479 0 
0.103168 0.243093 -0.0387483 0.464636 0.403116 0.788423 0 
0.103003 0.243463 -0.0388752 0.468496 0.387998 0.793706 0 
0.103092 0.24349 -0.0389126 0.470964 0.380951 0.795656 0 
0.10327 0.243543 -0.0389875 0.475251 0.37859 0.794233 0 
0.103434 0.243173 -0.0388606 0.466584 0.392318 0.792708 0 
0.103446 0.243688 -0.0392663 0.49551 0.369615 0.786037 0 
0.103378 0.243388 -0.0391068 0.488779 0.372633 0.788822 0 
0.103556 0.243442 -0.0391816 0.48442 0.368545 0.793418 0 
0.103523 0.2432 -0.0388981 0.469695 0.388992 0.79251 0 
0.102582 0.242873 -0.0381582 0.468877 0.413715 0.780381 0 
0.102605 0.243205 -0.0384009 0.458323 0.409738 0.788705 0 
0.102665 0.242661 -0.0386464 0.465211 0.406857 0.786159 0 
0.102635 0.242933 -0.0385237 0.465211 0.406857 0.786159 0 
0.10299 0.24304 -0.0386734 0.467169 0.402509 0.787236 0 
0.103055 0.242826 -0.038672 0.464028 0.405822 0.787392 0 
0.102685 0.24248 -0.0387282 0.458323 0.409738 0.788705 0 
0.102829 0.242291 -0.0385195 0.449835 0.427099 0.784369 0 
0.102682 0.241966 -0.0385674 0.449086 0.449086 0.772427 0 
0.103302 0.242995 -0.0384987 0.465211 0.406857 0.786159 0 
0.10393 0.24188 -0.0380723 0.449309 0.423356 0.786696 0 
0.104151 0.241992 -0.0382678 0.458323 0.409738 0.788705 0 
0.102863 0.24169 -0.0391339 0.44064 0.44064 0.782095 0 
0.103277 0.241344 -0.0397331 0.421559 0.408736 0.809458 0 
0.103376 0.24128 -0.0398115 0.42568 0.393794 0.814692 0 
0.102731 0.241512 -0.038772 0.440558 0.470038 0.764835 0 
0.102873 0.241599 -0.0391748 0.44064 0.44064 0.782095 0 
0.103074 0.241196 -0.03872 0.440558 0.470038 0.764835 0 
0.10314 0.241679 -0.0392872 0.455701 0.41678 0.786531 0 
0.103343 0.241 -0.0382208 0.440307 0.502972 0.74374 0 
0.103714 0.241254 -0.0379607 0.452683 0.488898 0.745692 0 
0.103871 0.241581 -0.0381576 0.442073 0.45186 0.774851 0 
0.103101 0.241199 -0.0394543 0.436273 0.44276 0.783345 0 
0.103317 0.241733 -0.039362 0.44226 0.406879 0.799284 0 
0.104122 0.241421 -0.0384759 0.446493 0.436751 0.780956 0 
0.104363 0.241444 -0.0389571 0.441694 0.396721 0.804686 0 
0.102087 0.241614 -0.0362215 0.473007 0.55992 0.680261 0 
0.102409 0.241571 -0.0362916 0.491415 0.545085 0.67926 0 
0.102675 0.241651 -0.0364039 0.479291 0.542751 0.689711 0 
0.101939 0.24138 -0.0364733 0.490296 0.543844 0.68106 0 
0.102185 0.241642 -0.0365038 0.492981 0.529746 0.690173 0 
0.102471 0.24154 -0.036698 0.505898 0.509237 0.696236 0 
0.102613 0.241627 -0.0371008 0.499409 0.50609 0.703181 0 
0.102748 0.24153 -0.0368512 0.495814 0.519186 0.696143 0 
0.103014 0.24161 -0.0369635 0.47199 0.528695 0.705483 0 
0.10291 0.241435 -0.0373359 0.461142 0.531063 0.710859 0 
0.103281 0.24169 -0.0370759 0.459475 0.522507 0.71824 0 
0.103196 0.241334 -0.0375301 0.457144 0.526963 0.71647 0 
0.103443 0.241595 -0.0375606 0.444389 0.507165 0.738446 0 
0.103945 0.242027 -0.0376624 0.456085 0.446277 0.76995 0 
0.103699 0.241766 -0.0376319 0.45066 0.470326 0.758748 0 
0.104929 0.245847 -0.0422242 0.384675 0.471589 0.793492 0 
0.105106 0.245992 -0.042503 0.361698 0.454115 0.81422 0 
0.105226 0.245655 -0.0424593 0.382679 0.417612 0.82411 0 
0.105084 0.245568 -0.0420565 0.414342 0.443362 0.794827 0 
0.105228 0.245379 -0.0418477 0.396721 0.441694 0.804686 0 
0.105405 0.245525 -0.0421265 0.382679 0.417612 0.82411 0 
0.105112 0.245441 -0.0412798 0.392367 0.512845 0.763569 0 
0.105274 0.245255 -0.0415606 0.405555 0.454028 0.793337 0 
0.105141 0.245169 -0.0414025 0.429749 0.44921 0.783279 0 
0.105231 0.245104 -0.0412361 0.416329 0.451968 0.78892 0 
0.105629 0.245362 -0.0417105 0.382266 0.443045 0.810916 0 
0.105306 0.244799 -0.0412757 0.398491 0.499334 0.769332 0 
0.105339 0.245041 -0.0415593 0.405996 0.457757 0.790965 0 
0.105369 0.244769 -0.0416821 0.386582 0.490102 0.781252 0 
0.105425 0.244554 -0.0414359 0.391373 0.501801 0.771377 0 
0.105616 0.244938 -0.0415087 0.391315 0.465392 0.793903 0 
0.105694 0.245148 -0.0417091 0.376011 0.459213 0.804823 0 
0.105689 0.244817 -0.0419559 0.37683 0.466627 0.800162 0 
0.105602 0.244607 -0.0415107 0.388272 0.498743 0.77492 0 
0.105824 0.24472 -0.0417063 0.355482 0.5099 0.783348 0 
0.105631 0.243676 -0.0423721 0.340597 0.497303 0.797924 0 
0.105326 0.242365 -0.0429616 0.516516 0.352389 0.780406 0 
0.105593 0.242353 -0.04287 0.427918 0.402275 0.809358 0 
0.106063 0.242543 -0.0426884 0.289341 0.447163 0.846361 0 
0.106085 0.247604 -0.0414378 0.258621 0.454499 0.852377 0 
0.106232 0.248021 -0.0415937 0.204394 0.308706 0.928937 0 
0.105193 0.246203 -0.0429482 0.310961 0.457847 0.832875 0 
0.105347 0.245924 -0.0427803 0.332181 0.44868 0.829664 0 
0.105436 0.24595 -0.0428178 0.330913 0.443832 0.832772 0 
0.105688 0.246542 -0.0426014 0.293006 0.487299 0.82261 0 
0.105935 0.246711 -0.042428 0.282047 0.490855 0.824325 0 
0.105587 0.246 -0.0421583 0.326793 0.505334 0.798651 0 
0.105527 0.245793 -0.0424475 0.339124 0.446382 0.828093 0 
0.105494 0.245551 -0.0421639 0.360475 0.413996 0.835862 0 
0.105761 0.245539 -0.0420724 0.3469 0.451445 0.822106 0 
0.105686 0.245936 -0.0422367 0.316141 0.516311 0.795913 0 
0.10585 0.245566 -0.0421098 0.335897 0.485539 0.807109 0 
0.105967 0.246255 -0.0421431 0.291413 0.511942 0.80808 0 
0.105972 0.245835 -0.0424309 0.301144 0.466539 0.831657 0 
0.105776 0.245779 -0.0418664 0.331101 0.523043 0.785365 0 
0.106429 0.245602 -0.0420474 0.305448 0.474619 0.825493 0 
0.106192 0.246882 -0.0424994 0.286379 0.492947 0.821578 0 
0.10606 0.246704 -0.0421375 0.26583 0.555255 0.788052 0 
0.105875 0.246504 -0.0427172 0.289543 0.496135 0.818545 0 
0.107408 0.245711 -0.0420515 0.255786 0.506922 0.823167 0 
0.105648 0.245272 -0.0419961 0.373404 0.436962 0.818311 0 
0.105915 0.245352 -0.0421084 0.334574 0.444528 0.830937 0 
0.105783 0.245174 -0.0417465 0.352568 0.470623 0.808833 0 
0.105928 0.244986 -0.0415378 0.358107 0.489787 0.794901 0 
0.105971 0.245137 -0.0418623 0.337789 0.46783 0.816721 0 
0.10606 0.245072 -0.0416959 0.352946 0.47432 0.806504 0 
0.106135 0.244767 -0.0417354 0.342933 0.483297 0.805494 0 
0.106181 0.245432 -0.0422208 0.303486 0.420566 0.854997 0 
0.106191 0.245341 -0.0422617 0.303486 0.420566 0.854997 0 
0.106281 0.245276 -0.0420953 0.319968 0.441712 0.83816 0 
0.106459 0.245329 -0.0421702 0.301086 0.424608 0.853848 0 
0.106436 0.244997 -0.0419275 0.324398 0.449769 0.83215 0 
0.106613 0.24505 -0.0420024 0.302235 0.441728 0.844707 0 
0.106357 0.24488 -0.041931 0.324168 0.475973 0.817536 0 
0.106446 0.244906 -0.0419684 0.321134 0.452721 0.831815 0 
0.105963 0.244293 -0.0419483 0.321389 0.538846 0.778688 0 
0.10615 0.244255 -0.0420641 0.310427 0.526929 0.79119 0 
0.106725 0.245409 -0.0422825 0.287382 0.470686 0.834186 0 
0.10679 0.245195 -0.0422811 0.286747 0.42782 0.857174 0 
0.106623 0.244959 -0.0420433 0.305846 0.442468 0.843018 0 
0.10689 0.245039 -0.0421556 0.281432 0.444448 0.850448 0 
0.106849 0.245494 -0.0421958 0.283206 0.456534 0.843428 0 
0.106968 0.245157 -0.0421522 0.27605 0.454942 0.846655 0 
0.107205 0.245509 -0.0421417 0.263015 0.472196 0.84134 0 
0.107215 0.245418 -0.0421826 0.26505 0.448899 0.853369 0 
0.107201 0.245087 -0.0421848 0.268263 0.446082 0.853842 0 
0.107437 0.245439 -0.0421743 0.245753 0.465557 0.850213 0 
0.107615 0.245492 -0.0422492 0.229212 0.524571 0.819931 0 
0.10797 0.245599 -0.042399 0.208421 0.51877 0.829119 0 
0.108 0.245327 -0.0425217 0.196483 0.549848 0.811826 0 
0.107764 0.244975 -0.0425322 0.222166 0.47607 0.850881 0 
0.108166 0.245654 -0.0429634 0.196939 0.560283 0.804548 0 
0.107915 0.245814 -0.0426451 0.211328 0.518439 0.82859 0 
0.108014 0.245658 -0.0425196 0.211328 0.518439 0.82859 0 
0.108181 0.245894 -0.0427574 0.20283 0.550538 0.809795 0 
0.108117 0.245265 -0.0430897 0.191287 0.589165 0.785044 0 
0.108324 0.245889 -0.0429565 0.206771 0.55292 0.807171 0 
0.108354 0.245617 -0.0430792 0.185106 0.622628 0.76031 0 
0.108383 0.245345 -0.043202 0.194869 0.609157 0.768735 0 
0.108561 0.245398 -0.0432769 0.182148 0.622978 0.760737 0 
0.108607 0.245274 -0.0429898 0.178691 0.618544 0.765162 0 
0.10859 0.245969 -0.0430688 0.186343 0.709951 0.679151 0 
0.108857 0.246049 -0.0431811 0.14543 0.781122 0.607206 0 
0.10862 0.245697 -0.0431915 0.182338 0.654272 0.733949 0 
0.108739 0.245452 -0.0433518 0.169112 0.665785 0.726726 0 
0.108886 0.245777 -0.0433039 0.135575 0.788122 0.600403 0 
0.108916 0.245505 -0.0434266 0.107248 0.783056 0.612635 0 
0.109123 0.246129 -0.0432935 0.0647708 0.88612 0.458908 0 
0.109153 0.245857 -0.0434162 0.0531304 0.889594 0.453652 0 
0.109183 0.245585 -0.043539 0.0249459 0.912495 0.408325 0 
0.108785 0.245327 -0.0430647 0.139567 0.664818 0.733851 0 
0.109051 0.245407 -0.043177 0.0611559 0.800716 0.595915 0 
0.109337 0.245306 -0.0433712 -0.00392025 0.900351 0.435148 0 
0.109515 0.245359 -0.0434461 -0.0191276 0.937254 0.348123 0 
0.109449 0.245665 -0.0436513 0.00890851 0.932849 0.360158 0 
0.109761 0.24562 -0.0434766 -0.0463363 0.960538 0.274261 0 
0.109925 0.245342 -0.0435535 -0.0638777 0.965681 0.251753 0 
0.110147 0.245455 -0.0437491 -0.0723423 0.960757 0.267793 0 
0.104085 0.24472 -0.0396871 0.466079 0.502569 0.728145 0 
0.103638 0.244073 -0.039339 0.509047 0.345253 0.788461 0 
0.103905 0.244153 -0.0394513 0.523821 0.352975 0.775255 0 
0.103875 0.244425 -0.0393286 0.501167 0.381147 0.77689 0 
0.103993 0.244179 -0.0394888 0.52453 0.35668 0.773077 0 
0.10423 0.244532 -0.0394783 0.479875 0.460086 0.747021 0 
0.104566 0.244766 -0.0406495 0.499747 0.483144 0.718905 0 
0.104569 0.244491 -0.0400379 0.525063 0.442245 0.727137 0 
0.104378 0.244857 -0.0394305 0.466284 0.516065 0.718509 0 
0.104338 0.244469 -0.0398015 0.499522 0.450064 0.740216 0 
0.104673 0.244757 -0.0398694 0.488158 0.514815 0.704746 0 
0.104655 0.244793 -0.040687 0.498528 0.472028 0.727089 0 
0.104868 0.244904 -0.0406377 0.465363 0.495172 0.73365 0 
0.105069 0.245198 -0.0407514 0.434773 0.493836 0.753059 0 
0.105099 0.244926 -0.0408742 0.445221 0.487936 0.750797 0 
0.103713 0.243768 -0.0393786 0.506097 0.348644 0.788868 0 
0.103757 0.243827 -0.0394992 0.516516 0.352389 0.780406 0 
0.103832 0.243523 -0.0395388 0.512857 0.352087 0.782951 0 
0.104009 0.243576 -0.0396136 0.535448 0.339278 0.773425 0 
0.104023 0.243907 -0.0396115 0.546897 0.337173 0.766301 0 
0.10422 0.243871 -0.0399721 0.583879 0.302337 0.753444 0 
0.104276 0.243656 -0.039726 0.583075 0.284388 0.761017 0 
0.104422 0.244165 -0.0400858 0.553364 0.370542 0.745981 0 
0.104363 0.243866 -0.0401711 0.57127 0.334994 0.749286 0 
0.104543 0.244434 -0.0404069 0.508282 0.461924 0.726826 0 
0.104553 0.244343 -0.0404478 0.577103 0.364572 0.73078 0 
0.104629 0.243946 -0.0402835 0.592312 0.303379 0.74641 0 
0.104806 0.244091 -0.0405622 0.537218 0.380462 0.752759 0 
0.10428 0.244078 -0.039683 0.544897 0.350869 0.761563 0 
0.104614 0.242787 -0.0382061 0.463461 0.395638 0.79289 0 
0.104891 0.242776 -0.0383593 0.394626 0.462276 0.794085 0 
0.104849 0.242572 -0.039138 0.438526 0.432053 0.788052 0 
0.104667 0.242847 -0.0385715 0.4375 0.424585 0.792667 0 
0.105052 0.242682 -0.038844 0.411666 0.443953 0.795887 0 
0.105066 0.243105 -0.0390458 0.436273 0.44276 0.783345 0 
0.105227 0.243011 -0.0395305 0.459822 0.446731 0.76746 0 
0.105362 0.242913 -0.0392808 0.429082 0.474764 0.768432 0 
0.105628 0.242993 -0.0393932 0.409343 0.497409 0.764868 0 
0.10525 0.242554 -0.0390007 0.403116 0.464636 0.788423 0 
0.105021 0.242387 -0.0396636 0.536927 0.346665 0.769112 0 
0.105554 0.242547 -0.0398883 0.457034 0.453758 0.764999 0 
0.10472 0.244579 -0.0406856 0.533982 0.428178 0.729059 0 
0.104898 0.244632 -0.0407605 0.509115 0.439915 0.739782 0 
0.104731 0.244396 -0.0405227 0.541409 0.413051 0.732301 0 
0.104997 0.244476 -0.040635 0.488195 0.468336 0.736429 0 
0.104895 0.244118 -0.0405996 0.52173 0.426271 0.73898 0 
0.105119 0.244745 -0.040956 0.453411 0.486386 0.746891 0 
0.105264 0.244556 -0.0407473 0.44333 0.496069 0.746575 0 
0.105248 0.244409 -0.0411571 0.41538 0.52374 0.743744 0 
0.105116 0.244231 -0.0407952 0.453791 0.499995 0.737617 0 
0.105294 0.244284 -0.0408701 0.430001 0.522262 0.736439 0 
0.10549 0.244248 -0.0412307 0.387651 0.53486 0.750767 0 
0.105668 0.244301 -0.0413055 0.375533 0.531599 0.759195 0 
0.106023 0.244408 -0.0414553 0.336682 0.539658 0.771631 0 
0.10578 0.242989 -0.039837 0.408615 0.520204 0.749948 0 
0.106017 0.243341 -0.0398265 0.368631 0.604555 0.706133 0 
0.105892 0.243349 -0.0401171 0.364572 0.577103 0.73078 0 
0.106343 0.242877 -0.0401844 0.297367 0.67028 0.679925 0 
0.105725 0.243243 -0.0413902 0.361048 0.579964 0.730264 0 
0.106336 0.242731 -0.040839 0.30861 0.647919 0.696392 0 
0.105966 0.242423 -0.0422023 0.355482 0.5099 0.783348 0 
0.106616 0.242391 -0.0414839 0.253959 0.623066 0.739793 0 
0.105464 0.242612 -0.0400547 0.502438 0.388617 0.772356 0 
0.10573 0.242692 -0.040167 0.420905 0.502793 0.755009 0 
0.108838 0.245219 -0.0406121 0.0266057 0.777165 0.628734 0 
0.106077 0.244376 -0.0416169 0.336427 0.53603 0.774266 0 
0.106448 0.244631 -0.0413568 0.325366 0.533729 0.780558 0 
0.10661 0.244536 -0.0418415 0.291723 0.525101 0.799479 0 
0.107138 0.243485 -0.0413369 0.203137 0.659034 0.724162 0 
0.106778 0.24468 -0.0418755 0.277234 0.512178 0.812906 0 
0.107179 0.244662 -0.0417382 0.262487 0.510996 0.818525 0 
0.107291 0.245022 -0.0420183 0.26505 0.448899 0.853369 0 
0.107143 0.244696 -0.0420662 0.261851 0.494264 0.828937 0 
0.107409 0.244776 -0.0421785 0.250923 0.451661 0.856178 0 
0.107605 0.244793 -0.0414359 0.201895 0.618013 0.759802 0 
0.107694 0.24482 -0.0414733 0.208325 0.591025 0.779289 0 
0.10734 0.243779 -0.0414505 0.196148 0.647133 0.736712 0 
0.107428 0.243897 -0.0416918 0.201991 0.605972 0.769414 0 
0.10752 0.243648 -0.0411177 0.192838 0.652564 0.732785 0 
0.107477 0.244287 -0.0415656 0.209079 0.614847 0.760427 0 
0.107577 0.244131 -0.0414401 0.19197 0.628126 0.754059 0 
0.107833 0.244301 -0.0415115 0.175277 0.63252 0.754451 0 
0.107701 0.244124 -0.0411496 0.175695 0.658474 0.731808 0 
0.107968 0.244203 -0.0412619 0.152585 0.663215 0.732709 0 
0.107777 0.243727 -0.0409852 0.175767 0.664859 0.725995 0 
0.10676 0.243176 -0.0424553 0.25587 0.516392 0.817233 0 
0.106912 0.243042 -0.0413882 0.203243 0.668685 0.715229 0 
0.106945 0.243284 -0.0416718 0.229758 0.614252 0.754921 0 
0.107211 0.243364 -0.0417841 0.208559 0.59787 0.773986 0 
0.107481 0.243168 -0.0412849 0.166118 0.662947 0.730004 0 
0.107196 0.243124 -0.04199 0.198454 0.601516 0.773818 0 
0.10755 0.243284 -0.0410366 0.169456 0.664083 0.728202 0 
0.107987 0.242443 -0.0397989 -0.190399 0.847052 0.496237 0 
0.107557 0.245102 -0.0421307 0.239511 0.480548 0.843628 0 
0.107692 0.245004 -0.041881 0.231475 0.513536 0.826257 0 
0.107587 0.244829 -0.0422534 0.226365 0.487671 0.84317 0 
0.107646 0.245128 -0.0421681 0.235276 0.462962 0.854583 0 
0.107945 0.24466 -0.0417916 0.190467 0.577495 0.793865 0 
0.107823 0.245182 -0.042243 0.213722 0.501716 0.838215 0 
0.10812 0.244989 -0.0424781 0.182598 0.53874 0.822446 0 
0.108211 0.24474 -0.0419039 0.179803 0.560562 0.808357 0 
0.108289 0.244911 -0.0407972 0.14981 0.694573 0.703652 0 
0.108214 0.244465 -0.0412924 0.139925 0.672544 0.726709 0 
0.108346 0.244643 -0.0416543 0.151868 0.617999 0.771371 0 
0.107929 0.244513 -0.0422015 0.192258 0.531358 0.825043 0 
0.108274 0.24471 -0.0423103 0.190598 0.499757 0.844935 0 
0.10808 0.244563 -0.041542 0.15612 0.656312 0.738161 0 
0.108481 0.244545 -0.0414047 0.107792 0.716151 0.689572 0 
0.108332 0.245101 -0.0424288 0.165018 0.604055 0.779671 0 
0.108475 0.245096 -0.0426279 0.161936 0.612937 0.77336 0 
0.108822 0.24511 -0.042329 0.114274 0.675253 0.72868 0 
0.109057 0.244856 -0.0419539 0.0152371 0.793715 0.608099 0 
0.108478 0.24482 -0.0420163 0.154778 0.602581 0.782905 0 
0.108555 0.24437 -0.0429552 0.16768 0.593678 0.787039 0 
0.108537 0.244368 -0.0424656 0.149955 0.550824 0.82104 0 
0.108846 0.244599 -0.0429025 0.0952098 0.736778 0.669398 0 
0.108892 0.244475 -0.0426154 0.0739429 0.73218 0.677085 0 
0.109015 0.244651 -0.0427326 0.0264999 0.788022 0.615076 0 
0.108632 0.244541 -0.0418485 0.101683 0.676415 0.729467 0 
0.108899 0.244621 -0.0419608 0.044076 0.746448 0.663983 0 
0.108819 0.244596 -0.0421681 0.0984227 0.709525 0.697773 0 
0.109086 0.244676 -0.0422804 0.0151874 0.79941 0.600593 0 
0.109175 0.24461 -0.042114 -0.0206869 0.817824 0.575097 0 
0.10835 0.243355 -0.0385555 -0.131534 0.805463 0.577865 0 
0.10793 0.242712 -0.0389418 -0.152973 0.896392 0.416029 0 
0.107845 0.242356 -0.039396 -0.182326 0.888292 0.421538 0 
0.109426 0.242741 -0.0393766 -0.467089 0.678032 0.567538 0 
0.109411 0.242594 -0.0397864 -0.391934 0.733032 0.555924 0 
0.109395 0.244907 -0.0427173 -0.0400005 0.856563 0.51449 0 
0.109113 0.244679 -0.0430148 0.0208674 0.791571 0.61072 0 
0.109607 0.24511 -0.0428719 -0.0757439 0.893777 0.442069 0 
0.109468 0.244786 -0.0431646 -0.0485772 0.850796 0.523246 0 
0.109679 0.244989 -0.0433192 -0.0590564 0.935716 0.347777 0 
0.109352 0.244756 -0.0423928 -0.0543699 0.849007 0.525576 0 
0.109442 0.24469 -0.0422264 -0.0574356 0.841923 0.536533 0 
0.109619 0.244744 -0.0423013 -0.0855922 0.87697 0.472862 0 
0.109707 0.244862 -0.0425426 -0.0850865 0.882946 0.461699 0 
0.109921 0.244882 -0.0422895 -0.11103 0.895268 0.431471 0 
0.109974 0.244942 -0.0426549 -0.0955895 0.930315 0.354085 0 
0.109966 0.244757 -0.0420024 -0.112283 0.879784 0.461922 0 
0.109971 0.245218 -0.0432665 -0.0764144 0.951942 0.296592 0 
0.109928 0.245067 -0.0429419 -0.0775659 0.942623 0.324725 0 
0.110051 0.245243 -0.0430591 -0.0921824 0.954282 0.284337 0 
0.0755282 0.231888 -0.0145355 0.290096 0.623465 0.726041 0 
0.0755431 0.231376 -0.0148642 0.279473 0.627617 0.72663 0 
0.134361 0.244043 -0.0447401 0.468434 0.465147 0.751138 0 
0.134549 0.244006 -0.0448558 0.512135 0.545718 0.663257 0 
0.134627 0.244123 -0.0448524 0.519945 0.270122 0.810365 0 
0.134697 0.244239 -0.0446041 0.438629 -0.226051 0.869773 0 
0.13495 0.243988 -0.0447185 0.454172 -0.493809 0.741539 0 
0.135365 0.244301 -0.0445792 0.477933 -0.565135 0.67246 0 
0.134984 0.244138 -0.0447983 0.447606 -0.564083 0.693872 0 
0.135014 0.243866 -0.044921 0.59959 -0.22582 0.767787 0 
0.135305 0.244095 -0.0448683 0.545142 -0.439096 0.714153 0 
0.135134 0.243437 -0.0446735 0.46268 -0.479146 0.745886 0 
0.135266 0.243614 -0.0450355 0.613797 -0.322284 0.720685 0 
0.13541 0.243426 -0.0448268 0.580659 -0.364752 0.727868 0 
0.135484 0.243213 -0.0450702 0.619073 -0.205328 0.758017 0 
0.134825 0.243205 -0.0442367 0.52304 0.191429 0.830533 0 
0.135032 0.242987 -0.0444343 0.592565 0.16435 0.788579 0 
0.135299 0.243067 -0.0445466 0.433626 -0.482715 0.76089 0 
0.135532 0.242905 -0.0443754 0.162259 -0.647521 0.744573 0 
0.135651 0.2442 -0.0447733 0.577876 -0.356493 0.734147 0 
0.135829 0.244253 -0.0448482 0.582028 -0.309453 0.751986 0 
0.135888 0.243801 -0.0452976 0.497536 -0.435138 0.750408 0 
0.136224 0.243997 -0.0451616 0.477098 -0.374289 0.795164 0 
0.136164 0.24379 -0.0454508 0.408237 -0.486306 0.77256 0 
0.136401 0.24405 -0.0452366 0.470296 -0.280936 0.836599 0 
0.135871 0.243615 -0.0444003 0.560046 -0.261982 0.785947 0 
0.136125 0.243272 -0.0443109 0.529016 -0.211911 0.821728 0 
0.136248 0.243356 -0.0442241 0.365892 -0.49484 0.788198 0 
0.136344 0.243568 -0.0449141 0.282676 -0.61486 0.736235 0 
0.136321 0.243235 -0.0446714 0.309281 -0.5785 0.754774 0 
0.136598 0.243225 -0.0448247 0.249974 -0.592707 0.765645 0 
0.136477 0.242282 -0.0476526 0.0823994 -0.470654 0.878462 0 
0.136419 0.241891 -0.047534 -0.550439 -0.473478 0.68763 0 
0.136636 0.241582 -0.0477726 -0.784072 -0.221149 0.579935 0 
0.136462 0.241291 -0.0483932 -0.822255 -0.208996 0.529355 0 
