0.0507495 0.241905 -0.0267359 0.150329 0.483095 0.862566 0 
0.0517282 0.242626 -0.0269861 -0.0682913 0.486401 0.871063 0 
0.0510195 0.241587 -0.0260756 0.143323 0.545217 0.825952 0 
0.0511766 0.241661 -0.0264071 0.0509156 0.488514 0.871069 0 
0.0514104 0.241517 -0.0260267 0.0232469 0.531944 0.846461 0 
0.0515608 0.241523 -0.0272214 0.0312246 0.481944 0.875645 0 
0.0517284 0.241922 -0.0271734 -0.0368231 0.484155 0.874207 0 
0.0510383 0.241723 -0.026851 0.0976766 0.477058 0.873427 0 
0.0514464 0.24147 -0.0263823 0.0317645 0.539996 0.841068 0 
0.0515247 0.24157 -0.0268659 -0.00666109 0.483595 0.875267 0 
0.0524686 0.244641 -0.0267582 -0.22217 0.124569 0.967018 0 
0.0534313 0.243181 -0.026719 -0.233514 0.374503 0.89734 0 
0.0523724 0.242168 -0.0254256 -0.138672 0.506516 0.851006 0 
0.0527045 0.243408 -0.0279478 -0.181454 0.336183 0.924151 0 
0.0522628 0.24307 -0.0281723 -0.137903 0.371922 0.917964 0 
0.0531699 0.243055 -0.027263 -0.211937 0.390256 0.895982 0 
0.0530066 0.242786 -0.0271593 -0.186616 0.442294 0.87724 0 
0.053306 0.242929 -0.0268949 -0.231523 0.387839 0.892176 0 
0.0516992 0.241335 -0.0261419 -0.0259613 0.515126 0.856721 0 
0.0519924 0.241283 -0.0261052 -0.048736 0.527741 0.848006 0 
0.0522918 0.241426 -0.0258409 -0.144931 0.599149 0.78741 0 
0.0517562 0.241488 -0.027197 -0.0368231 0.484155 0.874207 0 
0.0520152 0.241675 -0.0273644 -0.0368231 0.484155 0.874207 0 
0.052147 0.241418 -0.0271481 -0.0509295 0.483142 0.87406 0 
0.0524401 0.241366 -0.0271114 -0.0950215 0.494963 0.863703 0 
0.0518542 0.241344 -0.0265492 -0.0401582 0.535905 0.843323 0 
0.051699 0.241462 -0.0267774 -0.0368231 0.484155 0.874207 0 
0.0521303 0.241348 -0.0262968 -0.0873145 0.539632 0.837361 0 
0.0520856 0.241262 -0.0268803 -0.0400533 0.526218 0.849406 0 
0.0523787 0.241209 -0.0268437 -0.081443 0.547239 0.833004 0 
0.052585 0.241373 -0.0258042 -0.158164 0.607047 0.778767 0 
0.0528781 0.241321 -0.0257675 -0.185752 0.634012 0.750683 0 
0.0524234 0.241296 -0.0262601 -0.148296 0.591687 0.792411 0 
0.0527123 0.241113 -0.0263752 -0.171857 0.628113 0.758907 0 
0.0530097 0.241191 -0.0261868 -0.189331 0.644958 0.740394 0 
0.050353 0.2414 -0.0251057 0.293797 0.672682 0.679104 0 
0.0501807 0.2417 -0.0257539 0.279119 0.550353 0.786895 0 
0.0499217 0.241513 -0.0255864 0.34273 0.596123 0.726068 0 
0.0502148 0.241461 -0.0255498 0.299947 0.614329 0.729816 0 
0.050508 0.241409 -0.0255131 0.26691 0.576462 0.772302 0 
0.0504696 0.241518 -0.025869 0.293362 0.550251 0.781769 0 
0.0508011 0.241356 -0.0254764 0.238464 0.568884 0.787087 0 
0.0508604 0.241448 -0.0258201 0.215734 0.53704 0.815504 0 
0.0510963 0.241369 -0.0253638 0.149823 0.538472 0.829217 0 
0.0513937 0.241447 -0.0251754 0.105749 0.551924 0.827162 0 
0.0511535 0.241396 -0.0257834 0.17513 0.528385 0.830746 0 
0.0514466 0.241343 -0.0257467 0.0629788 0.519226 0.852314 0 
0.0516932 0.24159 -0.024911 -0.0205831 0.552998 0.832928 0 
0.0522389 0.241529 -0.0252695 -0.151937 0.621287 0.768711 0 
0.0519863 0.241538 -0.0248744 -0.155846 0.661209 0.733836 0 
0.051744 0.241421 -0.0255583 -0.00405168 0.536172 0.844099 0 
0.0520329 0.241239 -0.0256734 -0.116539 0.618097 0.777416 0 
0.0540321 0.243658 -0.02675 -0.300264 0.248544 0.920906 0 
0.0536754 0.243489 -0.0265947 -0.260924 0.319231 0.911049 0 
0.0536076 0.243137 -0.0265547 -0.244858 0.35629 0.901722 0 
0.0539262 0.243289 -0.0264302 -0.263638 0.318988 0.910353 0 
0.0539008 0.243085 -0.026518 -0.255187 0.331014 0.908465 0 
0.0542617 0.243384 -0.0265214 -0.29428 0.276884 0.914732 0 
0.0541515 0.242885 -0.0263534 -0.260924 0.319231 0.911049 0 
0.0548712 0.243419 -0.0264362 -0.205064 0.285973 0.936039 0 
0.0550155 0.243679 -0.0264001 -0.163684 0.309486 0.93671 0 
0.0544147 0.243202 -0.0263691 -0.267649 0.299477 0.915793 0 
0.0548055 0.243132 -0.0263202 -0.209798 0.276488 0.937837 0 
0.0543512 0.24298 -0.0261772 -0.247134 0.319395 0.914829 0 
0.0545254 0.242871 -0.0260888 -0.231068 0.290607 0.928523 0 
0.0549096 0.24331 -0.0260803 -0.159474 0.295777 0.941851 0 
0.0549033 0.243114 -0.026308 -0.186683 0.289013 0.938947 0 
0.0555867 0.244399 -0.0258478 -0.112092 0.288802 0.950804 0 
0.0557334 0.244021 -0.0259231 -0.0960886 0.254955 0.962167 0 
0.0555316 0.243861 -0.0261752 -0.128013 0.270543 0.954159 0 
0.0561645 0.244034 -0.026078 -0.0580772 0.236016 0.970012 0 
0.0558247 0.243809 -0.0261386 -0.0879722 0.256267 0.962595 0 
0.0559907 0.243313 -0.0257182 -0.0719594 0.258801 0.963246 0 
0.0553108 0.243692 -0.0262875 -0.15018 0.288182 0.945726 0 
0.0556592 0.243474 -0.0261107 -0.102763 0.274469 0.956089 0 
0.055757 0.243457 -0.0260985 -0.0881305 0.259283 0.961772 0 
0.0554363 0.24324 -0.0262989 -0.1384 0.288894 0.947304 0 
0.0555936 0.243188 -0.0259947 -0.0879722 0.256267 0.962595 0 
0.0551964 0.243062 -0.0262713 -0.1384 0.288894 0.947304 0 
0.0561602 0.243904 -0.0262298 -0.0661746 0.243473 0.967648 0 
0.0563768 0.243943 -0.0262694 -0.0628428 0.225495 0.972215 0 
0.0564703 0.243796 -0.0264089 -0.0424125 0.226604 0.973063 0 
0.0550142 0.242657 -0.0253921 -0.105599 0.275079 0.955605 0 
0.0554031 0.241819 -0.0256064 -0.0962625 0.257984 0.961342 0 
0.0557026 0.241962 -0.0253421 -0.0822575 0.246772 0.965576 0 
0.0551487 0.241636 -0.0246516 -0.0851203 0.310362 0.9468 0 
0.0553629 0.241736 -0.0254026 -0.0962625 0.257984 0.961342 0 
0.0551847 0.241588 -0.0250072 -0.081826 0.294833 0.952039 0 
0.0559002 0.241992 -0.0252417 -0.053622 0.260628 0.963949 0 
0.0562846 0.241727 -0.0254205 -0.013406 0.274214 0.961575 0 
0.0559555 0.241827 -0.0251016 -0.0459063 0.26179 0.964032 0 
0.0556391 0.24174 -0.0251502 -0.0744331 0.251054 0.965107 0 
0.0552419 0.241615 -0.0254267 -0.112611 0.249815 0.961723 0 
0.0552567 0.241493 -0.0257184 -0.126936 0.252564 0.959218 0 
0.0557535 0.241793 -0.0259893 -0.0879722 0.256267 0.962595 0 
0.0559552 0.241954 -0.0257372 -0.053622 0.260628 0.963949 0 
0.056346 0.241884 -0.0256883 -0.00851159 0.273587 0.96181 0 
0.0534474 0.241273 -0.0254785 -0.190264 0.561658 0.805196 0 
0.0575281 0.24366 -0.0260587 -0.0033887 0.166046 0.986112 0 
0.057284 0.243352 -0.0261829 -0.00342009 0.178985 0.983846 0 
0.05745 0.242856 -0.0257625 0.00341244 0.178584 0.983919 0 
0.0574458 0.242726 -0.0259143 0.00341244 0.178584 0.983919 0 
0.0579401 0.243664 -0.0260738 0.0169719 0.15501 0.987767 0 
0.0581356 0.24363 -0.0260494 0.0262125 0.151577 0.988098 0 
0.057813 0.243221 -0.0256901 0.0265626 0.16977 0.985126 0 
0.0581356 0.24363 -0.0260494 0.0262125 0.151577 0.988098 0 
0.0584287 0.243577 -0.0260127 0.0517195 0.134471 0.989567 0 
0.0585264 0.24356 -0.0260005 0.0537994 0.129348 0.990139 0 
0.0581443 0.243186 -0.0259331 0.0401828 0.145806 0.988497 0 
0.0577431 0.242804 -0.0257259 0.0241896 0.171631 0.984864 0 
0.0576796 0.242582 -0.025534 0.0241896 0.171631 0.984864 0 
0.0579746 0.242722 -0.026057 0.0309655 0.154828 0.987456 0 
0.0576732 0.242387 -0.0257617 0.0241443 0.16901 0.985318 0 
0.0576668 0.242192 -0.0259894 0.0195763 0.173883 0.984572 0 
0.0579385 0.242769 -0.0257014 0.0359146 0.163354 0.985914 0 
0.057911 0.2425 -0.0258651 0.0359146 0.163354 0.985914 0 
0.0582677 0.242669 -0.0260203 0.0494921 0.14157 0.98869 0 
0.0565478 0.242044 -0.0254362 -0.00119665 0.259673 0.965696 0 
0.0565777 0.241675 -0.0253839 0.00846873 0.26495 0.964225 0 
0.0568709 0.241623 -0.0253472 0.0208765 0.27385 0.961546 0 
0.0567096 0.241418 -0.0251675 0.0237208 0.303376 0.952576 0 
0.0573573 0.24147 -0.025362 0.0383322 0.265852 0.963251 0 
0.0576525 0.241483 -0.0252494 0.0476451 0.233339 0.971228 0 
0.0580707 0.241809 -0.0256724 0.0550751 0.160538 0.985492 0 
0.0572958 0.241314 -0.0250942 0.0469318 0.300617 0.952589 0 
0.057589 0.241261 -0.0250575 0.056539 0.270131 0.961162 0 
0.0576414 0.241988 -0.0260771 0.0195763 0.173883 0.984572 0 
0.0578411 0.242083 -0.0259009 0.0312613 0.167885 0.985311 0 
0.0582319 0.242013 -0.025852 0.0429018 0.156533 0.98674 0 
0.0571214 0.241549 -0.0258182 0.028035 0.254753 0.9666 0 
0.0571788 0.241449 -0.0256021 0.0336874 0.288215 0.956973 0 
0.0574378 0.241636 -0.0257696 0.0302939 0.238716 0.970617 0 
0.0574719 0.241397 -0.0255655 0.0412085 0.275972 0.960282 0 
0.0577712 0.241666 -0.0259368 0.0415837 0.193661 0.980187 0 
0.0578117 0.241622 -0.0255049 0.0458256 0.175077 0.983488 0 
0.058726 0.243655 -0.0258242 0.0585129 0.127352 0.99013 0 
0.0588237 0.243638 -0.025812 0.0632646 0.123078 0.990378 0 
0.0587218 0.243525 -0.025976 0.0634982 0.13046 0.989418 0 
0.0591126 0.243455 -0.0259272 0.0638764 0.138205 0.988342 0 
0.058792 0.243238 -0.0261275 0.0681555 0.123604 0.989988 0 
0.0584565 0.243143 -0.0260363 0.0567832 0.14022 0.988491 0 
0.0583887 0.242791 -0.0259962 0.049605 0.141893 0.988638 0 
0.058686 0.242869 -0.0258077 0.0588789 0.132766 0.989397 0 
0.0590427 0.243038 -0.0259629 0.066231 0.133624 0.988817 0 
0.0589664 0.242426 -0.0262264 0.0783487 0.13214 0.98813 0 
0.0585121 0.242274 -0.0260834 0.0568948 0.142818 0.988112 0 
0.0582531 0.242087 -0.025916 0.0429018 0.156533 0.98674 0 
0.0585462 0.242035 -0.0258794 0.0548819 0.152969 0.986706 0 
0.058387 0.241896 -0.0256238 0.0567832 0.14022 0.988491 0 
0.0587779 0.241826 -0.0255749 0.0688166 0.1388 0.987927 0 
0.0588414 0.242048 -0.0257668 0.0692494 0.144367 0.987098 0 
0.05941 0.243533 -0.0257387 0.0740365 0.101373 0.99209 0 
0.0593081 0.24342 -0.0259027 0.0721899 0.111149 0.991178 0 
0.0596012 0.243368 -0.025866 0.0690656 0.0962389 0.992959 0 
0.0592382 0.243003 -0.0259385 0.071302 0.139097 0.987708 0 
0.0595334 0.243016 -0.025826 0.07294 0.121567 0.9899 0 
0.0599814 0.242973 -0.0261966 0.0640072 0.0909576 0.993796 0 
0.0591324 0.24193 -0.025806 0.0717513 0.144679 0.986874 0 
0.0589733 0.241791 -0.0255505 0.0770972 0.111618 0.990756 0 
0.0592664 0.241739 -0.0255138 0.0717513 0.144679 0.986874 0 
0.0594256 0.241878 -0.0257694 0.0791609 0.142962 0.986557 0 
0.0597187 0.241826 -0.0257327 0.0747057 0.152969 0.985403 0 
0.0595595 0.241687 -0.0254771 0.0717513 0.144679 0.986874 0 
0.0583638 0.241757 -0.0256357 0.0564311 0.134744 0.989272 0 
0.0583619 0.241565 -0.025076 0.0840374 0.102457 0.991181 0 
0.0586571 0.241578 -0.0249635 0.0677285 0.118238 0.990673 0 
0.0586209 0.241752 -0.0252435 0.0703137 0.121032 0.990155 0 
0.0589564 0.241847 -0.0253348 0.066231 0.133624 0.988817 0 
0.0592495 0.241795 -0.0252981 0.0720357 0.149976 0.986062 0 
0.0595426 0.241743 -0.0252614 0.0717513 0.144679 0.986874 0 
0.0589452 0.242352 -0.0261625 0.0735274 0.131882 0.988535 0 
0.0592596 0.242374 -0.0261898 0.0780352 0.126953 0.988834 0 
0.0593125 0.24227 -0.0267611 0.0873851 0.117679 0.989199 0 
0.0596099 0.242348 -0.0265727 0.0758715 0.129565 0.988664 0 
0.0595463 0.242126 -0.0263808 0.0811837 0.137659 0.987147 0 
0.0590983 0.242169 -0.0260101 0.0830454 0.127492 0.988357 0 
0.0593914 0.242117 -0.0259735 0.0761517 0.137073 0.987629 0 
0.0596845 0.242065 -0.0259368 0.0810215 0.135036 0.987523 0 
0.0602788 0.243051 -0.0260082 0.0636185 0.0837085 0.994457 0 
0.0599504 0.241617 -0.0254283 0.0655192 0.172732 0.982787 0 
0.0602414 0.241499 -0.0254675 0.0630244 0.170047 0.983419 0 
0.0614513 0.242841 -0.0258615 0.020498 0.089544 0.995772 0 
0.0616339 0.242416 -0.0262924 0.0182661 0.0870324 0.996038 0 
0.0613114 0.242008 -0.0259331 0.0275167 0.106765 0.993903 0 
0.0612478 0.241786 -0.0257412 0.0323788 0.117233 0.992576 0 
0.0600921 0.242065 -0.0267393 0.0761517 0.137073 0.987629 0 
0.0600285 0.241844 -0.0265474 0.0770911 0.150624 0.985581 0 
0.0607503 0.242443 -0.0265542 0.0414103 0.113039 0.992727 0 
0.0610265 0.242447 -0.0263018 0.0344148 0.107685 0.993589 0 
0.0607845 0.242204 -0.0263501 0.0393298 0.11799 0.992236 0 
0.0609163 0.241947 -0.0261338 0.037221 0.125198 0.991433 0 
0.0610776 0.242151 -0.0263135 0.0322441 0.114522 0.992897 0 
0.0612095 0.241895 -0.0260971 0.0323788 0.117233 0.992576 0 
0.061375 0.242229 -0.026125 0.0275167 0.106765 0.993903 0 
0.0609484 0.241643 -0.0260056 0.0444339 0.133302 0.990079 0 
0.0610823 0.241452 -0.0257134 0.0454773 0.164418 0.985342 0 
0.0613797 0.241529 -0.0255249 0.0260626 0.143911 0.989247 0 
0.0617338 0.242464 -0.0262043 0.0139121 0.084543 0.996323 0 
0.0619271 0.242364 -0.0262558 0.0075439 0.102381 0.994717 0 
0.0616177 0.241516 -0.0249928 0.0170742 0.160497 0.986889 0 
0.0614433 0.241751 -0.0257168 0.0212255 0.132939 0.990897 0 
0.0616749 0.241542 -0.0254124 0.019059 0.14014 0.989948 0 
0.0619109 0.241463 -0.0249561 0.00114373 0.186429 0.982468 0 
0.062204 0.241411 -0.0249195 -0.0173312 0.1814 0.983257 0 
0.0624609 0.241533 -0.0251628 -0.0196128 0.176515 0.984102 0 
0.0628517 0.241463 -0.0251139 -0.0484862 0.178571 0.982732 0 
0.0616681 0.242177 -0.0260883 0.018557 0.103701 0.994435 0 
0.0617999 0.24192 -0.025872 0.016589 0.12497 0.992022 0 
0.0621948 0.242107 -0.0263069 -0.0122288 0.13674 0.990532 0 
0.0620888 0.241738 -0.0259871 -0.0101352 0.156533 0.987621 0 
0.0621503 0.241895 -0.0262549 -0.0123257 0.144547 0.989421 0 
0.0618299 0.241551 -0.0258197 0.00337615 0.16093 0.98696 0 
0.0621208 0.241434 -0.025859 -0.0149591 0.178359 0.983852 0 
0.061966 0.241425 -0.0254516 -0.00791263 0.161644 0.986817 0 
0.0623819 0.241686 -0.0259505 -0.021846 0.169019 0.985371 0 
0.0624434 0.241842 -0.0262183 -0.0240537 0.163794 0.986201 0 
0.0625774 0.241651 -0.025926 -0.0240537 0.163794 0.986201 0 
0.0626388 0.241807 -0.0261938 -0.0240537 0.163794 0.986201 0 
0.062781 0.242003 -0.0262336 -0.0261126 0.146458 0.988872 0 
0.0629724 0.241711 -0.0257254 -0.031367 0.175423 0.983993 0 
0.0630084 0.241664 -0.026081 -0.0361055 0.173539 0.984165 0 
0.0630678 0.241755 -0.0264246 -0.0361055 0.173539 0.984165 0 
0.062414 0.241381 -0.0258223 -0.0242803 0.176899 0.983929 0 
0.0622591 0.241372 -0.0254149 -0.0242803 0.176899 0.983929 0 
0.0627092 0.241394 -0.0257097 -0.0268627 0.185703 0.982239 0 
0.0631617 0.241931 -0.0244701 -0.0487627 0.186726 0.981201 0 
0.0639641 0.242119 -0.0257075 -0.0288272 0.164892 0.98589 0 
0.0635587 0.241607 -0.025652 -0.0337651 0.175811 0.983845 0 
0.0637221 0.241876 -0.0257558 -0.031367 0.175423 0.983993 0 
0.0638539 0.241619 -0.0255395 -0.0266126 0.172403 0.984667 0 
0.0631512 0.241606 -0.0248496 -0.0389566 0.190061 0.980999 0 
0.0630066 0.241472 -0.0255212 -0.0436453 0.180479 0.98261 0 
0.0632083 0.241633 -0.0252692 -0.0293183 0.18881 0.981576 0 
0.0641449 0.241502 -0.0255787 -0.024235 0.174261 0.984401 0 
0.0645016 0.241671 -0.0257339 -0.0125594 0.170123 0.985343 0 
0.0633672 0.241898 -0.0261603 -0.02201 0.179556 0.983502 0 
0.0632613 0.241529 -0.0258405 -0.0363781 0.184237 0.982208 0 
0.0637623 0.241959 -0.0259596 -0.031308 0.172774 0.984464 0 
0.0636011 0.241754 -0.0257799 -0.031367 0.175423 0.983993 0 
0.0642509 0.241871 -0.0258985 -0.0195763 0.173883 0.984572 0 
0.0641873 0.24165 -0.0257066 -0.0195763 0.173883 0.984572 0 
0.0644762 0.241467 -0.0258217 -0.0173239 0.183633 0.982842 0 
0.0644381 0.24145 -0.025542 -0.0126011 0.177561 0.984029 0 
0.0647947 0.241619 -0.0256972 -0.010306 0.179783 0.983652 0 
0.0656741 0.241462 -0.0255873 0.00110175 0.137718 0.990471 0 
0.0659481 0.241401 -0.0254108 0.0122752 0.141723 0.98983 0 
0.0659058 0.241253 -0.0252828 0.012345 0.149262 0.988721 0 
0.0647693 0.241415 -0.0257851 -0.0103864 0.188109 0.982093 0 
0.0647269 0.241267 -0.0256572 -0.0174596 0.192055 0.981229 0 
0.0649647 0.24138 -0.0257606 -0.0172991 0.178757 0.983741 0 
0.0650878 0.241567 -0.0256606 -0.0125594 0.170123 0.985343 0 
0.065381 0.241515 -0.0256239 -0.0125594 0.170123 0.985343 0 
0.06502 0.241215 -0.0256205 -0.0127639 0.1961 0.980501 0 
0.0653598 0.241441 -0.02556 -0.010215 0.164574 0.986312 0 
0.0653174 0.241293 -0.0254321 -0.00790972 0.163844 0.986455 0 
0.0655552 0.241406 -0.0255355 0.00110175 0.137718 0.990471 0 
0.0660649 0.241392 -0.0255384 0.0168816 0.145182 0.989261 0 
0.0661372 0.241171 -0.025614 0.012252 0.139227 0.990185 0 
0.066358 0.24134 -0.0255017 0.023601 0.138234 0.990118 0 
0.0661756 0.241062 -0.0252581 0.0238272 0.150906 0.988261 0 
0.0664687 0.24101 -0.0252214 0.0167164 0.134846 0.990726 0 
0.0673224 0.241352 -0.025012 0.0269289 0.0807866 0.996368 0 
0.066617 0.241527 -0.0256691 0.0232915 0.118676 0.99266 0 
0.0664899 0.241084 -0.0252854 0.0211849 0.130454 0.991228 0 
0.0666512 0.241288 -0.025465 0.0254589 0.116225 0.992896 0 
0.0669379 0.24104 -0.0256561 0.0390983 0.110592 0.993097 0 
0.066819 0.240984 -0.0256043 0.0277932 0.116732 0.992774 0 
0.0669972 0.241132 -0.0259997 0.0342717 0.105026 0.993879 0 
0.0673287 0.240971 -0.0256072 0.0336016 0.0812941 0.996124 0 
0.0670761 0.240979 -0.025212 0.0318113 0.095434 0.994927 0 
0.0677153 0.240771 -0.0257101 0.0289715 0.0740383 0.996834 0 
0.0691343 0.240808 -0.0247277 -0.0457297 0.101498 0.993784 0 
0.0679171 0.240931 -0.0254579 0.0266641 0.0693267 0.997238 0 
0.0679743 0.240957 -0.0258775 0.0266641 0.0693267 0.997238 0 
0.0683058 0.240796 -0.0254849 -0.00319474 0.0926474 0.995694 0 
0.0682486 0.24077 -0.0250654 0.00535642 0.0974868 0.995222 0 
0.068363 0.240823 -0.0259045 0.00106266 0.0924518 0.995717 0 
0.0685542 0.240658 -0.0260319 -0.0185887 0.108252 0.99395 0 
0.0684949 0.240566 -0.0256882 -0.0142091 0.112579 0.993541 0 
0.0694783 0.240587 -0.0253383 -0.052323 0.0946267 0.994137 0 
0.0695355 0.240613 -0.0257579 -0.0543459 0.0854008 0.994863 0 
0.0697309 0.240579 -0.0257334 -0.0629738 0.0718122 0.995428 0 
0.0701217 0.240509 -0.0256845 -0.0722571 0.0700338 0.994924 0 
0.0707037 0.240274 -0.025763 -0.0718122 0.0629738 0.995428 0 
0.0709055 0.240434 -0.0255109 -0.064918 0.064918 0.995777 0 
0.070842 0.240213 -0.025319 -0.0760597 0.0584227 0.99539 0 
0.0712114 0.240773 -0.0250189 -0.0537906 0.075746 0.995675 0 
0.0715087 0.24085 -0.0248304 -0.0314983 0.0836335 0.995999 0 
0.0717976 0.240668 -0.0249455 -0.00748744 0.090919 0.99583 0 
0.0732611 0.240341 -0.0248381 0.0527552 0.102143 0.99337 0 
0.0736356 0.242883 -0.0258424 0.0527552 0.102143 0.99337 0 
0.073831 0.242848 -0.0258179 0.055006 0.0999088 0.993475 0 
0.0735254 0.242384 -0.0256744 0.0527552 0.102143 0.99337 0 
0.0737822 0.242505 -0.0259177 0.0577182 0.107514 0.992527 0 
0.0735191 0.242188 -0.0259021 0.0502026 0.0970584 0.994012 0 
0.0734534 0.241902 -0.0257861 0.0429684 0.0914455 0.994883 0 
0.0736446 0.241737 -0.0259135 0.0450863 0.0868737 0.995199 0 
0.0736446 0.241737 -0.0259135 0.0450863 0.0868737 0.995199 0 
0.0742346 0.243169 -0.0253137 0.0563392 0.078433 0.995326 0 
0.0744173 0.242744 -0.0257446 0.0706099 0.0818178 0.994143 0 
0.0747104 0.242691 -0.025708 0.0734519 0.0892723 0.993295 0 
0.0740817 0.242648 -0.0256534 0.0572566 0.097673 0.99357 0 
0.0743812 0.242791 -0.025389 0.0633489 0.081131 0.994688 0 
0.074462 0.24283 -0.0251611 0.0636185 0.0837085 0.994457 0 
0.0740754 0.242453 -0.0258811 0.0665122 0.0958227 0.993174 0 
0.0738524 0.242219 -0.0260692 0.0672031 0.10593 0.9921 0 
0.0741455 0.242166 -0.0260326 0.0690656 0.0962389 0.992959 0 
0.0740012 0.241906 -0.0260687 0.0670675 0.103443 0.992372 0 
0.0743685 0.242401 -0.0258444 0.0665122 0.0958227 0.993174 0 
0.0746616 0.242348 -0.0258078 0.0690656 0.0962389 0.992959 0 
0.0743346 0.241936 -0.0262358 0.0670675 0.103443 0.992372 0 
0.0744599 0.242188 -0.0260599 0.0740365 0.101373 0.99209 0 
0.0742986 0.241984 -0.0258802 0.0672031 0.10593 0.9921 0 
0.0742308 0.241632 -0.0258401 0.0681555 0.123604 0.989988 0 
0.0743963 0.241966 -0.025868 0.0721899 0.111149 0.991178 0 
0.0745917 0.241932 -0.0258436 0.0756968 0.129267 0.988716 0 
0.0745218 0.241515 -0.0258793 0.0711606 0.136488 0.988083 0 
0.0739207 0.241741 -0.0256611 0.0597337 0.102562 0.992931 0 
0.0737338 0.241459 -0.0262048 0.0518005 0.0826603 0.995231 0 
0.0739991 0.241841 -0.0261445 0.0670675 0.103443 0.992372 0 
0.0742922 0.241789 -0.0261079 0.0721899 0.111149 0.991178 0 
0.0735746 0.24132 -0.0259492 0.0450863 0.0868737 0.995199 0 
0.0739101 0.241415 -0.0260405 0.0620073 0.0980843 0.993244 0 
0.0738656 0.241202 -0.0259885 0.0572566 0.097673 0.99357 0 
0.0738042 0.241046 -0.0257207 0.0527552 0.102143 0.99337 0 
0.0742353 0.241059 -0.0258757 0.066231 0.133624 0.988817 0 
0.074074 0.240854 -0.025696 0.0585129 0.127352 0.99013 0 
0.0743671 0.240802 -0.0256593 0.0688166 0.1388 0.987927 0 
0.0736114 0.240316 -0.025221 0.0393298 0.11799 0.992236 0 
0.073711 0.24049 -0.0257685 0.0414103 0.113039 0.992727 0 
0.0736495 0.240333 -0.0255007 0.043926 0.11601 0.992276 0 
0.0740041 0.240437 -0.0257318 0.0487216 0.121237 0.991427 0 
0.073877 0.239994 -0.025348 0.0422286 0.138099 0.989518 0 
0.0740382 0.240198 -0.0255277 0.0517195 0.134471 0.989567 0 
0.0749058 0.242657 -0.0256836 0.0774828 0.0797286 0.993801 0 
0.0751012 0.242622 -0.0256591 0.0690656 0.0962389 0.992959 0 
0.0753943 0.242569 -0.0256224 0.0700506 0.113689 0.991044 0 
0.0748994 0.242461 -0.0259112 0.0717537 0.103644 0.992023 0 
0.0752902 0.242392 -0.0258623 0.0700506 0.113689 0.991044 0 
0.0746553 0.242153 -0.0260354 0.0746575 0.109115 0.991222 0 
0.0746852 0.241784 -0.0259831 0.0780352 0.126953 0.988834 0 
0.0749272 0.242027 -0.0259348 0.0777439 0.119517 0.989784 0 
0.0747871 0.241897 -0.0258191 0.07294 0.121567 0.9899 0 
0.0748636 0.241805 -0.0257429 0.0708994 0.129014 0.989105 0 
0.0747596 0.241628 -0.0259828 0.0711606 0.136488 0.988083 0 
0.0752203 0.241975 -0.0258982 0.07294 0.121567 0.9899 0 
0.0751779 0.241827 -0.0257702 0.0708994 0.129014 0.989105 0 
0.0749126 0.241445 -0.0258304 0.0783487 0.13214 0.98813 0 
0.0751779 0.241827 -0.0257702 0.0708994 0.129014 0.989105 0 
0.0752079 0.241458 -0.0257179 0.0737977 0.139396 0.987483 0 
0.0756874 0.242517 -0.0255858 0.0603501 0.112729 0.991791 0 
0.0759805 0.242465 -0.0255491 0.0528483 0.106821 0.992873 0 
0.0754857 0.242357 -0.0258379 0.0701729 0.118489 0.990473 0 
0.0756811 0.242322 -0.0258135 0.0632646 0.123078 0.990378 0 
0.0759742 0.24227 -0.0257768 0.0577182 0.107514 0.992527 0 
0.0754157 0.24194 -0.0258737 0.0681555 0.123604 0.989988 0 
0.0758066 0.24187 -0.0258248 0.0685652 0.13132 0.988966 0 
0.0754711 0.241775 -0.0257336 0.0685652 0.13132 0.988966 0 
0.0757642 0.241722 -0.0256969 0.066231 0.133624 0.988817 0 
0.0754989 0.24134 -0.0257571 0.066231 0.133624 0.988817 0 
0.0760231 0.241909 -0.0258643 0.0658171 0.12817 0.989566 0 
0.0756943 0.241305 -0.0257327 0.068953 0.141412 0.987547 0 
0.0759596 0.241687 -0.0256725 0.066231 0.133624 0.988817 0 
0.0745006 0.241441 -0.0258154 0.0711606 0.136488 0.988083 0 
0.0747937 0.241388 -0.0257787 0.0761517 0.137073 0.987629 0 
0.0760509 0.241475 -0.0258879 0.0735274 0.131882 0.988535 0 
0.0745284 0.241006 -0.025839 0.0688166 0.1388 0.987927 0 
0.0745625 0.240767 -0.0256349 0.0692494 0.144367 0.987098 0 
0.0748215 0.240954 -0.0258023 0.0769113 0.150273 0.985648 0 
0.0750868 0.241336 -0.0257421 0.0717513 0.144679 0.986874 0 
0.0751146 0.240902 -0.0257657 0.0743846 0.14995 0.985891 0 
0.0749491 0.240567 -0.0257378 0.0800779 0.161351 0.983643 0 
0.0744926 0.24035 -0.0256707 0.0672857 0.154639 0.985677 0 
0.0743314 0.240146 -0.025491 0.0649111 0.156967 0.985468 0 
0.0748835 0.240281 -0.0256218 0.0725769 0.163001 0.983953 0 
0.0746245 0.240094 -0.0254544 0.065165 0.16232 0.984584 0 
0.074871 0.239764 -0.0254416 0.0632682 0.17548 0.982448 0 
0.0754289 0.240923 -0.0257929 0.0672857 0.154639 0.985677 0 
0.0754077 0.240849 -0.025729 0.0672857 0.154639 0.985677 0 
0.0751446 0.240532 -0.0257133 0.0751482 0.161032 0.984084 0 
0.0755333 0.240398 -0.0257404 0.0728896 0.166093 0.983413 0 
0.0757644 0.241019 -0.0258842 0.0692494 0.144367 0.987098 0 
0.0756966 0.240667 -0.0258441 0.0696606 0.152309 0.985875 0 
0.0758264 0.240345 -0.0257037 0.0727473 0.163383 0.983877 0 
0.0750789 0.240246 -0.0255973 0.0727473 0.163383 0.983877 0 
0.0754697 0.240176 -0.0255485 0.0706209 0.171166 0.982708 0 
0.0751641 0.239711 -0.0254049 0.0607472 0.175095 0.982676 0 
0.0756651 0.240141 -0.025524 0.0732858 0.176607 0.981549 0 
0.0775902 0.24259 -0.0259653 0.0774828 0.0797286 0.993801 0 
0.0778833 0.242538 -0.0259286 0.0747871 0.0725546 0.994557 0 
0.078956 0.242281 -0.0258701 0.072853 0.0795779 0.994163 0 
0.0791535 0.242311 -0.0257697 0.0689106 0.096023 0.992991 0 
0.0791514 0.242246 -0.0258456 0.0689106 0.096023 0.992991 0 
0.0795444 0.242242 -0.0257209 0.0637355 0.0883351 0.99405 0 
0.0795422 0.242177 -0.0257967 0.0610105 0.0787589 0.995025 0 
0.0791832 0.242069 -0.026353 0.0686316 0.0911338 0.993471 0 
0.0795359 0.241981 -0.0260244 0.0647883 0.105707 0.992284 0 
0.0793299 0.241691 -0.0264283 0.0721899 0.111149 0.991178 0 
0.0795592 0.241543 -0.0268354 0.0620073 0.0980843 0.993244 0 
0.0762737 0.242413 -0.0255125 0.055006 0.0999088 0.993475 0 
0.0764691 0.242378 -0.025488 0.0572566 0.097673 0.99357 0 
0.0762673 0.242217 -0.0257401 0.0551035 0.104584 0.992988 0 
0.0764627 0.242182 -0.0257157 0.055006 0.0999088 0.993475 0 
0.0768215 0.242417 -0.025795 0.0620073 0.0980843 0.993244 0 
0.0768705 0.242056 -0.0258825 0.0597337 0.102562 0.992931 0 
0.0767495 0.241935 -0.0259067 0.0597337 0.102562 0.992931 0 
0.0770596 0.241826 -0.0260858 0.0694869 0.103661 0.992182 0 
0.076414 0.241839 -0.0258154 0.0577182 0.107514 0.992527 0 
0.0763886 0.241635 -0.0259033 0.0629951 0.120263 0.990741 0 
0.0767008 0.241592 -0.0260065 0.0672031 0.10593 0.9921 0 
0.0771189 0.242495 -0.0256065 0.0689106 0.096023 0.992991 0 
0.0772314 0.242356 -0.025886 0.071334 0.0939798 0.993015 0 
0.0771083 0.242169 -0.025986 0.0690656 0.0962389 0.992959 0 
0.0773993 0.242052 -0.0260252 0.076336 0.0968442 0.992368 0 
0.0772952 0.241874 -0.0262651 0.0717537 0.103644 0.992023 0 
0.0775669 0.242451 -0.0259772 0.0779608 0.0869998 0.993153 0 
0.0777623 0.242417 -0.0259528 0.0774828 0.0797286 0.993801 0 
0.0777136 0.242074 -0.0260525 0.0763189 0.0991007 0.992146 0 
0.0777838 0.241787 -0.026204 0.0761803 0.0943726 0.992618 0 
0.0770362 0.241687 -0.0260977 0.0621325 0.100542 0.992991 0 
0.0763441 0.241422 -0.0258512 0.0659481 0.130739 0.989221 0 
0.0766372 0.24137 -0.0258146 0.0649028 0.110449 0.99176 0 
0.0766946 0.240693 -0.0264214 0.066231 0.133624 0.988817 0 
0.0772317 0.241652 -0.0260732 0.0723542 0.111403 0.991138 0 
0.077323 0.24144 -0.0262887 0.0701729 0.118489 0.990473 0 
0.0777072 0.241878 -0.0262802 0.0763189 0.0991007 0.992146 0 
0.0776394 0.241526 -0.0262401 0.0770972 0.111618 0.990756 0 
0.0777732 0.241462 -0.0265835 0.0792627 0.104535 0.991358 0 
0.0770852 0.241327 -0.0261853 0.0723542 0.111403 0.991138 0 
0.0770005 0.241031 -0.0259294 0.069751 0.110916 0.991379 0 
0.0770153 0.24091 -0.0262211 0.0677285 0.118238 0.990673 0 
0.0769517 0.240688 -0.0260292 0.0659481 0.130739 0.989221 0 
0.0775738 0.24124 -0.0261241 0.0772532 0.11415 0.990455 0 
0.0773042 0.240727 -0.0263362 0.0755453 0.126684 0.989062 0 
0.0772406 0.240506 -0.0261443 0.0755453 0.126684 0.989062 0 
0.077574 0.240536 -0.0263114 0.0780352 0.126953 0.988834 0 
0.0760533 0.240836 -0.0259994 0.0769113 0.150273 0.985648 0 
0.0763019 0.240571 -0.0259106 0.0743846 0.14995 0.985891 0 
0.0759453 0.240402 -0.0257554 0.0750007 0.158335 0.984533 0 
0.0762384 0.240349 -0.0257188 0.0802353 0.164063 0.983181 0 
0.0761195 0.240293 -0.025667 0.0701819 0.165344 0.983736 0 
0.0765951 0.240519 -0.025874 0.071302 0.139097 0.987708 0 
0.0763702 0.240093 -0.0255024 0.0707284 0.176222 0.981806 0 
0.0765315 0.240297 -0.0256821 0.0723202 0.155311 0.985215 0 
0.0760517 0.239941 -0.0256269 0.0715474 0.192814 0.978623 0 
0.0763491 0.240019 -0.0254385 0.0683132 0.178573 0.981552 0 
0.0766422 0.239967 -0.0254018 0.0780077 0.166817 0.982897 0 
0.0768882 0.240467 -0.0258373 0.066231 0.133624 0.988817 0 
0.0768246 0.240245 -0.0256454 0.0769113 0.150273 0.985648 0 
0.0766655 0.240106 -0.0253899 0.0802353 0.164063 0.983181 0 
0.0769586 0.240053 -0.0253532 0.0716091 0.142044 0.987267 0 
0.0771813 0.240414 -0.0258006 0.0659481 0.130739 0.989221 0 
0.0771622 0.240405 -0.0256608 0.0711606 0.136488 0.988083 0 
0.0774744 0.240362 -0.025764 0.0758715 0.129565 0.988664 0 
0.0774554 0.240353 -0.0256241 0.0783487 0.13214 0.98813 0 
0.0772941 0.240149 -0.0254444 0.0791609 0.142962 0.986557 0 
0.0768397 0.239997 -0.0253015 0.0717513 0.144679 0.986874 0 
0.0766361 0.239645 -0.0249939 0.0897631 0.190593 0.977557 0 
0.0770394 0.240092 -0.0251253 0.0791609 0.142962 0.986557 0 
0.0780618 0.24256 -0.0256884 0.0792374 0.0703092 0.994373 0 
0.0783549 0.242507 -0.0256518 0.07686 0.0679487 0.994724 0 
0.0785503 0.242472 -0.0256273 0.07686 0.0679487 0.994724 0 
0.0780554 0.242364 -0.0259161 0.0774828 0.0797286 0.993801 0 
0.0783486 0.242312 -0.0258794 0.0774828 0.0797286 0.993801 0 
0.0780067 0.242021 -0.0260159 0.0802218 0.0847413 0.993168 0 
0.0780981 0.241809 -0.0262313 0.0734519 0.0892723 0.993295 0 
0.078544 0.242277 -0.025855 0.0747871 0.0725546 0.994557 0 
0.0783422 0.242117 -0.0261071 0.0797286 0.0774828 0.993801 0 
0.0786353 0.242064 -0.0260705 0.0774828 0.0797286 0.993801 0 
0.0789412 0.242403 -0.0255784 0.07686 0.0679487 0.994724 0 
0.0789284 0.242012 -0.0260338 0.0690656 0.0962389 0.992959 0 
0.0782871 0.241578 -0.0264346 0.0786179 0.0945694 0.992409 0 
0.0778772 0.241639 -0.0263436 0.071174 0.0937689 0.993047 0 
0.0780663 0.241409 -0.0265469 0.0836749 0.0997222 0.991491 0 
0.0783912 0.241756 -0.0261946 0.0786179 0.0945694 0.992409 0 
0.0784613 0.24147 -0.0263462 0.076804 0.104316 0.991574 0 
0.0778605 0.240992 -0.0263152 0.0827111 0.122319 0.989038 0 
0.0781536 0.24094 -0.0262785 0.0770972 0.111618 0.990756 0 
0.0783491 0.240905 -0.0262541 0.07294 0.121567 0.9899 0 
0.0781878 0.240701 -0.0260744 0.0758715 0.129565 0.988664 0 
0.0781242 0.240479 -0.0258826 0.0810215 0.135036 0.987523 0 
0.0778883 0.240558 -0.0263388 0.0832127 0.130093 0.988004 0 
0.0776929 0.240593 -0.0263632 0.0780352 0.126953 0.988834 0 
0.0780202 0.240301 -0.0261224 0.0794766 0.148277 0.985747 0 
0.0787267 0.241852 -0.0262859 0.0740365 0.101373 0.99209 0 
0.0789157 0.241622 -0.0264892 0.076336 0.0968442 0.992368 0 
0.0790155 0.241669 -0.026401 0.0740365 0.101373 0.99209 0 
0.0787886 0.241178 -0.0261054 0.0701729 0.118489 0.990473 0 
0.078778 0.240853 -0.0264849 0.0703137 0.121032 0.990155 0 
0.0791069 0.241457 -0.0266165 0.0676106 0.113448 0.991241 0 
0.0787399 0.240835 -0.0262052 0.0701729 0.118489 0.990473 0 
0.0784809 0.240648 -0.0260378 0.0780352 0.126953 0.988834 0 
0.0784173 0.240427 -0.0258459 0.0758715 0.129565 0.988664 0 
0.0787529 0.240522 -0.0259371 0.0770972 0.111618 0.990756 0 
0.078774 0.240596 -0.0260011 0.0770972 0.111618 0.990756 0 
0.079046 0.24047 -0.0259005 0.0701729 0.118489 0.990473 0 
0.0790672 0.240544 -0.0259644 0.0701729 0.118489 0.990473 0 
0.0790902 0.240809 -0.0265881 0.0725005 0.113929 0.99084 0 
0.0790266 0.240588 -0.0263962 0.0701729 0.118489 0.990473 0 
0.0774938 0.240244 -0.0252682 0.0811837 0.137659 0.987147 0 
0.0778443 0.240092 -0.0250155 0.0823516 0.153962 0.984639 0 
0.0777676 0.24031 -0.0257273 0.0791609 0.142962 0.986557 0 
0.077704 0.240088 -0.0255354 0.0770911 0.150624 0.985581 0 
0.0780607 0.240257 -0.0256907 0.0794766 0.148277 0.985747 0 
0.0779992 0.240101 -0.0254229 0.0770911 0.150624 0.985581 0 
0.0780758 0.240009 -0.0253467 0.0770911 0.150624 0.985581 0 
0.0774302 0.240022 -0.0250764 0.0842471 0.143576 0.986047 0 
0.0783538 0.240205 -0.025654 0.0786626 0.137366 0.987392 0 
0.078649 0.240218 -0.0255414 0.0783487 0.13214 0.98813 0 
0.0782902 0.239983 -0.0254621 0.0850899 0.156997 0.983927 0 
0.0784666 0.23994 -0.0252978 0.083005 0.164807 0.982827 0 
0.07894 0.2401 -0.0255807 0.0708994 0.129014 0.989105 0 
0.078681 0.239914 -0.0254132 0.0793187 0.145615 0.986157 0 
0.0790719 0.239844 -0.0253643 0.0791609 0.142962 0.986557 0 
0.0796357 0.242029 -0.0259363 0.0573718 0.100119 0.99332 0 
0.0797313 0.241947 -0.026 0.0647883 0.105707 0.992284 0 
0.0799712 0.242125 -0.0260275 0.0567856 0.0901889 0.994304 0 
0.0802707 0.242267 -0.0257632 0.0468177 0.0729484 0.996236 0 
0.0802643 0.242072 -0.0259909 0.0453663 0.0918392 0.99474 0 
0.0799267 0.241912 -0.0259755 0.0577182 0.107514 0.992527 0 
0.080258 0.241877 -0.0262186 0.0543459 0.0854008 0.994863 0 
0.0807846 0.242384 -0.0256143 0.045702 0.0435763 0.998004 0 
0.0806252 0.242372 -0.0259943 0.0433963 0.0433963 0.998115 0 
0.0805765 0.242029 -0.0260941 0.0491955 0.0754332 0.995937 0 
0.0805511 0.241825 -0.0261819 0.0468177 0.0729484 0.996236 0 
0.081016 0.242302 -0.0259455 0.054089 0.0328776 0.997995 0 
0.0810394 0.242441 -0.0259335 0.0547258 -0.00516281 0.998488 0 
0.0811074 0.242089 -0.0261609 0.0538645 0.0306289 0.998078 0 
0.0809673 0.241959 -0.0260452 0.0484136 0.0548687 0.997319 0 
0.0809419 0.241755 -0.026133 0.0528188 0.0549747 0.99709 0 
0.0810608 0.241811 -0.0261848 0.0563187 0.0350663 0.997797 0 
0.0796632 0.241721 -0.0265955 0.0570145 0.0950242 0.993841 0 
0.0798184 0.241604 -0.0263672 0.0570145 0.0950242 0.993841 0 
0.0801539 0.241699 -0.0264585 0.0567856 0.0901889 0.994304 0 
0.0803493 0.241664 -0.026434 0.0522288 0.0900114 0.99457 0 
0.080738 0.241529 -0.026461 0.0586856 0.0352114 0.997655 0 
0.0809356 0.24156 -0.0263607 0.0559771 0.0264043 0.998083 0 
0.0813092 0.24225 -0.0259088 0.0438799 -0.00306139 0.999032 0 
0.0814069 0.242232 -0.0258966 0.0444195 -0.0134292 0.998923 0 
0.0814005 0.242037 -0.0261243 0.0485445 0.00929576 0.998778 0 
0.0813539 0.241759 -0.0261481 0.0508123 0.0134808 0.998617 0 
0.0817169 0.242124 -0.0260756 0.0486426 -0.0134543 0.998726 0 
0.0816936 0.241985 -0.0260876 0.0482477 0.00307964 0.998831 0 
0.0816873 0.24179 -0.0263153 0.0492438 -0.024098 0.998496 0 
0.0826387 0.242115 -0.0260936 0.0456094 -0.0413666 0.998102 0 
0.0826323 0.241919 -0.0263212 0.0407849 -0.0303272 0.998708 0 
0.0820101 0.242071 -0.026039 0.0462923 -0.00925846 0.998885 0 
0.0823456 0.242167 -0.0261302 0.0504575 -0.0526046 0.99734 0 
0.0820037 0.241876 -0.0262666 0.0481492 0.00102445 0.99884 0 
0.0819804 0.241737 -0.0262786 0.0462923 -0.00925846 0.998885 0 
0.0823392 0.241972 -0.0263579 0.0432246 -0.0368991 0.998384 0 
0.0813242 0.241425 -0.0263878 0.0642727 -0.0158048 0.997807 0 
0.0815197 0.24139 -0.0263633 0.0492438 -0.024098 0.998496 0 
0.081834 0.241412 -0.0263906 0.0537577 -0.0263518 0.998206 0 
0.0821695 0.241507 -0.0264819 0.0449652 -0.0261426 0.998646 0 
0.0822947 0.241759 -0.0263059 0.0468611 -0.0218685 0.998662 0 
0.082626 0.241724 -0.0265489 0.0413625 -0.047726 0.998004 0 
0.0824795 0.241398 -0.0266609 0.0486426 -0.0134543 0.998726 0 
0.0828129 0.241429 -0.0268281 0.0303272 -0.0407849 0.998708 0 
0.0796251 0.242281 -0.0254929 0.0636185 0.0837085 0.994457 0 
0.0799182 0.242228 -0.0254562 0.0570265 0.0928078 0.99405 0 
0.0795997 0.2415 -0.0264036 0.0621325 0.100542 0.992991 0 
0.0797336 0.241308 -0.0261114 0.0670675 0.103443 0.992372 0 
0.0793603 0.240492 -0.0259278 0.0704746 0.121309 0.99011 0 
0.0792967 0.24027 -0.0257359 0.0703137 0.121032 0.990155 0 
0.0799081 0.240496 -0.0262103 0.0785959 0.0586702 0.995179 0 
0.0796534 0.240439 -0.0258911 0.0787789 0.0970464 0.992157 0 
0.0795898 0.240218 -0.0256992 0.0708994 0.129014 0.989105 0 
0.0799423 0.240257 -0.0260062 0.0865112 0.0405179 0.995427 0 
0.0798787 0.240035 -0.0258144 0.0918297 0.0475744 0.994638 0 
0.0794556 0.240536 -0.026627 0.0818178 0.0706099 0.994143 0 
0.0796764 0.240705 -0.0265147 0.0881515 0.0613713 0.994215 0 
0.0801096 0.240783 -0.0265938 0.073402 0.053682 0.995857 0 
0.0799484 0.240579 -0.0264141 0.0784231 0.0585412 0.9952 0 
0.0793155 0.240405 -0.0265113 0.0763189 0.0991007 0.992146 0 
0.0796129 0.240483 -0.0263229 0.0814796 0.0658533 0.994497 0 
0.0806046 0.240891 -0.026305 0.0708623 0.0158647 0.99736 0 
0.0805367 0.240539 -0.0262649 0.0752327 0.0116558 0.997098 0 
0.0802354 0.240204 -0.0259695 0.0899215 0.024918 0.995637 0 
0.0801761 0.240113 -0.0256259 0.0993642 0.025114 0.994734 0 
0.0804944 0.240391 -0.026137 0.0891678 0.0161147 0.995886 0 
0.0807875 0.240339 -0.0261003 0.0850739 -0.0226146 0.996118 0 
0.0806262 0.240135 -0.0259207 0.0891678 -0.0161147 0.995886 0 
0.0805627 0.239913 -0.0257288 0.102381 -0.0075439 0.994717 0 
0.0804028 0.24073 -0.0265571 0.0820672 0.0138555 0.99653 0 
0.0802415 0.240526 -0.0263774 0.0834584 0.0292646 0.996081 0 
0.0808277 0.240422 -0.0263041 0.0761766 -0.0268228 0.996733 0 
0.0801991 0.240378 -0.0262495 0.0812998 0.0314359 0.996194 0 
0.0792332 0.240048 -0.025544 0.0708994 0.129014 0.989105 0 
0.0797217 0.239961 -0.0254829 0.0849163 0.0826518 0.992954 0 
0.0792567 0.239484 -0.0257193 0.104366 0.109056 0.988542 0 
0.0799129 0.239796 -0.0256102 0.0994884 0.0503031 0.993766 0 
0.0803016 0.239661 -0.0256372 0.111381 -0.00108137 0.993777 0 
0.080497 0.239626 -0.0256127 0.116901 -0.00764774 0.993114 0 
0.0804292 0.239274 -0.0255727 0.139531 -0.0145112 0.990111 0 
0.0802317 0.239244 -0.025673 0.132811 -0.00109761 0.991141 0 
0.0810888 0.240674 -0.0263956 0.0718989 -0.0311204 0.996926 0 
0.0809193 0.240082 -0.025884 0.0875871 -0.0227078 0.995898 0 
0.0811489 0.239808 -0.0256555 0.0848956 -0.0204179 0.996181 0 
0.081248 0.240813 -0.0266512 0.0725032 -0.0378748 0.996649 0 
0.0813798 0.240556 -0.0264349 0.069908 -0.0333408 0.996996 0 
0.0813163 0.240334 -0.026243 0.0718989 -0.0311204 0.996926 0 
0.081603 0.240087 -0.026434 0.0619514 -0.0532565 0.996657 0 
0.0810785 0.240222 -0.0261395 0.0735782 -0.0223934 0.997038 0 
0.0809514 0.239778 -0.0257558 0.0963771 -0.0184091 0.995175 0 
0.0813716 0.240169 -0.0261029 0.0690433 -0.0201819 0.99741 0 
0.0811849 0.239761 -0.0260111 0.0868821 -0.0428912 0.995295 0 
0.0808878 0.239556 -0.0255639 0.108256 -0.0164024 0.993988 0 
0.0807967 0.239066 -0.0255357 0.149994 -0.0332048 0.988129 0 
0.0806566 0.238935 -0.0254201 0.179945 0.0267016 0.983314 0 
0.0815546 0.23904 -0.0267211 0.0683285 -0.0115633 0.997596 0 
0.0819155 0.238763 -0.0275474 0.0789223 -0.0633601 0.994865 0 
0.0818498 0.238476 -0.0274314 0.0872077 -0.115114 0.989517 0 
0.0820158 0.237981 -0.027011 0.0662441 -0.409632 0.909842 0 
0.0820666 0.237812 -0.0276583 0.175069 -0.415245 0.892705 0 
0.082832 0.242015 -0.026145 0.0388477 -0.0388477 0.99849 0 
0.0828256 0.241819 -0.0263727 0.042615 -0.0218272 0.998853 0 
0.0832228 0.241945 -0.0260961 0.0355101 -0.00507288 0.999356 0 
0.0832186 0.241815 -0.0262479 0.0273443 -0.00911475 0.999584 0 
0.0835435 0.242162 -0.0258958 0.0275093 -0.0152829 0.999505 0 
0.0834394 0.241984 -0.0261356 0.0334158 0.0030378 0.999437 0 
0.0834119 0.241715 -0.0262994 0.0312661 -0.00302575 0.999507 0 
0.0837135 0.241923 -0.0259591 0.0251174 0.00502348 0.999672 0 
0.083879 0.242257 -0.025987 0.029192 -0.00100662 0.999573 0 
0.0837262 0.241736 -0.0263267 0.0316454 0.0153123 0.999382 0 
0.084068 0.242027 -0.0261903 0.031774 0.0174244 0.999343 0 
0.0840744 0.242222 -0.0259626 0.0316454 0.0153123 0.999382 0 
0.0844228 0.242005 -0.0257857 0.0433963 0.0433963 0.998115 0 
0.0843612 0.241975 -0.0261535 0.0433963 0.0433963 0.998115 0 
0.0834076 0.241585 -0.0264511 0.0312661 -0.00302575 0.999507 0 
0.0827621 0.241598 -0.0261808 0.0426129 -0.0239048 0.998806 0 
0.0832164 0.24175 -0.0263238 0.0334158 0.0030378 0.999437 0 
0.0828703 0.241329 -0.026612 0.0384601 -0.0259865 0.998922 0 
0.0831465 0.241333 -0.0263596 0.0314552 -0.00913215 0.999463 0 
0.0834566 0.241224 -0.0265387 0.0256754 -0.0277294 0.999286 0 
0.0840553 0.241637 -0.0266456 0.0257282 0.0277864 0.999283 0 
0.0840786 0.241776 -0.0266336 0.0257282 0.0277864 0.999283 0 
0.0843696 0.241658 -0.0266729 0.0409504 0.0346504 0.99856 0 
0.0843548 0.24178 -0.0263812 0.0366767 0.0366767 0.998654 0 
0.0837007 0.241532 -0.0264145 0.0291919 0.00301985 0.999569 0 
0.0837328 0.241228 -0.0262863 0.031774 0.0174244 0.999343 0 
0.0839875 0.241285 -0.0266055 0.0338911 0.017459 0.999273 0 
0.0843783 0.241215 -0.0265567 0.0368248 0.0410334 0.998479 0 
0.0842427 0.240511 -0.0264764 0.00897218 -0.010966 0.9999 0 
0.0839009 0.240221 -0.0266129 0.0134822 -0.0487434 0.99872 0 
0.0854781 0.242634 -0.0259597 0.0366028 0.0345112 0.998734 0 
0.085374 0.242457 -0.0261997 0.0324845 0.0408676 0.998636 0 
0.0856671 0.242404 -0.026163 0.045513 0.0412792 0.998111 0 
0.0853676 0.242261 -0.0264273 0.0347899 0.0453324 0.998366 0 
0.0856608 0.242209 -0.0263907 0.043753 0.0501559 0.997783 0 
0.0859814 0.242426 -0.0261903 0.0546397 0.0460688 0.997443 0 
0.0859539 0.242157 -0.026354 0.0555363 0.0642479 0.996387 0 
0.0842915 0.242008 -0.0247309 0.0324845 0.0408676 0.998636 0 
0.0846818 0.242192 -0.0259532 0.0453289 0.0368956 0.998291 0 
0.0846712 0.241866 -0.0263327 0.0436601 0.0500493 0.997792 0 
0.0851171 0.242335 -0.0259563 0.0368248 0.0410334 0.998479 0 
0.0851108 0.24214 -0.026184 0.0325467 0.0451455 0.99845 0 
0.0850067 0.241962 -0.0264239 0.0327427 0.0517545 0.998123 0 
0.0852977 0.241844 -0.0264631 0.0347899 0.0453324 0.998366 0 
0.0853975 0.241892 -0.026375 0.0347899 0.0453324 0.998366 0 
0.0859965 0.242178 -0.0258463 0.0555363 0.0642479 0.996387 0 
0.0856885 0.241775 -0.0264142 0.0440191 0.0569028 0.997409 0 
0.0860028 0.241796 -0.0264415 0.0522288 0.0900114 0.99457 0 
0.0847072 0.241819 -0.0266883 0.0436601 0.0500493 0.997792 0 
0.0846416 0.241532 -0.0265723 0.0396368 0.061062 0.997347 0 
0.0849983 0.241701 -0.0267275 0.0396368 0.061062 0.997347 0 
0.0849559 0.241554 -0.0265996 0.039796 0.0656096 0.997052 0 
0.0850981 0.241749 -0.0266394 0.0327427 0.0517545 0.998123 0 
0.0850324 0.241462 -0.0265234 0.0328738 0.0562035 0.997878 0 
0.0845738 0.24118 -0.0265322 0.0327427 0.0517545 0.998123 0 
0.0844382 0.240476 -0.026452 0.013114 0.0211841 0.99969 0 
0.0847866 0.240259 -0.0262752 0.0315548 0.0881358 0.995609 0 
0.0850456 0.240446 -0.0264426 0.0318113 0.095434 0.994927 0 
0.0853911 0.241697 -0.0266027 0.0348599 0.0475362 0.998261 0 
0.0855866 0.241662 -0.0265782 0.0396368 0.061062 0.997347 0 
0.0853255 0.24141 -0.0264867 0.0330712 0.0629419 0.997469 0 
0.0855209 0.241375 -0.0264623 0.0335406 0.0768188 0.996481 0 
0.0859965 0.241601 -0.0266692 0.0518005 0.0826603 0.995231 0 
0.0858352 0.241397 -0.0264896 0.0447269 0.0774539 0.995992 0 
0.0851727 0.240889 -0.0268264 0.0405179 0.0865112 0.995427 0 
0.0857589 0.240785 -0.026753 0.0425419 0.0796297 0.995916 0 
0.0851857 0.240576 -0.0265583 0.0409223 0.0984348 0.994302 0 
0.0851857 0.240576 -0.0265583 0.0409223 0.0984348 0.994302 0 
0.0849821 0.240224 -0.0262507 0.0318113 0.095434 0.994927 0 
0.0852751 0.240172 -0.0262141 0.0433208 0.0988604 0.994158 0 
0.0854788 0.240524 -0.0265217 0.0405179 0.0865112 0.995427 0 
0.0854788 0.240524 -0.0265217 0.0405179 0.0865112 0.995427 0 
0.0857719 0.240472 -0.026485 0.0447269 0.0774539 0.995992 0 
0.0857719 0.240472 -0.026485 0.0447269 0.0774539 0.995992 0 
0.0855683 0.240119 -0.0261774 0.0449963 0.0845053 0.995407 0 
0.0837841 0.240229 -0.0264852 0.0154947 -0.0444182 0.998893 0 
0.0836613 0.239916 -0.0259497 0.0211841 -0.013114 0.99969 0 
0.0833575 0.239643 -0.0263658 0.0322246 -0.0322246 0.998961 0 
0.0837184 0.239942 -0.0263693 0.00938734 -0.0594531 0.998187 0 
0.0840772 0.240177 -0.0264486 0.00498427 -0.0169465 0.999844 0 
0.083759 0.239899 -0.0259375 0.0232012 -0.0110962 0.999669 0 
0.0840179 0.240085 -0.0261049 0.00693723 -0.00693723 0.999952 0 
0.0843322 0.240107 -0.0261322 0.00498427 -0.0169465 0.999844 0 
0.0844299 0.24009 -0.02612 0.0110962 0.0232012 0.999669 0 
0.0843111 0.240033 -0.0260683 0.00498427 -0.0169465 0.999844 0 
0.0840521 0.239846 -0.0259008 0.00492603 0.00295562 0.999984 0 
0.0843452 0.239794 -0.0258641 -0.00695076 -0.0109226 0.999916 0 
0.0847231 0.240037 -0.0260833 0.0273079 0.0950315 0.9951 0 
0.0846042 0.239981 -0.0260316 0.02006 0.0644032 0.997722 0 
0.0848973 0.239928 -0.0259949 0.0318113 0.095434 0.994927 0 
0.0846383 0.239742 -0.0258275 0.0158647 0.0708623 0.99736 0 
0.0850183 0.24005 -0.0259708 0.0318113 0.095434 0.994927 0 
0.0849314 0.239689 -0.0257908 0.0318672 0.0999972 0.994477 0 
0.0851904 0.239876 -0.0259583 0.0410035 0.100846 0.994057 0 
0.0853093 0.239933 -0.02601 0.0409223 0.0984348 0.994302 0 
0.0856024 0.23988 -0.0259733 0.0425419 0.0796297 0.995916 0 
0.0854835 0.239824 -0.0259216 0.0501022 0.0946375 0.99425 0 
0.0854157 0.239472 -0.0258815 0.0527552 0.102143 0.99337 0 
0.0834679 0.239439 -0.0267211 0.0234346 -0.019359 0.999538 0 
0.0822898 0.237343 -0.0276574 0.162158 -0.641054 0.75017 0 
0.0844177 0.238869 -0.0261271 -0.0969955 -0.0228866 0.995022 0 
0.0918282 0.241881 -0.0270721 0.0967902 0.0206631 0.99509 0 
0.0920448 0.24192 -0.0271117 0.0948253 0.0272487 0.995121 0 
0.0926311 0.241815 -0.0270383 0.071067 0.0535736 0.996032 0 
0.0924102 0.241646 -0.0271506 0.0760597 0.0584227 0.99539 0 
0.0926247 0.24162 -0.027266 0.0629738 0.0718122 0.995428 0 
0.086247 0.242104 -0.0263173 0.0605063 0.0715074 0.995603 0 
0.0863383 0.241892 -0.0265328 0.0610105 0.0787589 0.995025 0 
0.0872834 0.242021 -0.0265388 0.0706099 0.0818178 0.994143 0 
0.0875765 0.241969 -0.0265021 0.072853 0.0795779 0.994163 0 
0.0875108 0.241682 -0.0263861 0.0774828 0.0797286 0.993801 0 
0.0862896 0.242126 -0.0258097 0.0587786 0.0831772 0.9948 0 
0.0862833 0.24193 -0.0260374 0.0543459 0.0854008 0.994863 0 
0.0865827 0.242073 -0.025773 0.0659876 0.0838826 0.994288 0 
0.0865975 0.241952 -0.0260647 0.0657075 0.0812991 0.994521 0 
0.0868695 0.241826 -0.025964 0.0706099 0.0818178 0.994143 0 
0.086332 0.241696 -0.0267605 0.0610105 0.0787589 0.995025 0 
0.0865338 0.241857 -0.0265083 0.0657075 0.0812991 0.994521 0 
0.0865274 0.241662 -0.026736 0.0678098 0.0744796 0.994914 0 
0.0869246 0.241787 -0.0264594 0.0679487 0.07686 0.994724 0 
0.0869182 0.241592 -0.0266872 0.0749411 0.0749411 0.994368 0 
0.08712 0.241752 -0.026435 0.0708851 0.0888876 0.993516 0 
0.0871136 0.241557 -0.0266627 0.0734519 0.0892723 0.993295 0 
0.0874343 0.241774 -0.0264623 0.0779608 0.0869998 0.993153 0 
0.0874068 0.241505 -0.0266261 0.0804022 0.0849319 0.993137 0 
0.0875044 0.241487 -0.0266138 0.0850914 0.0850914 0.992733 0 
0.0862642 0.241345 -0.0267204 0.0657075 0.0812991 0.994521 0 
0.0864808 0.241384 -0.0267599 0.0678098 0.0744796 0.994914 0 
0.0867527 0.241257 -0.0266593 0.0679487 0.07686 0.994724 0 
0.0861243 0.240511 -0.026792 0.056102 0.0759027 0.995536 0 
0.0863452 0.24068 -0.0266797 0.0605063 0.0715074 0.995603 0 
0.0867106 0.240406 -0.0267187 0.0638775 0.0885319 0.994023 0 
0.0860862 0.240493 -0.0265123 0.056102 0.0759027 0.995536 0 
0.0859591 0.24005 -0.0261285 0.0518005 0.0826603 0.995231 0 
0.0860226 0.240271 -0.0263204 0.0584227 0.0760597 0.99539 0 
0.0863582 0.240367 -0.0264117 0.0605063 0.0715074 0.995603 0 
0.0863582 0.240367 -0.0264117 0.0605063 0.0715074 0.995603 0 
0.0861545 0.240015 -0.0261041 0.0563392 0.078433 0.995326 0 
0.0865453 0.239945 -0.0260552 0.0498916 0.0920223 0.994506 0 
0.0870458 0.241205 -0.0266226 0.0659876 0.0838826 0.994288 0 
0.0870014 0.240992 -0.0265706 0.0708851 0.0888876 0.993516 0 
0.087339 0.241153 -0.026586 0.0804022 0.0849319 0.993137 0 
0.0873879 0.240792 -0.0266735 0.0830089 0.0875573 0.992695 0 
0.0874367 0.241135 -0.0265737 0.0830089 0.0875573 0.992695 0 
0.0875876 0.240888 -0.0264973 0.0877385 0.0854596 0.992471 0 
0.0869039 0.240306 -0.0267701 0.0638775 0.0885319 0.994023 0 
0.0870588 0.240315 -0.0271774 0.0734519 0.0892723 0.993295 0 
0.0872968 0.240302 -0.0266453 0.0781362 0.0871954 0.993122 0 
0.0873795 0.240532 -0.0269771 0.0830089 0.0875573 0.992695 0 
0.0866513 0.240315 -0.026375 0.0618688 0.0978651 0.993275 0 
0.0869444 0.240262 -0.0263383 0.0637355 0.0883351 0.99405 0 
0.0866089 0.240167 -0.0262471 0.0589086 0.0833612 0.994777 0 
0.086902 0.240115 -0.0262104 0.0640072 0.0909576 0.993796 0 
0.0867408 0.23991 -0.0260307 0.0641234 0.0956226 0.99335 0 
0.0872333 0.24008 -0.0264535 0.0761803 0.0943726 0.992618 0 
0.0871316 0.239841 -0.0259819 0.076336 0.0968442 0.992368 0 
0.0871951 0.240062 -0.0261737 0.0831626 0.0922763 0.992255 0 
0.0877126 0.241843 -0.026134 0.0797286 0.0774828 0.993801 0 
0.0880057 0.241791 -0.0260973 0.0947487 0.0833332 0.992007 0 
0.0884029 0.241916 -0.0258208 0.120531 0.0877653 0.988822 0 
0.0882988 0.241738 -0.0260607 0.119517 0.0777439 0.989784 0 
0.0886513 0.241777 -0.0263677 0.131579 0.0733581 0.988588 0 
0.0888721 0.241947 -0.0262554 0.148342 0.0619063 0.986997 0 
0.0888657 0.241751 -0.0264831 0.145425 0.0570065 0.987726 0 
0.0890633 0.241782 -0.0263828 0.153635 0.0598122 0.986316 0 
0.0880526 0.241942 -0.0254379 0.0947487 0.0833332 0.992007 0 
0.0877616 0.241482 -0.0262216 0.0903716 0.0903716 0.991799 0 
0.0877976 0.241435 -0.0265772 0.092659 0.0880832 0.991794 0 
0.0881183 0.241652 -0.0263768 0.10265 0.0888095 0.990745 0 
0.0880907 0.241383 -0.0265405 0.109784 0.0843605 0.990369 0 
0.0884114 0.241599 -0.0263401 0.126684 0.0755453 0.989062 0 
