0.0917699 0.234031 -0.0330366 -0.520044 0.697294 0.49329 0 
0.0920662 0.233654 -0.0328935 -0.539887 0.686977 0.4864 0 
0.0920383 0.233874 -0.0330956 -0.51308 0.700263 0.496368 0 
0.0923159 0.233644 -0.0330872 -0.541481 0.682299 0.491188 0 
0.092393 0.23369 -0.0331967 -0.520394 0.694416 0.496968 0 
0.0919112 0.23397 -0.0334191 -0.448624 0.723428 0.524775 0 
0.0916796 0.234037 -0.0334629 -0.449196 0.717719 0.532073 0 
0.0921393 0.233678 -0.0334715 -0.448325 0.726253 0.521116 0 
0.0920986 0.233746 -0.0338372 -0.438039 0.725658 0.530606 0 
0.0914476 0.234307 -0.033879 -0.418506 0.719565 0.554148 0 
0.09117 0.234537 -0.0338873 -0.432373 0.710683 0.554962 0 
0.0919294 0.234027 -0.0336566 -0.438039 0.725658 0.530606 0 
0.0919962 0.234553 -0.034578 -0.410302 0.723384 0.555309 0 
0.0920861 0.23475 -0.0345238 -0.436415 0.71519 0.545934 0 
0.0923835 0.235123 -0.0341594 -0.460591 0.706683 0.537079 0 
0.0921752 0.233995 -0.0343189 -0.337637 0.760895 0.554112 0 
0.0930862 0.233606 -0.0321955 -0.669753 0.596264 0.442605 0 
0.093077 0.23368 -0.0322629 -0.65558 0.612209 0.442058 0 
0.092733 0.233674 -0.0329641 -0.615908 0.636047 0.464868 0 
0.092652 0.233607 -0.0333231 -0.471295 0.732574 0.491139 0 
0.0923797 0.233742 -0.0337326 -0.386795 0.758902 0.523887 0 
0.0925156 0.233776 -0.033714 -0.412355 0.747495 0.520782 0 
0.0935976 0.234146 -0.0331639 -0.618575 0.638691 0.457645 0 
0.0935698 0.234366 -0.033366 -0.617251 0.64067 0.456665 0 
0.0936255 0.233926 -0.0329619 -0.643612 0.616865 0.453036 0 
0.0937061 0.234196 -0.0329751 -0.616865 0.643612 0.453036 0 
0.0935324 0.234165 -0.0316489 -0.675633 0.605912 0.419988 0 
0.0938708 0.233604 -0.0320099 -0.688701 0.595768 0.413221 0 
0.0938485 0.234391 -0.0311497 -0.726522 0.558483 0.400328 0 
0.0941257 0.234364 -0.0315137 -0.713521 0.581692 0.390541 0 
0.0939668 0.234659 -0.0325078 -0.663006 0.606225 0.439221 0 
0.0937278 0.234478 -0.0331164 -0.622326 0.632391 0.461293 0 
0.0937901 0.234692 -0.0328921 -0.620257 0.640319 0.453072 0 
0.0937166 0.234872 -0.0326863 -0.65148 0.607936 0.453859 0 
0.0938933 0.234838 -0.032302 -0.665456 0.60875 0.431963 0 
0.0936063 0.235141 -0.0323777 -0.669701 0.586197 0.455931 0 
0.0943547 0.234159 -0.0328081 -0.650271 0.630314 0.42409 0 
0.0943268 0.234379 -0.0330101 -0.638359 0.635026 0.435018 0 
0.0951079 0.234151 -0.0329208 -0.540551 0.766453 0.346921 0 
0.0923611 0.233888 -0.0338673 -0.386421 0.754906 0.529902 0 
0.0924288 0.234007 -0.0340441 -0.387651 0.750767 0.53486 0 
0.0924009 0.234227 -0.0342462 -0.387237 0.746697 0.540824 0 
0.0924598 0.234216 -0.0341181 -0.387651 0.750767 0.53486 0 
0.092296 0.234402 -0.0343387 -0.37683 0.745504 0.549748 0 
0.0923456 0.234464 -0.034278 -0.387237 0.746697 0.540824 0 
0.0925935 0.234774 -0.0339743 -0.462884 0.718383 0.519293 0 
0.0927626 0.234493 -0.0341548 -0.401605 0.74256 0.53602 0 
0.0938009 0.234502 -0.0336944 -0.611759 0.64528 0.457563 0 
0.0922681 0.234622 -0.0345408 -0.381472 0.74166 0.551743 0 
0.0925031 0.23478 -0.0344007 -0.385197 0.73925 0.552388 0 
0.0929109 0.234883 -0.0343448 -0.431909 0.726468 0.534508 0 
0.0922495 0.234768 -0.0346754 -0.39614 0.734749 0.550651 0 
0.0922123 0.235062 -0.0349448 -0.416776 0.729769 0.541973 0 
0.093015 0.235116 -0.0349968 -0.340719 0.757332 0.557099 0 
0.0932815 0.235279 -0.0345584 -0.37683 0.745504 0.549748 0 
0.0931421 0.23502 -0.0346733 -0.334385 0.757616 0.560539 0 
0.09351 0.234784 -0.0342386 -0.404185 0.751097 0.522004 0 
0.0934821 0.235004 -0.0344406 -0.384499 0.737911 0.55466 0 
0.0939762 0.235079 -0.0344269 -0.316413 0.762926 0.563762 0 
0.093862 0.235327 -0.0345868 -0.305231 0.771866 0.557725 0 
0.093624 0.235402 -0.0329875 -0.654037 0.610546 0.446619 0 
0.0938725 0.234643 -0.0334027 -0.617251 0.64067 0.456665 0 
0.093799 0.234823 -0.0331969 -0.624964 0.635017 0.454062 0 
0.0937711 0.235043 -0.033399 -0.613851 0.643958 0.456625 0 
0.093931 0.234835 -0.0336469 -0.56454 0.691103 0.451299 0 
0.0939655 0.235269 -0.0336246 -0.610546 0.654037 0.446619 0 
0.0939031 0.235055 -0.0338489 -0.543779 0.710072 0.447329 0 
0.093996 0.235681 -0.0340707 -0.499772 0.743885 0.443692 0 
0.0943902 0.23468 -0.0340277 -0.495826 0.742916 0.449703 0 
0.0950636 0.235354 -0.034278 0.166869 0.857971 0.485839 0 
0.0942523 0.232619 -0.0286806 -0.531351 0.675503 0.511236 0 
0.0942244 0.232839 -0.0288826 -0.57292 0.650205 0.498995 0 
0.0939707 0.232827 -0.0291574 -0.580283 0.650926 0.489456 0 
0.0945458 0.232969 -0.0287847 -0.594763 0.63183 0.49704 0 
0.0942603 0.233156 -0.0297301 -0.670412 0.590163 0.449728 0 
0.0944914 0.233293 -0.0300585 -0.719234 0.5572 0.415006 0 
0.0944635 0.233513 -0.0302605 -0.740748 0.540368 0.399117 0 
0.0944356 0.233733 -0.0304626 -0.739433 0.542688 0.398408 0 
0.0941487 0.234036 -0.0305382 -0.739433 0.542688 0.398408 0 
0.0944608 0.23424 -0.0305076 -0.776839 0.511971 0.366616 0 
0.0946959 0.234398 -0.0303675 -0.797644 0.48308 0.361106 0 
0.0941208 0.234256 -0.0307403 -0.740748 0.540368 0.399117 0 
0.0942602 0.234515 -0.0306254 -0.75725 0.529261 0.382696 0 
0.0940929 0.234476 -0.0309423 -0.738702 0.548703 0.391463 0 
0.0945816 0.234646 -0.0305274 -0.806243 0.485018 0.338718 0 
0.0938059 0.234779 -0.0310179 -0.738702 0.548703 0.391463 0 
0.0936677 0.235269 -0.0309114 -0.751459 0.528804 0.394557 0 
0.0940754 0.235372 -0.0308555 -0.830126 0.459786 0.315416 0 
0.0940603 0.235743 -0.030894 -0.876828 0.366231 0.311525 0 
0.0937792 0.235748 -0.0309985 -0.832623 0.435986 0.341549 0 
0.0939279 0.235934 -0.0308163 -0.933765 0.265386 0.240111 0 
0.0933117 0.236063 -0.031927 -0.704024 0.58861 0.397353 0 
0.0934085 0.236711 -0.0316803 -0.975823 0.103176 0.192678 0 
0.0942323 0.234735 -0.0308274 -0.762801 0.528594 0.372455 0 
0.0941273 0.23491 -0.03092 -0.749453 0.53719 0.386972 0 
0.094381 0.234922 -0.0306452 -0.816015 0.473764 0.33116 0 
0.0943531 0.235142 -0.0308472 -0.824914 0.466666 0.318967 0 
0.0945258 0.235086 -0.0309315 -0.824914 0.466666 0.318967 0 
0.094338 0.235514 -0.0308856 -0.870391 0.394801 0.294195 0 
0.0943194 0.23566 -0.0310203 -0.88592 0.367259 0.283314 0 
0.0912697 0.234951 -0.03538 -0.424222 0.724644 0.543071 0 
0.0914738 0.234901 -0.035166 -0.413553 0.726601 0.548658 0 
0.0917859 0.235105 -0.0351354 -0.436415 0.71519 0.545934 0 
0.0911922 0.235109 -0.0356428 -0.439367 0.721224 0.53553 0 
0.0914459 0.235121 -0.035368 -0.421758 0.722778 0.547459 0 
0.0914273 0.235268 -0.0355027 -0.427687 0.724921 0.539975 0 
0.0917673 0.235252 -0.0352701 -0.424983 0.725943 0.540737 0 
0.091631 0.235421 -0.0356609 -0.413051 0.732301 0.541409 0 
0.0912232 0.235318 -0.0357168 -0.438039 0.725658 0.530606 0 
0.0911953 0.235538 -0.0359188 -0.444904 0.72607 0.524292 0 
0.0913994 0.235488 -0.0357048 -0.438039 0.725658 0.530606 0 
0.0913714 0.235708 -0.0359068 -0.456852 0.719334 0.523303 0 
0.0915721 0.235432 -0.035789 -0.43163 0.729306 0.530856 0 
0.0911674 0.235758 -0.0361209 -0.463037 0.725259 0.509507 0 
0.0912537 0.23573 -0.036163 -0.447698 0.731846 0.513779 0 
0.0916119 0.235771 -0.0361679 -0.448325 0.726253 0.521116 0 
0.0916305 0.235625 -0.0360332 -0.448624 0.723428 0.524775 0 
0.0908525 0.236281 -0.0363986 -0.460879 0.735093 0.497221 0 
0.0910678 0.235837 -0.0366146 -0.454897 0.736107 0.501214 0 
0.0912587 0.235839 -0.0369364 -0.445539 0.754621 0.481708 0 
0.091163 0.23594 -0.0369616 -0.435096 0.756903 0.487636 0 
0.0909624 0.236215 -0.0370794 -0.427607 0.761829 0.486588 0 
0.0912308 0.236059 -0.0371385 -0.394296 0.780479 0.485163 0 
0.0910899 0.235916 -0.0363836 -0.466423 0.725362 0.50626 0 
0.0913396 0.235906 -0.0365774 -0.428376 0.750069 0.503875 0 
0.091426 0.235878 -0.0366195 -0.435495 0.747738 0.501231 0 
0.0912214 0.236132 -0.0372058 -0.397654 0.780701 0.482055 0 
0.0910173 0.236182 -0.0374199 -0.373903 0.797553 0.473397 0 
0.0910944 0.236228 -0.0375293 -0.349242 0.80852 0.47363 0 
0.0907211 0.236559 -0.0375628 -0.386441 0.787433 0.480221 0 
0.0909399 0.23634 -0.0376826 -0.37095 0.794893 0.480147 0 
0.0908992 0.236409 -0.0380483 -0.324168 0.817536 0.475973 0 
0.0910664 0.236448 -0.0377314 -0.342578 0.807846 0.479609 0 
0.0919404 0.234993 -0.0349821 -0.413553 0.726601 0.548658 0 
0.092179 0.235377 -0.0347457 -0.439889 0.715443 0.542807 0 
0.0919365 0.234971 -0.0354506 -0.421758 0.722778 0.547459 0 
0.0919086 0.235191 -0.0356526 -0.424983 0.725943 0.540737 0 
0.0920941 0.235288 -0.0355733 -0.41057 0.730451 0.545777 0 
0.09189 0.235338 -0.0357873 -0.431909 0.726468 0.534508 0 
0.0920662 0.235508 -0.0357753 -0.423696 0.73034 0.535803 0 
0.0918621 0.235558 -0.0359894 -0.435076 0.729538 0.527716 0 
0.0920383 0.235728 -0.0359774 -0.426864 0.733414 0.529047 0 
0.0917718 0.235564 -0.0364158 -0.451421 0.729219 0.514256 0 
0.0920437 0.235633 -0.0363785 -0.43758 0.738107 0.513538 0 
0.0918046 0.235452 -0.0369872 -0.425341 0.75379 0.500885 0 
0.0920176 0.235532 -0.037078 -0.408982 0.767452 0.493711 0 
0.0918263 0.235735 -0.0371284 -0.40151 0.772135 0.492541 0 
0.0915177 0.235756 -0.0370628 -0.418674 0.770556 0.480579 0 
0.0913813 0.235925 -0.0374537 -0.363698 0.8027 0.472648 0 
0.0917674 0.235746 -0.0372565 -0.408882 0.773781 0.483817 0 
0.0918975 0.236079 -0.037209 -0.363698 0.8027 0.472648 0 
0.0913627 0.236071 -0.0375884 -0.345169 0.812818 0.469239 0 
0.0917395 0.235966 -0.0374586 -0.362765 0.803835 0.471434 0 
0.0917209 0.236112 -0.0375933 -0.345169 0.812818 0.469239 0 
0.0913348 0.236291 -0.0377904 -0.338886 0.809825 0.478895 0 
0.0913255 0.236365 -0.0378578 -0.322978 0.820837 0.471075 0 
0.0916837 0.236406 -0.0378627 -0.322978 0.820837 0.471075 0 
0.0916651 0.236552 -0.0379974 -0.298641 0.830252 0.470633 0 
0.0918882 0.236152 -0.0372763 -0.356274 0.806809 0.471304 0 
0.0918603 0.236372 -0.0374784 -0.352038 0.807617 0.473101 0 
0.0918324 0.236592 -0.0376804 -0.322978 0.820837 0.471075 0 
0.0924261 0.236588 -0.037173 -0.373511 0.799923 0.469694 0 
0.0923982 0.236808 -0.0373751 -0.347967 0.811923 0.468722 0 
0.0923703 0.237028 -0.0375771 -0.329575 0.821571 0.465189 0 
0.0926785 0.235357 -0.0351332 -0.384499 0.737911 0.55466 0 
0.0929964 0.235262 -0.0351315 -0.323121 0.766811 0.554612 0 
0.0921623 0.235203 -0.0353779 -0.409831 0.729136 0.548087 0 
0.0925642 0.235605 -0.0352931 -0.4205 0.727217 0.542527 0 
0.0927993 0.235763 -0.035153 -0.407086 0.730118 0.548825 0 
0.0932536 0.235499 -0.0347604 -0.33725 0.756795 0.559932 0 
0.0932974 0.23586 -0.0346708 -0.424222 0.724644 0.543071 0 
0.0931394 0.235747 -0.0349203 -0.400103 0.729405 0.554875 0 
0.0931021 0.23604 -0.0351897 -0.4205 0.727217 0.542527 0 
0.0930968 0.236135 -0.0347886 -0.447076 0.712996 0.540148 0 
0.0936707 0.235529 -0.0346372 -0.304265 0.775797 0.552776 0 
0.09211 0.235868 -0.0356856 -0.426864 0.733414 0.529047 0 
0.0926227 0.235797 -0.0355373 -0.417779 0.728224 0.543278 0 
0.0927807 0.23591 -0.0352877 -0.424983 0.725943 0.540737 0 
0.0927435 0.236203 -0.0355571 -0.420985 0.731359 0.53655 0 
0.0924275 0.235977 -0.0360562 -0.404775 0.745638 0.529321 0 
0.0925948 0.236017 -0.0357393 -0.420985 0.731359 0.53655 0 
0.0925669 0.236237 -0.0359413 -0.408505 0.743183 0.529908 0 
0.0928976 0.236294 -0.035776 -0.420985 0.731359 0.53655 0 
0.0929015 0.236316 -0.0353075 -0.431663 0.719439 0.544127 0 
0.0930463 0.23648 -0.0355938 -0.420985 0.731359 0.53655 0 
0.0923902 0.236271 -0.0363256 -0.421948 0.753595 0.504039 0 
0.0928604 0.236588 -0.0360454 -0.404775 0.745638 0.529321 0 
0.0927117 0.236401 -0.0362277 -0.396098 0.761226 0.513461 0 
0.0926307 0.236334 -0.0365867 -0.417854 0.758691 0.499786 0 
0.0927701 0.236594 -0.0364718 -0.416088 0.765275 0.491147 0 
0.0928418 0.236734 -0.0361801 -0.399834 0.765397 0.504281 0 
0.0928046 0.237028 -0.0364495 -0.404749 0.778613 0.479521 0 
0.0930184 0.2367 -0.0357958 -0.415676 0.740988 0.527399 0 
0.0929905 0.23692 -0.0359979 -0.39983 0.758861 0.514067 0 
0.0930676 0.236966 -0.0361074 -0.399834 0.765397 0.504281 0 
0.0925935 0.236627 -0.0368561 -0.373903 0.797553 0.473397 0 
0.0927422 0.236814 -0.0366738 -0.392916 0.784216 0.480231 0 
0.0927143 0.237034 -0.0368759 -0.38485 0.797075 0.465363 0 
0.092786 0.237174 -0.0365842 -0.396466 0.788076 0.470904 0 
0.0926001 0.237281 -0.0370358 -0.373511 0.799923 0.469694 0 
0.0926244 0.236836 -0.03693 -0.38232 0.792064 0.475884 0 
0.0925872 0.237129 -0.0371994 -0.369399 0.804362 0.465346 0 
0.0907074 0.236814 -0.038471 -0.234876 0.83051 0.505061 0 
0.0908124 0.23664 -0.0383784 -0.240129 0.842745 0.481787 0 
0.0905989 0.236763 -0.0386598 -0.235109 0.82826 0.508635 0 
0.0906078 0.236894 -0.0389647 -0.185353 0.824294 0.534962 0 
0.0904808 0.236989 -0.0392882 -0.189975 0.810054 0.554727 0 
0.0906144 0.237548 -0.0391445 -0.199871 0.804061 0.559944 0 
0.0905626 0.23665 -0.0381847 -0.306751 0.81643 0.489229 0 
0.0908217 0.236566 -0.038311 -0.281451 0.828805 0.483599 0 
0.0907101 0.237446 -0.0391193 -0.206577 0.803355 0.558523 0 
0.0904099 0.237801 -0.0397308 -0.183753 0.803351 0.566446 0 
0.0904683 0.237994 -0.0399749 -0.186818 0.800432 0.569568 0 
0.0904497 0.23814 -0.0401096 -0.170257 0.803072 0.57104 0 
0.0902731 0.238174 -0.0404939 -0.169909 0.816466 0.551829 0 
0.0904231 0.23775 -0.0391949 -0.196744 0.800704 0.565831 0 
0.0907008 0.23752 -0.0391866 -0.199871 0.804061 0.559944 0 
0.0903952 0.23797 -0.0393969 -0.206577 0.803355 0.558523 0 
0.0913421 0.239258 -0.0390163 -0.218064 0.787195 0.576864 0 
0.0909572 0.236804 -0.0386647 -0.224074 0.8338 0.504548 0 
0.0908668 0.23681 -0.0390911 -0.202132 0.825244 0.527366 0 
0.0910156 0.236997 -0.0389089 -0.218773 0.824607 0.52169 0 
0.0908115 0.237047 -0.0391229 -0.203006 0.813549 0.54491 0 
0.091171 0.236477 -0.038011 -0.316843 0.821269 0.474476 0 
0.091121 0.236619 -0.0384441 -0.246242 0.842729 0.478719 0 
0.0912976 0.236585 -0.0380598 -0.310217 0.820422 0.480285 0 
0.0912697 0.236805 -0.0382618 -0.267554 0.836685 0.477885 0 
0.0916372 0.236772 -0.0381994 -0.263015 0.84134 0.472196 0 
0.0911024 0.236765 -0.0385788 -0.216255 0.845361 0.488465 0 
0.0911152 0.236917 -0.0384152 -0.247944 0.833153 0.494348 0 
0.0912015 0.236889 -0.0384573 -0.240543 0.835007 0.494876 0 
0.0915248 0.2367 -0.0388567 -0.244927 0.830286 0.500636 0 
0.0915287 0.236722 -0.0383882 -0.263312 0.83921 0.475809 0 
0.0925151 0.237192 -0.0378634 -0.289291 0.843121 0.453274 0 
0.0922393 0.237102 -0.0383691 -0.284111 0.833703 0.473519 0 
0.0922947 0.236866 -0.0383373 -0.287056 0.836341 0.467047 0 
0.0922668 0.237086 -0.0385393 -0.288336 0.827602 0.481599 0 
0.0924872 0.237412 -0.0380654 -0.308046 0.830317 0.464415 0 
0.0924248 0.237198 -0.0382898 -0.294587 0.830768 0.472275 0 
0.0910249 0.236923 -0.0388416 -0.20144 0.828481 0.522534 0 
0.0912839 0.23684 -0.038968 -0.218569 0.826893 0.518146 0 
0.0915337 0.23683 -0.0391616 -0.242644 0.81448 0.527016 0 
0.091256 0.23706 -0.0391699 -0.212993 0.813664 0.540911 0 
0.0910373 0.237279 -0.0390502 -0.205759 0.815417 0.541071 0 
0.0912099 0.237223 -0.0391344 -0.223031 0.807525 0.546041 0 
0.0909598 0.237437 -0.039313 -0.203644 0.803859 0.558873 0 
0.0915774 0.237191 -0.039072 -0.242644 0.81448 0.527016 0 
0.0914504 0.237287 -0.0393955 -0.230183 0.801779 0.551513 0 
0.0916545 0.237236 -0.0391815 -0.246801 0.805595 0.538615 0 
0.0917001 0.237277 -0.0395893 -0.2383 0.789659 0.565377 0 
0.0917865 0.237249 -0.0396314 -0.241828 0.787891 0.566345 0 
0.0923213 0.237256 -0.039252 -0.295598 0.795111 0.529547 0 
0.092656 0.237335 -0.0386182 -0.302934 0.824044 0.47873 0 
0.0926192 0.237425 -0.0385153 -0.306239 0.824491 0.475849 0 
0.0928871 0.237472 -0.0389466 -0.329326 0.800247 0.501148 0 
0.0929367 0.237534 -0.0388859 -0.340055 0.796654 0.499705 0 
0.0931182 0.237609 -0.0392751 -0.331101 0.785365 0.523043 0 
0.0931806 0.237823 -0.0390507 -0.340055 0.796654 0.499705 0 
0.0907464 0.23756 -0.0395944 -0.213778 0.79513 0.56751 0 
0.09145 0.23749 -0.0397678 -0.217465 0.797373 0.562943 0 
0.0909133 0.237803 -0.0396497 -0.206879 0.798401 0.56547 0 
0.0907553 0.23769 -0.0398993 -0.193525 0.8061 0.559241 0 
0.0907862 0.237899 -0.0399732 -0.206879 0.798401 0.56547 0 
0.0911444 0.23794 -0.0399782 -0.21069 0.79816 0.564402 0 
0.0907366 0.237837 -0.040034 -0.193947 0.798695 0.569624 0 
0.0907273 0.23791 -0.0401014 -0.186818 0.800432 0.569568 0 
0.0907087 0.238057 -0.040236 -0.183753 0.803351 0.566446 0 
0.0911165 0.23816 -0.0401802 -0.200652 0.798011 0.568258 0 
0.0905817 0.238153 -0.0405596 -0.173114 0.817398 0.549448 0 
0.0908721 0.238075 -0.0403876 -0.179667 0.810765 0.557118 0 
0.0908535 0.238222 -0.0405223 -0.173227 0.808894 0.561857 0 
0.0911072 0.238233 -0.0402475 -0.196744 0.800704 0.565831 0 
0.0912812 0.237567 -0.039215 -0.223935 0.801534 0.554433 0 
0.0909412 0.237583 -0.0394477 -0.220558 0.794319 0.566049 0 
0.0914593 0.237417 -0.0397005 -0.216932 0.798493 0.56156 0 
0.0912002 0.2375 -0.0395741 -0.216932 0.798493 0.56156 0 
0.091163 0.237793 -0.0398434 -0.213471 0.800132 0.560553 0 
0.0913853 0.2378 -0.039867 -0.213626 0.79764 0.564034 0 
0.0916319 0.237361 -0.0397847 -0.220558 0.794319 0.566049 0 
0.091867 0.23752 -0.0396446 -0.2383 0.789659 0.565377 0 
0.0921447 0.23729 -0.0396363 -0.261794 0.788518 0.556509 0 
0.0912931 0.238126 -0.0397959 -0.216932 0.798493 0.56156 0 
0.0925568 0.238571 -0.039635 -0.234943 0.788848 0.567909 0 
0.0924792 0.238729 -0.0398978 -0.220558 0.794319 0.566049 0 
0.0923997 0.237185 -0.0402312 -0.251842 0.783683 0.567818 0 
0.0927722 0.237261 -0.0409422 -0.22582 0.767787 0.59959 0 
0.0928492 0.237307 -0.0410517 -0.208671 0.771309 0.601281 0 
0.0925764 0.237151 -0.039847 -0.283426 0.783774 0.552601 0 
0.0924861 0.237157 -0.0402733 -0.251842 0.783683 0.567818 0 
0.0929656 0.237401 -0.0399258 -0.283426 0.783774 0.552601 0 
0.0924582 0.237377 -0.0404754 -0.227926 0.792315 0.565939 0 
0.093263 0.237773 -0.0395614 -0.318015 0.78465 0.532156 0 
0.0931248 0.238263 -0.0394548 -0.302867 0.79126 0.531206 0 
0.0928251 0.238414 -0.0396941 -0.265554 0.784092 0.560964 0 
0.0928992 0.237165 -0.0406187 -0.25602 0.780626 0.570155 0 
0.0924396 0.237524 -0.0406101 -0.21834 0.781997 0.583788 0 
0.0930066 0.238489 -0.0400832 -0.252114 0.787659 0.562167 0 
0.0929934 0.23854 -0.0406191 -0.208202 0.781913 0.587592 0 
0.0925721 0.237501 -0.0372378 -0.372707 0.8046 0.462285 0 
0.0926801 0.237756 -0.0374213 -0.35378 0.817025 0.455313 0 
0.0926522 0.237976 -0.0376233 -0.352185 0.81114 0.466924 0 
0.0927413 0.237221 -0.0374184 -0.350999 0.81794 0.455823 0 
0.0925407 0.237496 -0.0375362 -0.336539 0.820018 0.462939 0 
0.0926855 0.237661 -0.0378225 -0.315781 0.827942 0.463459 0 
0.0925952 0.237667 -0.0382488 -0.31238 0.824117 0.472494 0 
0.0927439 0.237853 -0.0380667 -0.326278 0.821212 0.468138 0 
0.092716 0.238073 -0.0382687 -0.339588 0.805126 0.486264 0 
0.0928263 0.237803 -0.0385773 -0.343964 0.798316 0.494348 0 
0.0926881 0.238293 -0.0384707 -0.336368 0.798675 0.498973 0 
0.0929712 0.237968 -0.0388636 -0.340055 0.796654 0.499705 0 
0.0927705 0.238243 -0.0389814 -0.321162 0.787726 0.525683 0 
0.0924557 0.238767 -0.039259 -0.258484 0.79425 0.549866 0 
0.0926563 0.238491 -0.0391412 -0.28278 0.791467 0.541863 0 
0.0885452 0.238968 -0.0438457 -0.296397 0.744998 0.597601 0 
0.0884181 0.239063 -0.0441692 -0.282979 0.727432 0.625112 0 
0.0887763 0.239104 -0.0441741 -0.240579 0.740607 0.627393 0 
0.0888666 0.239098 -0.0437478 -0.263313 0.764711 0.588118 0 
0.0891017 0.239257 -0.0436077 -0.264489 0.752288 0.603414 0 
0.0889746 0.239353 -0.0439312 -0.240579 0.740607 0.627393 0 
0.0890688 0.239368 -0.0430362 -0.337665 0.751265 0.567084 0 
0.0892597 0.23937 -0.0433581 -0.274052 0.758791 0.590874 0 
0.0893279 0.239285 -0.0431626 -0.263161 0.776877 0.572021 0 
0.089427 0.239409 -0.0430412 -0.270163 0.766252 0.582983 0 
0.0892225 0.239663 -0.0436275 -0.267893 0.740272 0.616629 0 
0.0897357 0.239388 -0.0431068 -0.323359 0.754504 0.571106 0 
0.0894819 0.239376 -0.0433816 -0.278014 0.760963 0.586212 0 
0.089741 0.239293 -0.043508 -0.314019 0.745593 0.587778 0 
0.0899854 0.239378 -0.0433005 -0.327214 0.749529 0.575445 0 
0.0896489 0.239619 -0.0434369 -0.289147 0.749225 0.595866 0 
0.0894448 0.23967 -0.043651 -0.282563 0.739135 0.611423 0 
0.0897406 0.239497 -0.0438802 -0.293166 0.738521 0.607157 0 
0.0899668 0.239525 -0.0434352 -0.323728 0.748922 0.5782 0 
0.0898893 0.239683 -0.043698 -0.339998 0.72392 0.600284 0 
0.0907953 0.239017 -0.0442511 -0.329704 0.713005 0.618804 0 
0.0919422 0.238211 -0.044693 -0.149455 0.830141 0.53715 0 
0.0920228 0.238482 -0.0447062 -0.218844 0.771387 0.597553 0 
0.0919616 0.239017 -0.0447091 -0.287283 0.672467 0.682097 0 
0.0871768 0.240719 -0.0435311 -0.30138 0.646274 0.70107 0 
0.0867906 0.240898 -0.0437282 -0.167581 0.590307 0.789592 0 
0.0881919 0.239035 -0.0446143 -0.294401 0.686937 0.664414 0 
0.0885133 0.239166 -0.0445163 -0.283536 0.703234 0.651973 0 
0.088504 0.239239 -0.0445836 -0.276423 0.704639 0.653509 0 
0.0880076 0.239688 -0.0444722 -0.326808 0.674752 0.661745 0 
0.0879154 0.240014 -0.0444011 -0.333332 0.668291 0.665039 0 
0.0885517 0.239622 -0.0440254 -0.340782 0.702761 0.624495 0 
0.0887116 0.239414 -0.0442733 -0.279268 0.710139 0.646306 0 
0.0889653 0.239426 -0.0439985 -0.240461 0.724525 0.645943 0 
0.0890458 0.239697 -0.0440117 -0.282725 0.714 0.640524 0 
0.0886288 0.239667 -0.0441349 -0.354642 0.694575 0.625935 0 
0.0890365 0.23977 -0.044079 -0.319115 0.707885 0.630131 0 
0.0883914 0.240032 -0.0441498 -0.354983 0.675614 0.646168 0 
0.0887735 0.239832 -0.0444212 -0.308108 0.679129 0.666223 0 
0.0888364 0.239842 -0.0438246 -0.358655 0.705845 0.610859 0 
0.0891387 0.240323 -0.0442336 -0.315254 0.683858 0.657991 0 
0.0878012 0.240262 -0.044561 -0.337672 0.67045 0.660662 0 
0.0879778 0.240228 -0.0441767 -0.402281 0.657224 0.637359 0 
0.0880753 0.239807 -0.044649 -0.337657 0.673684 0.657372 0 
0.0892534 0.241231 -0.0445967 -0.355769 0.647598 0.673829 0 
0.0892868 0.239557 -0.0439005 -0.261668 0.734256 0.626417 0 
0.0892588 0.239777 -0.0441025 -0.279953 0.705483 0.651092 0 
0.0894354 0.239743 -0.0437183 -0.300253 0.720927 0.62459 0 
0.0896705 0.239901 -0.0435782 -0.318514 0.725953 0.609542 0 
0.0895032 0.239862 -0.0438952 -0.300575 0.708843 0.638119 0 
0.0896023 0.239986 -0.0437737 -0.303777 0.721672 0.62202 0 
0.089911 0.239965 -0.0438393 -0.314662 0.714848 0.624484 0 
0.0892309 0.239997 -0.0443046 -0.25834 0.679926 0.686266 0 
0.0893173 0.239969 -0.0443468 -0.25834 0.679926 0.686266 0 
0.0894164 0.240093 -0.0442253 -0.276533 0.695329 0.66336 0 
0.0893978 0.24024 -0.04436 -0.262429 0.679135 0.685497 0 
0.0897378 0.240224 -0.0441273 -0.283618 0.697027 0.65857 0 
0.0897192 0.240371 -0.044262 -0.28016 0.680389 0.677187 0 
0.0898335 0.240123 -0.0441021 -0.311477 0.698806 0.643935 0 
0.0898242 0.240196 -0.0441694 -0.290105 0.697213 0.65554 0 
0.0903117 0.239617 -0.043976 -0.376868 0.699427 0.607267 0 
0.0903795 0.239736 -0.0441528 -0.366307 0.691549 0.622558 0 
0.0893699 0.24046 -0.044562 -0.31239 0.671719 0.671719 0 
0.0895922 0.240466 -0.0445855 -0.268867 0.6666 0.695237 0 
0.0898056 0.240343 -0.0443041 -0.280154 0.683576 0.673971 0 
0.0897777 0.240563 -0.0445062 -0.287254 0.665979 0.688446 0 
0.0893238 0.240623 -0.0445265 -0.301587 0.666071 0.682199 0 
0.089682 0.240664 -0.0445314 -0.300902 0.66134 0.687086 0 
0.0893951 0.240967 -0.044607 -0.318804 0.652173 0.687775 0 
0.0894815 0.240939 -0.0446492 -0.294267 0.651247 0.699488 0 
0.0897994 0.240845 -0.0446475 -0.290715 0.653707 0.698679 0 
0.0895124 0.241148 -0.0447231 -0.315693 0.639481 0.701001 0 
0.0894938 0.241295 -0.0448578 -0.380229 0.627131 0.679803 0 
0.0894566 0.241588 -0.0451272 -0.379797 0.609977 0.695473 0 
0.0897156 0.241505 -0.0452536 -0.412521 0.601387 0.684222 0 
0.0900025 0.241202 -0.045178 -0.332595 0.618139 0.712239 0 
0.0893937 0.241578 -0.0457238 -0.423458 0.599483 0.679193 0 
0.0892122 0.241503 -0.0453346 -0.376978 0.610737 0.696339 0 
0.0893977 0.241599 -0.0452553 -0.376978 0.610737 0.696339 0 
0.0891843 0.241723 -0.0455367 -0.413562 0.606226 0.679305 0 
0.0897484 0.241393 -0.045825 -0.452611 0.596244 0.66305 0 
0.0892025 0.24178 -0.0457743 -0.41273 0.608321 0.677938 0 
0.0894615 0.241697 -0.0459006 -0.492308 0.589761 0.640168 0 
0.0897206 0.241613 -0.046027 -0.474467 0.598533 0.645476 0 
0.0897019 0.24176 -0.0461617 -0.492219 0.586295 0.643412 0 
0.08986 0.241873 -0.0459121 -0.489567 0.583779 0.647709 0 
0.0891746 0.242 -0.0459763 -0.582927 0.582927 0.566031 0 
0.0891467 0.24222 -0.0461784 -0.666405 0.538831 0.515331 0 
0.0894336 0.241917 -0.0461026 -0.524325 0.585019 0.618737 0 
0.0896833 0.241907 -0.0462964 -0.53928 0.573091 0.617045 0 
0.0894057 0.242137 -0.0463047 -0.676705 0.528938 0.512147 0 
0.0896647 0.242053 -0.0464311 -0.678413 0.504203 0.534355 0 
0.0891188 0.24244 -0.0463804 -0.801573 0.438536 0.406409 0 
0.0893778 0.242357 -0.0465068 -0.807199 0.428473 0.406006 0 
0.0896368 0.242273 -0.0466332 -0.841231 0.390068 0.374403 0 
0.0898413 0.24202 -0.0460468 -0.545519 0.548896 0.633342 0 
0.0898135 0.24224 -0.0462489 -0.705185 0.465122 0.535141 0 
0.0899582 0.242404 -0.0465352 -0.83311 0.370096 0.411043 0 
0.0899396 0.242551 -0.0466699 -0.880664 0.334986 0.334986 0 
0.089609 0.242493 -0.0468352 -0.869106 0.363277 0.335686 0 
0.089739 0.242826 -0.0467877 -0.91551 0.291628 0.277119 0 
0.0900383 0.242878 -0.0469207 -0.927569 0.265628 0.262788 0 
0.0899609 0.243036 -0.0471835 -0.923751 0.262088 0.279274 0 
0.0896859 0.238832 -0.0411811 -0.315568 0.800814 0.509032 0 
0.0902452 0.238394 -0.040696 -0.14344 0.823673 0.548623 0 
0.0902173 0.238614 -0.040898 -0.152693 0.834622 0.529236 0 
0.0899582 0.238697 -0.0407716 -0.182301 0.821108 0.540877 0 
0.0902079 0.238687 -0.0409654 -0.15583 0.835548 0.526855 0 
0.089921 0.238991 -0.041041 -0.267223 0.811045 0.520382 0 
0.0896594 0.238935 -0.0422528 -0.289389 0.824369 0.486487 0 
0.0899848 0.239088 -0.0416863 -0.243274 0.839985 0.485019 0 
0.0896434 0.23922 -0.0410493 -0.326171 0.803494 0.498007 0 
0.089976 0.238958 -0.0413814 -0.255786 0.823167 0.506922 0 
0.089766 0.239306 -0.0415665 -0.324168 0.817536 0.475973 0 
0.0896501 0.239009 -0.0423201 -0.278746 0.823781 0.493646 0 
0.0895948 0.239245 -0.0423519 -0.305189 0.801715 0.51392 0 
0.0893446 0.239459 -0.0425305 -0.310887 0.779609 0.543654 0 
0.0896036 0.239375 -0.0426569 -0.300227 0.789487 0.535326 0 
0.0905538 0.238373 -0.0407616 -0.1502 0.822382 0.548751 0 
0.0904949 0.238384 -0.0408896 -0.149455 0.830141 0.53715 0 
0.0908035 0.238363 -0.0409553 -0.152851 0.826585 0.541658 0 
0.0907849 0.23851 -0.04109 -0.133051 0.840705 0.524893 0 
0.090467 0.238604 -0.0410917 -0.132872 0.84834 0.512508 0 
0.0905126 0.238645 -0.0414995 -0.0917886 0.868461 0.487186 0 
0.090757 0.23873 -0.0412921 -0.0741728 0.866282 0.494019 0 
0.0902625 0.238858 -0.041678 -0.163937 0.85513 0.49181 0 
0.0905308 0.238701 -0.0417371 -0.122566 0.86373 0.488822 0 
0.0899995 0.238919 -0.0420201 -0.265139 0.829527 0.491514 0 
0.0900858 0.238892 -0.0420623 -0.15326 0.868471 0.471455 0 
0.0905029 0.238921 -0.0419391 -0.091487 0.874052 0.47714 0 
0.0903759 0.239017 -0.0422626 -0.177282 0.844698 0.505031 0 
0.0903528 0.238852 -0.0412516 -0.145472 0.847852 0.509887 0 
0.091819 0.239363 -0.040007 -0.204087 0.796399 0.569295 0 
0.0918774 0.239555 -0.0402512 -0.285529 0.751309 0.594986 0 
0.0919931 0.239191 -0.0409609 -0.245691 0.78089 0.574322 0 
0.091738 0.239295 -0.040366 -0.238931 0.779259 0.579369 0 
0.0919599 0.239506 -0.0407618 -0.263313 0.764711 0.588118 0 
0.0915335 0.239549 -0.0409524 -0.25602 0.780626 0.570155 0 
0.0916159 0.2395 -0.041463 -0.254921 0.796041 0.54894 0 
0.0917646 0.239686 -0.0412807 -0.29036 0.775879 0.560092 0 
0.0917367 0.239906 -0.0414828 -0.316413 0.762926 0.563762 0 
0.092114 0.239597 -0.0409808 -0.288157 0.756213 0.587458 0 
0.0921619 0.239113 -0.0415137 -0.142302 0.843545 0.517863 0 
0.0921061 0.239553 -0.0419178 -0.264771 0.794313 0.546776 0 
0.0898724 0.239015 -0.0423437 -0.226118 0.845288 0.484106 0 
0.0898538 0.239162 -0.0424784 -0.241653 0.829625 0.503316 0 
0.0900672 0.239038 -0.042197 -0.20971 0.8494 0.484294 0 
0.0900393 0.239258 -0.042399 -0.273378 0.817009 0.507702 0 
0.0903665 0.239091 -0.0423299 -0.224189 0.837277 0.498706 0 
0.0897763 0.23932 -0.0427411 -0.299229 0.793195 0.53038 0 
0.0900114 0.239478 -0.042601 -0.310938 0.786114 0.534175 0 
0.0901124 0.239282 -0.042977 -0.343476 0.765967 0.543433 0 
0.090289 0.239249 -0.0425928 -0.313553 0.794229 0.520466 0 
0.0902705 0.239395 -0.0427274 -0.339594 0.777365 0.529509 0 
0.0903161 0.239436 -0.0431352 -0.362681 0.746505 0.557846 0 
0.0902975 0.239582 -0.0432699 -0.360483 0.738908 0.569269 0 
0.0902603 0.239876 -0.0435393 -0.37206 0.7097 0.598246 0 
0.0917328 0.239884 -0.0419513 -0.340868 0.764126 0.54765 0 
0.0914458 0.240188 -0.042027 -0.437456 0.731295 0.523297 0 
0.0913834 0.239974 -0.0422513 -0.407086 0.730118 0.548825 0 
0.091936 0.240241 -0.0424818 -0.518244 0.672543 0.528307 0 
0.0913283 0.239344 -0.0433743 -0.413553 0.726601 0.548658 0 
0.0920149 0.239967 -0.0430887 -0.493488 0.684192 0.536982 0 
0.0921015 0.239073 -0.044222 -0.339998 0.72392 0.600284 0 
0.0923471 0.239907 -0.0437931 -0.478089 0.642485 0.598869 0 
0.0920069 0.239429 -0.0420393 -0.189199 0.82188 0.537325 0 
0.091979 0.239649 -0.0422413 -0.322101 0.770799 0.549655 0 
0.0901891 0.242913 -0.043786 -0.688193 0.438244 0.578215 0 
0.0902877 0.239859 -0.0437095 -0.36923 0.710563 0.598973 0 
0.0901495 0.240349 -0.0436029 -0.369601 0.70142 0.60943 0 
0.0902319 0.240299 -0.0441136 -0.366624 0.675706 0.639537 0 
0.0914185 0.240698 -0.0438433 -0.524474 0.602049 0.602049 0 
0.090127 0.240474 -0.0442062 -0.358685 0.663322 0.656771 0 
0.0902478 0.24088 -0.044226 -0.359442 0.651591 0.668004 0 
0.0898985 0.240969 -0.044526 -0.294267 0.651247 0.699488 0 
0.0901761 0.240739 -0.0445177 -0.341247 0.651471 0.677595 0 
0.0901482 0.240959 -0.0447197 -0.30064 0.641473 0.705781 0 
0.0902455 0.241404 -0.0441008 -0.481764 0.602625 0.636197 0 
0.0902362 0.241477 -0.0441682 -0.452935 0.610041 0.650154 0 
0.0911683 0.240911 -0.0440218 -0.513877 0.598119 0.614967 0 
0.0910506 0.240934 -0.0442779 -0.468298 0.602577 0.646218 0 
0.0913666 0.24116 -0.0437788 -0.521969 0.592916 0.613187 0 
0.0906959 0.241118 -0.0441768 -0.478251 0.60914 0.632633 0 
0.0908814 0.241215 -0.0440974 -0.49704 0.594763 0.63183 0 
0.0907671 0.241462 -0.0442573 -0.502832 0.580191 0.640733 0 
0.0909437 0.241428 -0.0438731 -0.531262 0.578486 0.618963 0 
0.0909158 0.241648 -0.0440751 -0.538861 0.559132 0.630079 0 
0.0913608 0.241458 -0.0437499 -0.535899 0.579853 0.613664 0 
0.0915271 0.239883 -0.0447455 -0.366695 0.646239 0.66926 0 
0.0917917 0.240367 -0.0438097 -0.534958 0.602461 0.592335 0 
0.0915381 0.240355 -0.0440845 -0.472118 0.626691 0.61997 0 
0.0915102 0.240575 -0.0442865 -0.461148 0.608715 0.645607 0 
0.0918076 0.240948 -0.0439221 -0.534629 0.571733 0.622329 0 
0.0917196 0.24043 -0.0444737 -0.464658 0.602211 0.64918 0 
0.0917341 0.241127 -0.0437164 -0.535752 0.572934 0.620255 0 
0.0927647 0.241755 -0.0427296 -0.81604 0.212813 0.537392 0 
0.0898706 0.241189 -0.0447281 -0.332945 0.631784 0.699997 0 
0.0900193 0.241375 -0.0445458 -0.369298 0.628627 0.684432 0 
0.0901296 0.241106 -0.0448544 -0.340002 0.623066 0.704406 0 
0.0898613 0.241262 -0.0447954 -0.314751 0.627887 0.711821 0 
0.0904178 0.241552 -0.0445573 -0.441616 0.594931 0.671589 0 
0.0898427 0.241409 -0.0449301 -0.357937 0.612906 0.704434 0 
0.0900738 0.241546 -0.0452585 -0.4046 0.586257 0.701856 0 
0.0903899 0.241772 -0.0447593 -0.427605 0.587333 0.687163 0 
0.0903459 0.242277 -0.0437579 -0.572515 0.555627 0.602914 0 
0.0907152 0.241924 -0.0441929 -0.552577 0.549197 0.62693 0 
0.0905386 0.241958 -0.0445771 -0.491288 0.561711 0.66567 0 
0.0905188 0.241355 -0.0449333 -0.393944 0.595037 0.700528 0 
0.0903952 0.241677 -0.0451605 -0.360994 0.596212 0.717088 0 
0.0905665 0.241738 -0.0443751 -0.530876 0.564582 0.631995 0 
0.0906873 0.242144 -0.044395 -0.605085 0.51744 0.605085 0 
0.0900184 0.241782 -0.0452903 -0.474745 0.575397 0.665985 0 
0.0900366 0.241839 -0.0455279 -0.484483 0.571656 0.662182 0 
0.0901299 0.242262 -0.0453775 -0.560874 0.527188 0.638352 0 
0.0904642 0.242544 -0.0451159 -0.708101 0.42287 0.565486 0 
0.0903619 0.241992 -0.0449614 -0.476856 0.563861 0.674291 0 
0.0907273 0.241617 -0.0458649 -0.463741 0.574235 0.674684 0 
0.0907716 0.241774 -0.045403 -0.422666 0.561897 0.711073 0 
0.0905764 0.241955 -0.045922 -0.630964 0.503088 0.590582 0 
0.0907344 0.242068 -0.0456724 -0.627826 0.486439 0.607628 0 
0.0905799 0.24218 -0.0458257 -0.700071 0.434011 0.567041 0 
0.0906834 0.242122 -0.0448635 -0.564691 0.514122 0.645602 0 
0.0906555 0.242342 -0.0450655 -0.651809 0.457439 0.604892 0 
0.0906427 0.24219 -0.0452291 -0.601311 0.510356 0.614786 0 
0.0906148 0.24241 -0.0454311 -0.715646 0.421454 0.556981 0 
0.0907139 0.242535 -0.0453097 -0.743922 0.387493 0.544453 0 
0.092079 0.242748 -0.0417026 -0.755486 0.284699 0.590074 0 
0.092572 0.242074 -0.0419103 -0.864644 0.230071 0.446607 0 
0.092855 0.241749 -0.0423032 -0.861656 0.204587 0.464428 0 
0.0928402 0.243277 -0.0428647 -0.708972 -0.0529939 0.703243 0 
0.0929412 0.243081 -0.0432407 -0.746347 0.0238047 0.665131 0 
0.0904195 0.242591 -0.0459501 -0.7912 0.357886 0.495904 0 
0.0905484 0.242175 -0.046124 -0.704443 0.429296 0.565212 0 
0.0902557 0.242776 -0.0461707 -0.842116 0.306649 0.443629 0 
0.0905113 0.242468 -0.0463934 -0.786362 0.348958 0.509768 0 
0.0903474 0.242654 -0.046614 -0.888407 0.298133 0.34907 0 
0.0905869 0.24263 -0.0456332 -0.787171 0.344688 0.511421 0 
0.090686 0.242755 -0.0455117 -0.77697 0.345856 0.526023 0 
0.0906674 0.242901 -0.0456464 -0.824491 0.306239 0.475849 0 
0.0905496 0.242924 -0.0459026 -0.832866 0.301582 0.464092 0 
0.0906027 0.243211 -0.0457456 -0.852299 0.271814 0.446881 0 
0.0905217 0.243144 -0.0461046 -0.89049 0.266998 0.368427 0 
0.0907607 0.243324 -0.045496 -0.834871 0.277258 0.47552 0 
0.0901964 0.242991 -0.0466711 -0.912755 0.269314 0.307163 0 
0.0903637 0.243031 -0.0463542 -0.901048 0.275771 0.334759 0 
0.0902092 0.243143 -0.0465075 -0.919004 0.251683 0.303458 0 
0.0980418 0.218869 -0.0073514 -0.470929 0.672037 0.571483 0 
0.0985102 0.218641 -0.00766488 -0.477337 0.664923 0.57448 0 
0.0967068 0.264183 -0.0570126 -0.274879 0.802647 0.529339 0 
0.0967745 0.264302 -0.0571894 -0.351721 0.831198 0.430583 0 
0.0966789 0.264403 -0.0572146 -0.0667989 0.822906 0.564238 0 
0.0966053 0.264583 -0.0570089 0.39954 0.648216 0.648216 0 
0.0968953 0.264708 -0.0572092 0.652123 0.551018 0.520687 0 
0.0966982 0.265209 -0.0572308 0.718786 0.532865 0.446544 0 
0.0967501 0.264747 -0.0572952 0.713129 0.513653 0.477082 0 
0.0970092 0.264664 -0.0574216 0.4273 0.758008 0.492787 0 
0.0968581 0.265002 -0.0574786 0.617624 0.63771 0.460289 0 
0.0974758 0.264756 -0.0572377 0.638272 0.564172 0.523754 0 
0.0972992 0.26479 -0.0576219 0.518215 0.730137 0.445367 0 
0.0975342 0.264948 -0.0574819 0.55153 0.694827 0.461552 0 
0.0977344 0.264876 -0.0577363 0.410799 0.777758 0.475748 0 
0.097671 0.264575 -0.0567187 0.00960956 0.814067 0.580692 0 
0.0979115 0.264639 -0.0569798 0.0484877 0.854768 0.51674 0 
0.0978836 0.264859 -0.0571818 0.638533 0.544185 0.544185 0 
0.0981094 0.265091 -0.0571091 0.734581 0.251179 0.630318 0 
0.0968431 0.265374 -0.0575171 0.545167 0.695213 0.468477 0 
0.0968245 0.26552 -0.0576517 0.500942 0.717295 0.484299 0 
0.097234 0.265303 -0.0580934 0.604899 0.608269 0.513912 0 
0.0971326 0.265703 -0.0580897 0.546042 0.620426 0.562948 0 
0.0972925 0.265495 -0.0583375 0.635056 0.523879 0.567676 0 
0.097114 0.265849 -0.0582244 0.457439 0.651809 0.604892 0 
0.0974952 0.265562 -0.0572538 0.453129 0.722019 0.522841 0 
0.0978937 0.265738 -0.0572653 0.400956 0.71776 0.569258 0 
0.0978476 0.265901 -0.0572298 0.637961 0.489833 0.594196 0 
0.0975993 0.265794 -0.0579058 0.728375 0.368279 0.577789 0 
0.0979393 0.265778 -0.0576731 0.701856 0.4046 0.586257 0 
0.0979977 0.265971 -0.0579173 0.704652 0.351509 0.616366 0 
0.0986185 0.264626 -0.0605068 0.559237 0.27253 0.782932 0 
0.0989952 0.26452 -0.060377 0.399966 -0.368596 0.839145 0 
0.0993221 0.264556 -0.0606803 0.0935203 -0.553928 0.827295 0 
0.0995059 0.264107 -0.0611946 0.0672003 -0.604802 0.793535 0 
0.0984385 0.264603 -0.0575375 -0.258431 0.959702 0.110385 0 
0.098201 0.264968 -0.0575524 0.289341 0.846361 0.447163 0 
0.0986755 0.264935 -0.0598813 0.643958 0.456625 0.613851 0 
0.0990721 0.265431 -0.0593954 0.681248 0.28372 0.674836 0 
0.0981115 0.265927 -0.0581296 0.689742 0.35552 0.630762 0 
0.098251 0.266186 -0.0580147 0.702401 0.329301 0.631026 0 
0.0988992 0.266353 -0.05822 0.625979 0.366387 0.688412 0 
0.0989159 0.264998 -0.0601423 0.651174 0.405948 0.641232 0 
0.0991014 0.265095 -0.0600631 0.664772 0.261784 0.699677 0 
0.099151 0.265157 -0.0600023 0.653348 0.166002 0.738634 0 
0.0992117 0.264825 -0.0603716 0.342568 -0.300682 0.890077 0 
0.0992134 0.265371 -0.059778 0.675678 0.209693 0.706744 0 
0.0991894 0.265612 -0.0595115 0.659034 0.203137 0.724162 0 
0.0993381 0.265799 -0.0593293 0.663938 0.21302 0.716804 0 
0.0986804 0.265043 -0.0606547 0.309216 -0.265664 0.913131 0 
0.0993367 0.264387 -0.0610141 0.0595907 -0.486426 0.871687 0 
0.0995643 0.264299 -0.0614388 0.0577163 -0.556047 0.829144 0 
0.0995532 0.264693 -0.0610087 0.0228415 -0.474297 0.880069 0 
0.0997037 0.264559 -0.0613239 0.0287706 -0.524721 0.850788 0 
0.0988442 0.264858 -0.0604341 0.46108 -0.0646888 0.884998 0 
0.0991138 0.26545 -0.0602717 0.444383 -0.142375 0.884451 0 
0.0994061 0.265052 -0.0605972 0.135334 -0.428796 0.893207 0 
0.0992648 0.265112 -0.0602146 0.45315 -0.105876 0.885125 0 
0.0994959 0.265249 -0.0605431 0.208235 -0.3461 0.914797 0 
0.0989995 0.265698 -0.0604316 0.324396 -0.237891 0.915519 0 
0.0990088 0.265624 -0.0603642 0.355127 -0.218874 0.908834 0 
0.0989995 0.265698 -0.0604316 0.324396 -0.237891 0.915519 0 
0.0994445 0.265507 -0.0601064 0.409284 -0.187892 0.892851 0 
0.0995932 0.265694 -0.0599241 0.518523 -0.083816 0.850946 0 
0.0994336 0.265035 -0.0607674 0.0732691 -0.457586 0.886141 0 
0.0995071 0.264856 -0.0609731 0.00134474 -0.520416 0.853912 0 
0.0997754 0.264699 -0.0610322 0.0341473 -0.501282 0.86461 0 
0.100073 0.265072 -0.0606678 -0.0177225 -0.527585 0.849317 0 
0.0993782 0.265272 -0.0607993 0.0722673 -0.421332 0.904023 0 
0.0997475 0.264919 -0.0612343 0.0228415 -0.474297 0.880069 0 
0.099674 0.265099 -0.0610285 -0.0173287 -0.462542 0.886428 0 
0.0999826 0.265078 -0.0610941 -0.0259853 -0.518339 0.85478 0 
0.10046 0.265641 -0.0602492 -0.0628598 -0.512656 0.85629 0 
0.100034 0.265685 -0.0604397 0.00394365 -0.445632 0.895208 0 
0.100284 0.265675 -0.0606334 -0.0676 -0.456645 0.887077 0 
0.0990324 0.265586 -0.061003 0.1083 -0.376993 0.919863 0 
0.0997327 0.265953 -0.0598093 0.489687 -0.128561 0.862368 0 
0.0998388 0.266528 -0.0594952 0.476476 -0.068068 0.876549 0 
0.100537 0.266553 -0.0592675 0.12349 -0.332472 0.934993 0 
0.100418 0.26603 -0.0601174 -0.0559824 -0.454686 0.888891 0 
0.100631 0.26611 -0.0602083 -0.067759 -0.463251 0.883633 0 
0.0996343 0.266782 -0.0600816 0.179321 -0.34311 0.922019 0 
0.0999464 0.266986 -0.0600509 0.0220571 -0.385351 0.922507 0 
0.099864 0.267035 -0.0595403 0.23314 -0.26106 0.936746 0 
0.100535 0.266414 -0.0606057 -0.102183 -0.435329 0.894454 0 
0.100851 0.26664 -0.0601066 -0.154797 -0.441244 0.883935 0 
0.0995883 0.264057 -0.0617053 0.112007 -0.54549 0.830599 0 
0.0994887 0.264137 -0.062199 0.135099 -0.592359 0.794266 0 
0.0999867 0.264234 -0.0617168 0.130654 -0.547572 0.826496 0 
0.0998101 0.264267 -0.062101 0.138039 -0.571454 0.808941 0 
0.100108 0.26464 -0.0617366 0.0873941 -0.551586 0.829527 0 
0.0999589 0.264454 -0.0619188 0.123953 -0.535186 0.83559 0 
0.100007 0.264836 -0.0613606 0.0149487 -0.523205 0.852076 0 
0.100295 0.265282 -0.0610635 -0.0372614 -0.52304 0.851493 0 
0.100554 0.265198 -0.0611899 0.0346322 -0.544418 0.838099 0 
0.100422 0.265186 -0.06074 -0.0290756 -0.557975 0.829348 0 
0.10057 0.265372 -0.0605578 -0.0346075 -0.549567 0.834733 0 
0.100778 0.265751 -0.0606197 -0.0543699 -0.525576 0.849007 0 
0.100802 0.265509 -0.0608862 0.0122861 -0.555603 0.831357 0 
0.100807 0.265414 -0.0612874 0.0431983 -0.553217 0.831916 0 
0.101092 0.265634 -0.0610865 0.112616 -0.568931 0.814638 0 
0.100663 0.265998 -0.0607797 -0.100592 -0.48029 0.871323 0 
0.101099 0.265881 -0.0605218 -0.00957025 -0.56191 0.827143 0 
0.10097 0.266297 -0.0603479 -0.103676 -0.475774 0.873436 0 
0.0899918 0.243245 -0.0472574 -0.934461 0.228361 0.273193 0 
0.0905106 0.243537 -0.0456745 -0.898325 0.258139 0.355495 0 
0.0900086 0.243419 -0.0466252 -0.933898 0.248571 0.256997 0 
0.0901484 0.243475 -0.0461382 -0.919004 0.251683 0.303458 0 
0.0902069 0.243667 -0.0463823 -0.932334 0.241194 0.269404 0 
0.0901685 0.243211 -0.0468731 -0.933898 0.248571 0.256997 0 
0.0905211 0.244213 -0.0453857 -0.919957 0.245417 0.305695 0 
0.0905118 0.244286 -0.0454531 -0.922128 0.2481 0.296859 0 
0.0904839 0.244506 -0.0456551 -0.924268 0.241424 0.295709 0 
0.0906327 0.244692 -0.0454729 -0.929728 0.22432 0.292039 0 
0.0899807 0.243639 -0.0468273 -0.931323 0.24449 0.269928 0 
0.0900129 0.244596 -0.0466798 -0.915832 0.225723 0.332115 0 
0.0901406 0.243431 -0.0470752 -0.92663 0.240554 0.288949 0 
0.0898722 0.243588 -0.0470161 -0.926344 0.234788 0.294552 0 
0.0901534 0.243583 -0.0469116 -0.932702 0.240561 0.268697 0 
0.0903717 0.243568 -0.0474036 -0.929813 0.233515 0.284463 0 
0.0899931 0.243994 -0.047036 -0.922103 0.238746 0.304509 0 
0.0905165 0.243733 -0.0476899 -0.925019 0.211069 0.315895 0 
0.090827 0.244919 -0.0456985 -0.934216 0.196898 0.297441 0 
0.0902608 0.244907 -0.0463762 -0.935289 0.204899 0.288532 0 
0.0907991 0.245139 -0.0459005 -0.941031 0.174469 0.289865 0 
0.0910342 0.245298 -0.0457604 -0.958945 0.160045 0.234115 0 
0.090707 0.245465 -0.0458294 -0.937401 0.1519 0.313379 0 
0.0908557 0.245652 -0.0456472 -0.93313 0.135653 0.332967 0 
0.0899738 0.24521 -0.0464518 -0.914671 0.168753 0.367286 0 
0.0903634 0.245256 -0.0461583 -0.907926 0.173006 0.381758 0 
0.09042 0.245769 -0.0459051 -0.929357 0.147758 0.338325 0 
0.0905834 0.245786 -0.0460567 -0.930308 0.153439 0.333142 0 
0.090679 0.245685 -0.0460315 -0.932189 0.144579 0.331843 0 
0.0908278 0.245872 -0.0458492 -0.934211 0.146785 0.325122 0 
0.0912355 0.245975 -0.0457934 -0.937477 0.155102 0.311577 0 
0.0903274 0.246298 -0.0462063 -0.94703 0.161225 0.277741 0 
0.0905555 0.246006 -0.0462587 -0.937505 0.163823 0.306995 0 
0.0910222 0.246098 -0.0460748 -0.938929 0.154438 0.307509 0 
0.0911213 0.246222 -0.0459533 -0.941542 0.159885 0.296538 0 
0.0905533 0.243643 -0.0477928 -0.925685 0.204923 0.317983 0 
0.0909332 0.243966 -0.047939 -0.92746 0.210337 0.309153 0 
0.0905254 0.243863 -0.0479948 -0.932005 0.194226 0.306011 0 
0.0913471 0.246454 -0.0458806 -0.858893 0.215099 0.464795 0 
0.0900788 0.248417 -0.0466864 -0.412902 0.432182 0.801705 0 
0.0902976 0.248198 -0.0468063 -0.38317 0.421328 0.821987 0 
0.0904335 0.248233 -0.0467876 -0.275031 0.444045 0.85275 0 
0.090097 0.248474 -0.046924 -0.40839 0.447131 0.795796 0 
0.0904056 0.248453 -0.0469897 -0.246514 0.482311 0.840599 0 
0.0902457 0.24866 -0.0467418 -0.208467 0.472424 0.856363 0 
0.0904955 0.24865 -0.0469355 -0.157487 0.498955 0.852198 0 
0.0904045 0.246344 -0.0463158 -0.954543 0.166878 0.24698 0 
0.0910841 0.246516 -0.0462227 -0.949333 0.18878 0.251254 0 
0.0911518 0.246635 -0.0463995 -0.955676 0.194352 0.221159 0 
0.0904204 0.246925 -0.0464282 -0.728319 0.292928 0.619471 0 
0.0914617 0.247362 -0.0462437 -0.441898 0.381276 0.812007 0 
0.0913192 0.246674 -0.0460827 -0.864881 0.243012 0.439233 0 
0.0915596 0.246738 -0.0463437 -0.87373 0.251141 0.416563 0 
0.091436 0.247059 -0.046571 -0.439325 0.381813 0.81315 0 
0.0907484 0.247709 -0.0465099 -0.459141 0.391478 0.797455 0 
0.091443 0.247509 -0.0463785 -0.455418 0.391048 0.799798 0 
0.0905846 0.247895 -0.0467306 -0.406648 0.413027 0.814891 0 
0.0908436 0.247812 -0.0468569 -0.266192 0.43047 0.86246 0 
0.0914059 0.247802 -0.0466478 -0.225752 0.429078 0.874602 0 
0.0915271 0.248005 -0.0462954 -0.199721 0.436427 0.877293 0 
0.0915377 0.248681 -0.0460066 -0.082767 0.483977 0.871158 0 
0.0915674 0.248141 -0.046302 -0.0906363 0.444815 0.891025 0 
0.0913761 0.248343 -0.0463524 -0.146804 0.469483 0.870651 0 
0.0914992 0.248225 -0.0464975 -0.014613 0.453001 0.89139 0 
0.0913873 0.247949 -0.0467826 -0.145734 0.454518 0.878735 0 
0.0908343 0.247885 -0.0469244 -0.266192 0.43047 0.86246 0 
0.0907917 0.248273 -0.0467926 -0.215049 0.470701 0.855684 0 
0.0909702 0.247919 -0.0469057 -0.230085 0.44062 0.867706 0 
0.0910747 0.247949 -0.0471854 -0.162237 0.466249 0.86965 0 
0.0907638 0.248493 -0.0469946 -0.10092 0.490388 0.865641 0 
0.0909237 0.248286 -0.0472425 -0.082767 0.483977 0.871158 0 
0.0912819 0.248327 -0.0472474 -0.0229932 0.488268 0.872391 0 
0.0912379 0.248832 -0.0462459 0.00396162 0.46351 0.886083 0 
0.0914713 0.248445 -0.0466995 -0.0202204 0.48394 0.874867 0 
0.0915209 0.248507 -0.0466387 -0.0202204 0.48394 0.874867 0 
0.0914819 0.249121 -0.0464107 -0.0314183 0.501327 0.864687 0 
0.0914434 0.248665 -0.0469015 -0.0229932 0.488268 0.872391 0 
0.091493 0.248727 -0.0468408 -0.0229932 0.488268 0.872391 0 
0.0911986 0.248783 -0.0474812 0.00133282 0.497143 0.867668 0 
0.0910401 0.248874 -0.048103 -0.0937434 0.555249 0.826384 0 
0.0914572 0.248904 -0.0479799 -0.115522 0.560064 0.820355 0 
0.0920025 0.249587 -0.0473117 -0.112266 0.564246 0.817938 0 
0.0915044 0.248996 -0.0458075 -0.101169 0.491597 0.864926 0 
0.0918303 0.249439 -0.0468552 -0.157369 0.568026 0.807825 0 
0.0913925 0.249214 -0.048079 -0.103044 0.558761 0.822902 0 
0.0913097 0.249467 -0.0479406 -0.0937434 0.555249 0.826384 0 
0.0917116 0.249868 -0.0478559 -0.0968918 0.568335 0.817072 0 
0.0915792 0.250059 -0.0477783 -0.100229 0.570867 0.814902 0 
0.0916319 0.25055 -0.0479935 -0.128732 0.593349 0.794585 0 
0.0915514 0.250279 -0.0479803 -0.119273 0.584586 0.802517 0 
0.0917953 0.250568 -0.0481451 -0.122327 0.591004 0.797339 0 
0.0917673 0.250788 -0.0483471 -0.116168 0.586722 0.801413 0 
0.091882 0.250336 -0.047815 -0.109437 0.576366 0.809831 0 
0.0918542 0.250556 -0.048017 -0.11624 0.590031 0.798969 0 
0.0919126 0.250749 -0.0482612 -0.122464 0.58576 0.801179 0 
0.0920334 0.251155 -0.048281 -0.0937434 0.555249 0.826384 0 
0.0917743 0.251238 -0.0481546 -0.115585 0.572071 0.812019 0 
0.0917465 0.251458 -0.0483567 -0.172403 0.541194 0.823035 0 
0.0919138 0.251498 -0.0480398 -0.121295 0.550942 0.825682 0 
0.0918859 0.251718 -0.0482418 -0.171953 0.530812 0.829862 0 
0.0920705 0.252221 -0.0489069 -0.174742 0.512279 0.840854 0 
0.0920426 0.252441 -0.049109 -0.213053 0.491081 0.844659 0 
0.092252 0.252296 -0.0492961 -0.160924 0.503441 0.848911 0 
0.0921883 0.252199 -0.0486507 -0.145615 0.513331 0.845746 0 
0.0935033 0.252385 -0.0489266 -0.137529 0.473389 0.870051 0 
0.0936446 0.252324 -0.0493091 -0.158411 0.454887 0.876347 0 
0.0920147 0.252661 -0.0493111 -0.24604 0.469156 0.848149 0 
0.0932062 0.253168 -0.0498141 -0.283948 0.396313 0.873103 0 
0.0933824 0.253338 -0.0498021 -0.319776 0.380977 0.867525 0 
0.0930954 0.253641 -0.0498778 -0.378007 0.384281 0.842282 0 
0.0930675 0.253861 -0.0500798 -0.451056 0.364989 0.814451 0 
0.0913136 0.252701 -0.0512493 -0.489038 0.525758 0.696003 0 
0.0927624 0.254108 -0.0499179 -0.510947 0.381183 0.770476 0 
0.0926756 0.254339 -0.050248 -0.557262 0.392878 0.731509 0 
0.0927 0.253894 -0.0501422 -0.530022 0.402029 0.746625 0 
0.093238 0.25297 -0.0491435 -0.22857 0.422781 0.876933 0 
0.0930998 0.25346 -0.049037 -0.277675 0.402098 0.872476 0 
0.0932101 0.25319 -0.0493456 -0.260164 0.404532 0.876737 0 
0.0930719 0.253679 -0.049239 -0.336146 0.398108 0.853531 0 
0.0931822 0.25341 -0.0495476 -0.290285 0.396672 0.870854 0 
0.093226 0.253771 -0.0494579 -0.361183 0.392454 0.845888 0 
0.0931636 0.253557 -0.0496823 -0.360669 0.388773 0.847805 0 
0.0928674 0.253933 -0.0498253 -0.463461 0.395638 0.79289 0 
0.0930161 0.25412 -0.0496431 -0.461025 0.380707 0.801573 0 
0.0931555 0.254379 -0.0495282 -0.49659 0.361595 0.78908 0 
0.0929429 0.255455 -0.0499604 -0.677547 0.460062 0.573823 0 
0.0929014 0.254571 -0.0501752 -0.597144 0.449949 0.664051 0 
0.092951 0.254633 -0.0501145 -0.616255 0.468488 0.633047 0 
0.0930316 0.254904 -0.0501277 -0.640892 0.506322 0.576971 0 
0.0932019 0.255372 -0.0500868 -0.63211 0.557942 0.537715 0 
0.0931926 0.255445 -0.0501541 -0.617045 0.573091 0.53928 0 
0.0936097 0.255475 -0.050031 -0.582954 0.579575 0.569436 0 
