0.0896986 0.234938 -0.0275334 0.150269 0.91706 0.369352 0 
0.0901267 0.234978 -0.0272417 0.0987509 0.92934 0.355774 0 
0.0902168 0.235111 -0.0274952 0.11247 0.933633 0.340119 0 
0.0902085 0.235012 -0.0271951 0.0987509 0.92934 0.355774 0 
0.0903722 0.235079 -0.0271017 0.0961256 0.927409 0.361486 0 
0.090492 0.234857 -0.0269383 0.0961256 0.927409 0.361486 0 
0.0907157 0.235013 -0.0270139 0.0956805 0.9312 0.351727 0 
0.0907047 0.234841 -0.0268711 0.0930644 0.929295 0.357421 0 
0.0906011 0.234863 -0.0271334 0.0956805 0.9312 0.351727 0 
0.0908766 0.235008 -0.0270779 0.103713 0.933421 0.343466 0 
0.0902987 0.235144 -0.0274485 0.100725 0.936068 0.337092 0 
0.0902797 0.235272 -0.0275069 0.11525 0.934202 0.337614 0 
0.0904924 0.235256 -0.0274396 0.108625 0.940078 0.323194 0 
0.0904951 0.235328 -0.0272824 0.103643 0.935477 0.337848 0 
0.0906508 0.235695 -0.0273902 0.102801 0.941226 0.321753 0 
0.0906912 0.234996 -0.0273869 0.105961 0.937558 0.331297 0 
0.0906994 0.235095 -0.0276871 0.119515 0.941345 0.315572 0 
0.0908848 0.235107 -0.0273781 0.114585 0.936904 0.330275 0 
0.09113 0.234809 -0.0267367 0.0842666 0.932282 0.351779 0 
0.0911901 0.234898 -0.0269057 0.103713 0.933421 0.343466 0 
0.0912201 0.234942 -0.0269902 0.103713 0.933421 0.343466 0 
0.0914027 0.234882 -0.0268385 0.101113 0.931586 0.349176 0 
0.0917787 0.234417 -0.0269487 0.0954409 0.931557 0.350846 0 
0.0912473 0.234914 -0.027232 0.105961 0.937558 0.331297 0 
0.0913292 0.234948 -0.0271853 0.105961 0.937558 0.331297 0 
0.0914272 0.234781 -0.0272376 0.105961 0.937558 0.331297 0 
0.0914845 0.234797 -0.0275639 0.119413 0.943228 0.309937 0 
0.0918687 0.234549 -0.0272021 0.111641 0.937517 0.329543 0 
0.0903397 0.23536 -0.0276759 0.117062 0.940534 0.318893 0 
0.0905824 0.235389 -0.0276932 0.107448 0.945811 0.306427 0 
0.0904789 0.23541 -0.0279555 0.127328 0.944905 0.301565 0 
0.0905959 0.235116 -0.0279494 0.124374 0.945509 0.300905 0 
0.0909694 0.235095 -0.0279461 0.126666 0.947994 0.291998 0 
0.0909449 0.235196 -0.0275471 0.119515 0.941345 0.315572 0 
0.090814 0.235127 -0.0283396 0.117058 0.953562 0.277519 0 
0.0911737 0.23498 -0.0275788 0.116375 0.943037 0.31167 0 
0.0913509 0.234775 -0.0277417 0.118801 0.946405 0.30034 0 
0.0911821 0.235079 -0.0278789 0.118092 0.948717 0.29324 0 
0.0910267 0.235111 -0.0282724 0.114378 0.953153 0.28003 0 
0.0912722 0.235212 -0.0281324 0.103384 0.954016 0.281363 0 
0.0913591 0.234874 -0.0280418 0.118184 0.949453 0.290812 0 
0.0915311 0.23504 -0.0282486 0.086663 0.95588 0.280685 0 
0.0913374 0.235047 -0.0274854 0.12247 0.940731 0.316269 0 
0.0918117 0.234932 -0.0273772 0.119817 0.941038 0.316372 0 
0.0916564 0.234964 -0.0277707 0.115675 0.948002 0.2965 0 
0.0922043 0.234783 -0.0273156 0.12247 0.940731 0.316269 0 
0.0919999 0.234898 -0.027683 0.107167 0.948629 0.297687 0 
0.0922944 0.234916 -0.0275691 0.104647 0.947118 0.303343 0 
0.0916975 0.23518 -0.027998 0.0838262 0.955618 0.28243 0 
0.091992 0.235197 -0.0278842 0.0925023 0.952383 0.290535 0 
0.0923845 0.235048 -0.0278225 0.0926616 0.951413 0.293646 0 
0.0915297 0.233565 -0.0254712 0.0624186 0.925655 0.373184 0 
0.0913166 0.233065 -0.0258091 0.065385 0.924731 0.374963 0 
0.092032 0.234218 -0.0266074 0.0792802 0.925832 0.369527 0 
0.0921711 0.234268 -0.0268871 0.0956805 0.9312 0.351727 0 
0.0922613 0.234401 -0.0271405 0.111641 0.937517 0.329543 0 
0.0901793 0.232886 -0.0224011 0.114687 0.937736 0.32787 0 
0.0902693 0.233019 -0.0226546 0.0916656 0.939241 0.330793 0 
0.0903595 0.233152 -0.0229081 0.0505133 0.941619 0.332869 0 
0.0904551 0.23343 -0.022847 0.0559027 0.939945 0.336716 0 
0.0905638 0.233037 -0.0225407 0.0807674 0.938755 0.334986 0 
0.0908255 0.232937 -0.0224997 0.0724425 0.939118 0.33587 0 
0.0912181 0.232789 -0.0224381 0.0638392 0.941953 0.329619 0 
0.0905065 0.232902 -0.0229865 0.0425797 0.940625 0.336767 0 
0.0905366 0.232947 -0.023071 0.0532633 0.939253 0.339067 0 
0.0912398 0.232734 -0.0222224 0.0691445 0.943235 0.324849 0 
0.091698 0.232818 -0.0220152 0.0637911 0.943848 0.324163 0 
0.0915426 0.23285 -0.0224087 0.0425797 0.940625 0.336767 0 
0.0916327 0.232983 -0.0226622 0.0269672 0.936147 0.350574 0 
0.0917881 0.232951 -0.0222687 0.0425797 0.940625 0.336767 0 
0.0918782 0.233084 -0.0225222 0.0216769 0.937205 0.348105 0 
0.0906567 0.233124 -0.0234089 0.019082 0.937563 0.347293 0 
0.0915074 0.23306 -0.0231401 0.0114132 0.937151 0.348737 0 
0.0906867 0.233168 -0.0234934 0.0216769 0.937205 0.348105 0 
0.0907768 0.233301 -0.0237469 0.016637 0.932952 0.359615 0 
0.0916275 0.233237 -0.0234781 -0.0139698 0.935977 0.351785 0 
0.0915402 0.233176 -0.0230673 0.00630151 0.938926 0.344063 0 
0.0919984 0.233261 -0.0228601 0.0140111 0.933647 0.357919 0 
0.0920884 0.233394 -0.0231136 -0.01142 0.935169 0.354019 0 
0.0919545 0.233091 -0.0220181 0.0532263 0.941197 0.333638 0 
0.0920446 0.233223 -0.0222715 0.0319811 0.940243 0.338999 0 
0.09223 0.233236 -0.0219626 0.0319811 0.940243 0.338999 0 
0.0921837 0.233273 -0.0225511 0.0114368 0.934003 0.357082 0 
0.0922438 0.233362 -0.0227201 -0.00125887 0.935342 0.353743 0 
0.092364 0.233539 -0.0230581 -0.0114702 0.931632 0.363222 0 
0.0915322 0.233357 -0.0240406 0.00634247 0.932343 0.361521 0 
0.0918077 0.233502 -0.0239851 -0.014052 0.931264 0.364074 0 
0.0916223 0.23349 -0.024294 0.00381292 0.929082 0.369854 0 
0.0917694 0.233359 -0.0236004 -0.0139698 0.935977 0.351785 0 
0.091933 0.233426 -0.0235071 -0.0191106 0.93642 0.350361 0 
0.0920231 0.233559 -0.0237605 -0.0217739 0.933717 0.357349 0 
0.0921785 0.233526 -0.0233671 -0.0191849 0.934942 0.354281 0 
0.0922686 0.233659 -0.0236205 -0.0323024 0.934184 0.355326 0 
0.0919496 0.233624 -0.0241074 -0.00892599 0.929579 0.368516 0 
0.0921133 0.233691 -0.024014 -0.0244284 0.932136 0.361283 0 
0.0923588 0.233792 -0.023874 -0.0296657 0.932535 0.359858 0 
0.0917124 0.233623 -0.0245475 0.0193257 0.928924 0.369766 0 
0.0919579 0.233723 -0.0244075 0.00380749 0.930297 0.366788 0 
0.0913934 0.233588 -0.0250343 0.0569843 0.926327 0.372386 0 
0.0915871 0.233699 -0.0250255 0.0432928 0.927516 0.371269 0 
0.0918025 0.233756 -0.024801 0.0324156 0.929678 0.366944 0 
0.092048 0.233856 -0.024661 0.014065 0.932128 0.361855 0 
0.0918325 0.2338 -0.0248855 0.0324156 0.929678 0.366944 0 
0.0922033 0.233824 -0.0242675 -0.00126552 0.932691 0.360674 0 
0.0924489 0.233925 -0.0241275 -0.0321763 0.935686 0.351365 0 
0.0922935 0.233957 -0.024521 -0.00634247 0.932343 0.361521 0 
0.0923836 0.23409 -0.0247745 0.006339 0.934369 0.356252 0 
0.092539 0.234058 -0.024381 -0.0243785 0.935364 0.352846 0 
0.0927109 0.234224 -0.0245878 -0.0217093 0.936056 0.351181 0 
0.091941 0.233127 -0.0233059 -0.01142 0.935169 0.354019 0 
0.0921233 0.232786 -0.0218808 0.0450521 0.94352 0.328237 0 
0.0915891 0.232975 -0.0238655 -0.01142 0.935169 0.354019 0 
0.0916139 0.233273 -0.0247659 0.0167177 0.92719 0.374219 0 
0.0916771 0.233832 -0.025279 0.0569843 0.926327 0.372386 0 
0.0918736 0.234016 -0.0251128 0.0485759 0.928193 0.368914 0 
0.0922282 0.234122 -0.0251679 0.0351753 0.928887 0.368689 0 
0.0917673 0.233965 -0.0255324 0.0680417 0.924566 0.374896 0 
0.0918574 0.234097 -0.0257859 0.0794353 0.922257 0.378327 0 
0.0920127 0.234065 -0.0253924 0.0485759 0.928193 0.368914 0 
0.0923484 0.234299 -0.0255059 0.0459781 0.92613 0.374393 0 
0.0922499 0.234067 -0.0249523 0.0218583 0.932192 0.361305 0 
0.0924737 0.234223 -0.0250279 0.016637 0.932952 0.359615 0 
0.0925452 0.234999 -0.025069 0.0193535 0.927679 0.372878 0 
0.0924547 0.23435 -0.0250863 0.0324156 0.929678 0.366944 0 
0.0925448 0.234483 -0.0253398 0.0272203 0.926786 0.374603 0 
0.0925127 0.235281 -0.0256432 0.0408823 0.919193 0.391679 0 
0.0919475 0.23423 -0.0260394 0.0767587 0.922451 0.378407 0 
0.0920376 0.234363 -0.0262929 0.0848287 0.925037 0.370284 0 
0.0926187 0.234815 -0.0254943 0.0326817 0.924238 0.380415 0 
0.0924902 0.234421 -0.0256282 0.0379788 0.925898 0.37586 0 
0.0926104 0.234598 -0.0259662 0.0406522 0.92451 0.378984 0 
0.0926214 0.23477 -0.026109 0.0379788 0.925898 0.37586 0 
0.0921277 0.234496 -0.0265463 0.084574 0.927629 0.363802 0 
0.0922178 0.234629 -0.0267998 0.0954409 0.931557 0.350846 0 
0.092455 0.23463 -0.0263596 0.0652888 0.926036 0.371747 0 
0.0924633 0.234729 -0.0266598 0.0896592 0.932723 0.349269 0 
0.0923079 0.234761 -0.0270533 0.111641 0.937517 0.329543 0 
0.0926135 0.235069 -0.0263102 0.0542088 0.926838 0.371528 0 
0.0927036 0.235202 -0.0265637 0.0621418 0.929482 0.363595 0 
0.092398 0.234894 -0.0273068 0.119817 0.941038 0.316372 0 
0.0927253 0.235028 -0.0271201 0.0913681 0.941489 0.324423 0 
0.0924881 0.235027 -0.0275602 0.0989929 0.946372 0.307538 0 
0.0925782 0.23516 -0.0278137 0.0651212 0.956389 0.284746 0 
0.0922827 0.234065 -0.0256515 0.0485759 0.928193 0.368914 0 
0.0924218 0.234115 -0.0259311 0.0326817 0.924238 0.380415 0 
0.0924629 0.234331 -0.0261584 0.0485759 0.928193 0.368914 0 
0.0930035 0.235128 -0.0276793 0.0414588 0.956064 0.290211 0 
0.0908722 0.236176 -0.0281245 0.10755 0.960177 0.257861 0 
0.0908223 0.235226 -0.0286398 0.0965006 0.961146 0.258622 0 
0.0910926 0.235625 -0.0294002 0.0153111 0.976376 0.215533 0 
0.0910681 0.235607 -0.0297731 -0.0175558 0.979611 0.200136 0 
0.0912317 0.235674 -0.0296798 -0.0296449 0.978283 0.205143 0 
0.0913131 0.235191 -0.0299038 -0.0271622 0.97902 0.201945 0 
0.0913872 0.23576 -0.0285143 0.0561807 0.96506 0.255934 0 
0.0909262 0.235603 -0.0288788 0.0738505 0.967567 0.241579 0 
0.0910843 0.235525 -0.0291 0.0349045 0.973716 0.225074 0 
0.0909531 0.235177 -0.0286193 0.093656 0.960937 0.260441 0 
0.0912638 0.234994 -0.0286043 0.0804114 0.961108 0.264209 0 
0.0910432 0.235309 -0.0288727 0.0612342 0.966 0.251185 0 
0.0913539 0.235127 -0.0288578 0.0561807 0.96506 0.255934 0 
0.0914437 0.234862 -0.0286099 0.0723423 0.960757 0.267793 0 
0.0910733 0.235354 -0.0289572 0.0607952 0.969001 0.239459 0 
0.091384 0.235171 -0.0289423 0.0532445 0.967068 0.248887 0 
0.0915639 0.235039 -0.0289479 0.0380235 0.967759 0.248992 0 
0.0916239 0.235127 -0.0291169 0.0179599 0.971033 0.238268 0 
0.0917714 0.235394 -0.0289246 0.00834847 0.969616 0.244491 0 
0.0916895 0.235479 -0.0281992 0.0564407 0.962 0.267153 0 
0.0920821 0.23533 -0.0281376 0.0620596 0.958757 0.277368 0 
0.0924746 0.235181 -0.028076 0.0488351 0.960424 0.274228 0 
0.0919678 0.235578 -0.0287584 -0.00357592 0.969075 0.246739 0 
0.0922022 0.235507 -0.0284756 0.0181794 0.965934 0.258148 0 
0.0920548 0.23524 -0.0286679 0.0205441 0.967988 0.250154 0 
0.0925948 0.235358 -0.028414 -0.0206862 0.964949 0.261619 0 
0.0923603 0.235429 -0.0286969 -0.0455046 0.967895 0.247201 0 
0.0912566 0.23609 -0.0298082 -0.053835 0.979798 0.19261 0 
0.0911634 0.235487 -0.0292107 0.0225824 0.975798 0.217504 0 
0.0913104 0.235237 -0.0292891 0.0178113 0.974873 0.222048 0 
0.0912535 0.235619 -0.0294642 -0.00116659 0.976433 0.215818 0 
0.0914005 0.23537 -0.0295426 -0.0273116 0.977281 0.210181 0 
0.0916812 0.235143 -0.0294431 -0.0373486 0.974677 0.220477 0 
0.0920085 0.235277 -0.0292565 -0.0651767 0.972732 0.222585 0 
0.0917713 0.235276 -0.0296966 -0.0643324 0.977124 0.202708 0 
0.0918013 0.23532 -0.0297811 -0.0723642 0.975077 0.209734 0 
0.0920986 0.23541 -0.02951 -0.101642 0.972499 0.209558 0 
0.0921069 0.235628 -0.029038 -0.0525783 0.972087 0.228654 0 
0.0924994 0.235479 -0.0289765 -0.0894071 0.968367 0.232962 0 
0.092745 0.23558 -0.0288365 -0.133564 0.963474 0.232116 0 
0.0922951 0.235594 -0.0293438 -0.124092 0.968431 0.216202 0 
0.0913029 0.235934 -0.0299916 -0.0846375 0.977624 0.192581 0 
0.0912562 0.235574 -0.0300789 -0.0662774 0.979701 0.189192 0 
0.0913135 0.23559 -0.0304052 -0.0586842 0.980865 0.185634 0 
0.0914033 0.235324 -0.0301573 -0.0662774 0.979701 0.189192 0 
0.0914934 0.235457 -0.0304108 -0.0762945 0.979718 0.185287 0 
0.0910328 0.235816 -0.0305046 -0.063512 0.98144 0.180949 0 
0.0912399 0.235655 -0.030752 -0.0688388 0.979444 0.189609 0 
0.0911391 0.235749 -0.030857 -0.0741702 0.978804 0.190897 0 
0.0915507 0.235473 -0.0307371 -0.13286 0.973038 0.188534 0 
0.091736 0.235485 -0.0304281 -0.132332 0.974214 0.182744 0 
0.0909509 0.235665 -0.0313233 0.0105574 0.977143 0.21232 0 
0.0909592 0.235764 -0.0316234 0.0202574 0.973545 0.227597 0 
0.0910193 0.235852 -0.0317924 0.0178432 0.974236 0.224824 0 
0.0913 0.235744 -0.030921 -0.0901103 0.976401 0.196268 0 
0.0913601 0.235832 -0.0310899 -0.142398 0.968564 0.203976 0 
0.0915072 0.235583 -0.0311684 -0.131082 0.971028 0.199805 0 
0.0916107 0.235562 -0.0309061 -0.1788 0.964477 0.194461 0 
0.0918862 0.235706 -0.0308505 -0.167732 0.966084 0.196337 0 
0.0918127 0.235772 -0.0311973 -0.147572 0.968845 0.198902 0 
0.0919763 0.235839 -0.031104 -0.150455 0.968315 0.199321 0 
0.0914664 0.235765 -0.0314424 -0.124092 0.968431 0.216202 0 
0.0915972 0.235716 -0.0314219 -0.143313 0.967043 0.210451 0 
0.0920364 0.235928 -0.031273 -0.168738 0.96403 0.205363 0 
0.0917278 0.235386 -0.0301279 -0.105224 0.976722 0.186927 0 
0.0918779 0.235607 -0.0305504 -0.165972 0.968815 0.183985 0 
0.0923337 0.236018 -0.0310018 -0.187874 0.963018 0.193129 0 
0.0928847 0.236308 -0.0308908 -0.209693 0.961421 0.178041 0 
0.0918994 0.235154 -0.0298334 -0.0721281 0.976785 0.201714 0 
0.0920302 0.235104 -0.0298129 -0.111138 0.975267 0.191057 0 
0.0924828 0.235044 -0.0299203 -0.144199 0.97111 0.190138 0 
0.0929002 0.235429 -0.029215 -0.147347 0.963624 0.222976 0 
0.0918748 0.235136 -0.0302063 -0.110702 0.97642 0.185333 0 
0.0919349 0.235225 -0.0303753 -0.115894 0.975752 0.185679 0 
0.0924337 0.235127 -0.0298941 -0.140785 0.972809 0.183908 0 
0.0921804 0.235326 -0.0302353 -0.143336 0.972909 0.18139 0 
0.0921396 0.235508 -0.0305093 -0.164129 0.967973 0.189976 0 
0.0922704 0.235458 -0.0304888 -0.175829 0.965103 0.194063 0 
0.0922704 0.235458 -0.0304888 -0.175829 0.965103 0.194063 0 
0.0926139 0.235393 -0.0304011 -0.190407 0.96254 0.193033 0 
0.0925322 0.235477 -0.0296756 -0.135613 0.972103 0.191379 0 
0.0930884 0.235396 -0.0295208 -0.193033 0.96254 0.190407 0 
0.0927365 0.235244 -0.0300804 -0.178529 0.965621 0.188954 0 
0.0933255 0.235279 -0.0298526 -0.23395 0.955853 0.177802 0 
0.0929464 0.235156 -0.0301705 -0.208667 0.958273 0.195376 0 
0.0930855 0.235205 -0.0304501 -0.212212 0.960886 0.177942 0 
0.0934156 0.235412 -0.0301061 -0.245499 0.953825 0.173057 0 
0.092085 0.235446 -0.0307978 -0.169316 0.968076 0.184826 0 
0.0921151 0.235491 -0.0308823 -0.177444 0.967523 0.180034 0 
0.0923198 0.235774 -0.0310163 -0.187874 0.963018 0.193129 0 
0.0923305 0.235547 -0.0306578 -0.175207 0.966881 0.185589 0 
0.0926222 0.235492 -0.0307012 -0.177361 0.967069 0.182539 0 
0.0927041 0.235526 -0.0306545 -0.177361 0.967069 0.182539 0 
0.0926143 0.235791 -0.0309024 -0.201307 0.9618 0.185518 0 
0.0924668 0.235524 -0.0310947 -0.165972 0.968815 0.183985 0 
0.0926772 0.235952 -0.0309141 -0.204346 0.961087 0.185889 0 
0.0927123 0.235625 -0.0309547 -0.209693 0.961421 0.178041 0 
0.0927942 0.235658 -0.030908 -0.204865 0.960885 0.186361 0 
0.0929496 0.235626 -0.0305146 -0.212212 0.960886 0.177942 0 
0.0934077 0.235711 -0.0303073 -0.250215 0.950817 0.182589 0 
0.0934488 0.235927 -0.0305346 -0.230242 0.9569 0.177007 0 
0.0936207 0.236093 -0.0307415 -0.235492 0.956602 0.17163 0 
0.0932523 0.235743 -0.0307008 -0.221422 0.95861 0.178994 0 
0.093097 0.235775 -0.0310943 -0.193264 0.966321 0.169917 0 
0.0933425 0.235876 -0.0309543 -0.209259 0.962066 0.175041 0 
0.09105 0.236575 -0.0336516 0.136134 0.944848 0.297876 0 
0.091216 0.236198 -0.0336717 0.172275 0.938552 0.299069 0 
0.0912571 0.236414 -0.033899 0.160867 0.936328 0.312109 0 
0.090791 0.236629 -0.0343074 0.163966 0.935568 0.312775 0 
0.0910254 0.236558 -0.0340246 0.161005 0.937129 0.309624 0 
0.0912002 0.236796 -0.0340741 0.15164 0.938529 0.310111 0 
0.0912871 0.236458 -0.0339835 0.163117 0.938949 0.302931 0 
0.0913662 0.236419 -0.0340941 0.16664 0.937868 0.304359 0 
0.0909467 0.236995 -0.0344153 0.154438 0.938929 0.307509 0 
0.0911266 0.236862 -0.0344209 0.151506 0.940426 0.304376 0 
0.0912136 0.236524 -0.0343303 0.148842 0.938116 0.312705 0 
0.0913393 0.236846 -0.0343537 0.140096 0.93987 0.311476 0 
0.0911867 0.236951 -0.0345899 0.136494 0.941944 0.306774 0 
0.091274 0.237011 -0.0350007 0.148713 0.940027 0.306975 0 
0.0915274 0.236812 -0.0346595 0.130518 0.943225 0.305438 0 
0.0916175 0.236945 -0.0349129 0.136494 0.941944 0.306774 0 
0.0916065 0.236774 -0.0347701 0.148713 0.940027 0.306975 0 
0.0909133 0.236318 -0.0319414 -0.0156205 0.96967 0.243919 0 
0.0908639 0.235884 -0.0321859 0.125444 0.96346 0.236662 0 
0.090894 0.235929 -0.0322704 0.1087 0.965512 0.236582 0 
0.0911094 0.235985 -0.0320459 0.0326754 0.971791 0.233569 0 
0.0914529 0.235919 -0.0319582 -0.0939797 0.971124 0.219286 0 
0.0910168 0.236178 -0.0324511 0.0714897 0.966993 0.24457 0 
0.0911995 0.236118 -0.0322994 0.0427434 0.970886 0.235699 0 
0.0915921 0.235969 -0.0322378 -0.0970624 0.969364 0.225639 0 
0.0912896 0.236251 -0.0325529 0.0180543 0.968913 0.246742 0 
0.0915185 0.236035 -0.0325846 -0.0302939 0.970617 0.238716 0 
0.0913928 0.235831 -0.0317892 -0.0940311 0.971655 0.216898 0 
0.0916874 0.235848 -0.0316753 -0.12668 0.968653 0.213692 0 
0.0916656 0.235903 -0.031891 -0.113091 0.969534 0.217287 0 
0.0915921 0.235969 -0.0322378 -0.0970624 0.969364 0.225639 0 
0.0912137 0.23676 -0.0327863 0.0406405 0.966752 0.252464 0 
0.0912406 0.236334 -0.0325267 0.0180543 0.968913 0.246742 0 
0.0913307 0.236467 -0.0327802 0.0483592 0.965943 0.254196 0 
0.0914177 0.236129 -0.0326896 0.0132558 0.967673 0.25186 0 
0.0914967 0.23609 -0.0328003 0.0381333 0.965634 0.257092 0 
0.0912571 0.236532 -0.033127 0.114666 0.952912 0.280733 0 
0.0911073 0.236709 -0.0332059 0.112092 0.950804 0.288802 0 
0.0912623 0.236161 -0.0330831 0.117058 0.953562 0.277519 0 
0.0912378 0.236143 -0.0334561 0.126221 0.949983 0.285659 0 
0.0910448 0.236947 -0.0336955 0.139977 0.939071 0.31393 0 
0.0909579 0.237285 -0.0337861 0.122574 0.94153 0.313843 0 
0.0912844 0.236504 -0.0333688 0.126221 0.949983 0.285659 0 
0.0915681 0.23663 -0.0343855 0.148842 0.938116 0.312705 0 
0.0917618 0.236742 -0.0343766 0.121641 0.945056 0.303434 0 
0.0922528 0.236943 -0.0340966 0.0985666 0.950182 0.2957 0 
0.0914041 0.236165 -0.0339774 0.229621 0.922763 0.309489 0 
0.0920909 0.235871 -0.0317566 -0.143873 0.965633 0.216457 0 
0.0921209 0.235916 -0.0318411 -0.123547 0.969274 0.212705 0 
0.0917801 0.235936 -0.0325435 -0.0759664 0.970129 0.23039 0 
0.0916437 0.23584 -0.0328787 0.101171 0.96433 0.244604 0 
0.0914694 0.236 -0.0333305 0.184854 0.94344 0.275227 0 
0.0916003 0.23595 -0.03331 0.157488 0.948964 0.273248 0 
0.0927343 0.235732 -0.0327845 -0.0758691 0.971373 0.22512 0 
0.0928245 0.235865 -0.0330379 -0.0730824 0.972367 0.221724 0 
0.0926442 0.235599 -0.032531 -0.110458 0.968727 0.222185 0 
0.092868 0.235755 -0.0326066 -0.0727713 0.973162 0.218314 0 
0.0928273 0.236173 -0.0313365 -0.144199 0.97111 0.190138 0 
0.092734 0.235452 -0.0315111 -0.16339 0.968764 0.186548 0 
0.0932583 0.236286 -0.0308875 -0.216266 0.959265 0.181769 0 
0.0934325 0.236009 -0.0312078 -0.193349 0.966744 0.167396 0 
0.0933917 0.236073 -0.0322538 -0.134629 0.968048 0.21156 0 
0.0930399 0.235921 -0.0328134 -0.0838416 0.969809 0.229 0 
0.0932363 0.236105 -0.0326473 -0.0780505 0.972534 0.219285 0 
0.093302 0.236338 -0.0325017 -0.12197 0.966769 0.224681 0 
0.0934574 0.236306 -0.0321082 -0.133845 0.970055 0.202679 0 
0.0934005 0.236689 -0.0322832 -0.148199 0.961327 0.232135 0 
0.0933803 0.235385 -0.0323817 -0.111138 0.975267 0.191057 0 
0.0934704 0.235518 -0.0326351 -0.0956485 0.975118 0.199992 0 
0.0939689 0.234903 -0.0324246 0.0522288 0.99457 0.0900114 0 
0.0915295 0.236088 -0.0334995 0.18601 0.941072 0.282459 0 
0.0916386 0.236094 -0.0336946 0.180397 0.940544 0.287809 0 
0.0917286 0.236226 -0.0339481 0.180896 0.937621 0.29689 0 
0.0917804 0.236216 -0.0338169 0.180397 0.940544 0.287809 0 
0.0917397 0.236398 -0.0340909 0.187858 0.933723 0.304747 0 
0.0918215 0.236432 -0.0340443 0.180896 0.937621 0.29689 0 
0.0922307 0.236599 -0.0338109 0.100116 0.955656 0.276945 0 
0.092184 0.236239 -0.0338982 0.165469 0.942218 0.291281 0 
0.0930616 0.235748 -0.0333698 -0.0679502 0.972305 0.223618 0 
0.0918298 0.236531 -0.0343444 0.182324 0.933889 0.307585 0 
0.0921243 0.236548 -0.0342305 0.179012 0.933913 0.309454 0 
0.0925168 0.2364 -0.0341689 0.132681 0.947531 0.290826 0 
0.0918899 0.236619 -0.0345134 0.166931 0.936742 0.307649 0 
0.09201 0.236797 -0.0348513 0.147938 0.943274 0.297233 0 
0.0926804 0.236349 -0.0348476 0.224007 0.923138 0.312469 0 
0.0930295 0.236428 -0.0344453 0.187858 0.933723 0.304747 0 
0.092754 0.236283 -0.0345008 0.231029 0.919813 0.317127 0 
0.0929473 0.235996 -0.0339906 0.16705 0.946617 0.2757 0 
0.0930374 0.236129 -0.0342441 0.179477 0.933557 0.310258 0 
0.0934789 0.235897 -0.0342086 0.247134 0.914829 0.319395 0 
0.09352 0.236113 -0.034436 0.262726 0.913008 0.312077 0 
0.093515 0.236721 -0.0329358 -0.121504 0.968196 0.218707 0 
0.093228 0.235888 -0.0331192 -0.0730824 0.972367 0.221724 0 
0.0932937 0.236121 -0.0329736 -0.0833744 0.971872 0.220258 0 
0.0933838 0.236254 -0.0332271 -0.0704478 0.972674 0.221231 0 
0.0933671 0.235937 -0.0333988 -0.00115774 0.97829 0.207235 0 
0.0936537 0.236254 -0.0334861 -0.0621152 0.975574 0.210705 0 
0.0934572 0.23607 -0.0336523 0.0223785 0.978765 0.203762 0 
0.0938829 0.236436 -0.0340192 0.0793446 0.97777 0.194089 0 
0.0936094 0.235449 -0.0336868 0.0824771 0.976184 0.200653 0 
0.0945257 0.2355 -0.0340444 0.684018 0.680843 0.261863 0 
0.0927501 0.235326 -0.0280205 0.0183347 0.96196 0.272576 0 
0.0928403 0.235459 -0.028274 -0.0281806 0.964267 0.263428 0 
0.0926058 0.23553 -0.0285568 -0.0356141 0.966493 0.254211 0 
0.0931837 0.235393 -0.0281863 -0.05898 0.962503 0.264782 0 
0.0929821 0.235463 -0.0291684 -0.147347 0.963624 0.222976 0 
0.0932192 0.235346 -0.0295002 -0.208667 0.958273 0.195376 0 
0.0933093 0.235479 -0.0297537 -0.237457 0.953852 0.183794 0 
0.0933994 0.235612 -0.0300072 -0.236966 0.954558 0.180737 0 
0.0933425 0.235994 -0.0301823 -0.236966 0.954558 0.180737 0 
0.093716 0.235973 -0.030179 -0.286194 0.94539 0.155983 0 
0.0940105 0.23599 -0.0300651 -0.320626 0.934355 0.155497 0 
0.0934326 0.236127 -0.0304357 -0.237457 0.953852 0.183794 0 
0.0937081 0.236272 -0.0303802 -0.259599 0.950967 0.168134 0 
0.0935227 0.23626 -0.0306892 -0.232869 0.956758 0.174319 0 
0.0940516 0.236206 -0.0302925 -0.328124 0.935357 0.132066 0 
0.0934658 0.236642 -0.0308643 -0.232869 0.956758 0.174319 0 
0.0936543 0.237125 -0.0308993 -0.252872 0.950636 0.17985 0 
0.0940468 0.236976 -0.0308377 -0.362954 0.924506 0.116419 0 
0.0942516 0.237259 -0.0309717 -0.457675 0.879482 0.130559 0 
0.0940199 0.237402 -0.0310973 -0.377718 0.914107 0.147437 0 
0.0942654 0.237503 -0.0309573 -0.570146 0.817162 0.0847321 0 
0.0937502 0.237683 -0.0321116 -0.181792 0.96827 0.171478 0 
0.0942333 0.238183 -0.0320328 -0.703562 0.706463 0.0768841 0 
0.0937982 0.236405 -0.0306337 -0.264393 0.951546 0.157025 0 
0.0938093 0.236576 -0.0307765 -0.248132 0.953632 0.170339 0 
0.0940437 0.236505 -0.0304936 -0.343903 0.930319 0.127422 0 
0.0941338 0.236638 -0.0307471 -0.357275 0.926724 0.116354 0 
0.0942319 0.236472 -0.0307994 -0.357275 0.926724 0.116354 0 
0.0943386 0.236921 -0.0308811 -0.436164 0.893364 0.107989 0 
0.0943986 0.23701 -0.0310501 -0.467856 0.877761 0.103183 0 
0.0911514 0.23716 -0.0353213 0.136024 0.944087 0.30033 0 
0.091304 0.237055 -0.0350851 0.148713 0.940027 0.306975 0 
0.0916776 0.237034 -0.0350819 0.121641 0.945056 0.303434 0 
0.0911597 0.237259 -0.0356215 0.121012 0.948149 0.293886 0 
0.0913941 0.237188 -0.0353386 0.136494 0.941944 0.306774 0 
0.0914542 0.237276 -0.0355076 0.133147 0.945478 0.297227 0 
0.0917377 0.237122 -0.0352509 0.136134 0.944848 0.297876 0 
0.0916941 0.237232 -0.0356822 0.150978 0.94259 0.297875 0 
0.0913016 0.237381 -0.0357438 0.126444 0.948995 0.288825 0 
0.0913917 0.237514 -0.0359973 0.120468 0.951829 0.281974 0 
0.0915443 0.237409 -0.0357611 0.126444 0.948995 0.288825 0 
0.0916344 0.237542 -0.0360146 0.105786 0.954686 0.278178 0 
0.0916423 0.237243 -0.0358134 0.135075 0.948197 0.287535 0 
0.0914818 0.237647 -0.0362507 0.105035 0.958281 0.265829 0 
0.0915308 0.237563 -0.0362769 0.119309 0.955786 0.268774 0 
0.0918415 0.237381 -0.036262 0.117058 0.953562 0.277519 0 
0.0917815 0.237293 -0.036093 0.114666 0.952912 0.280733 0 
0.091515 0.238162 -0.0366793 0.10978 0.962193 0.249266 0 
0.0914055 0.23764 -0.0367548 0.115589 0.95978 0.255855 0 
0.0915308 0.237445 -0.037049 0.133564 0.963474 0.232116 0 
0.0915118 0.237573 -0.0371073 0.142527 0.961078 0.236674 0 
0.0915039 0.237872 -0.0373085 0.151051 0.960159 0.235114 0 
0.0916209 0.237578 -0.0373024 0.18921 0.954099 0.232151 0 
0.0914901 0.237746 -0.0365509 0.099474 0.959859 0.26225 0 
0.0916672 0.237541 -0.0367138 0.144505 0.955851 0.255866 0 
0.0917162 0.237457 -0.0367399 0.138603 0.957018 0.254765 0 
0.0916509 0.237622 -0.0373869 0.185782 0.955641 0.228552 0 
0.0914983 0.237727 -0.0376231 0.215296 0.951904 0.218004 0 
0.0915774 0.237688 -0.0377337 0.240239 0.945855 0.218274 0 
0.0914714 0.238153 -0.0378826 0.2008 0.952789 0.227753 0 
0.0915066 0.237826 -0.0379232 0.216576 0.949395 0.227473 0 
0.0914821 0.237809 -0.0382962 0.266232 0.938084 0.221628 0 
0.0916674 0.237821 -0.0379872 0.24702 0.942541 0.22494 0 
0.0917483 0.236896 -0.0348924 0.148713 0.940027 0.306975 0 
0.0921875 0.237108 -0.0347435 0.118502 0.946682 0.299583 0 
0.091691 0.236761 -0.0353382 0.136494 0.941944 0.306774 0 
0.0917811 0.236894 -0.0355916 0.139132 0.944206 0.298526 0 
0.0919938 0.236878 -0.0355244 0.151242 0.941516 0.301122 0 
0.0918412 0.236983 -0.0357606 0.132681 0.947531 0.290826 0 
0.0920839 0.237011 -0.0357779 0.141644 0.945645 0.292732 0 
0.0919313 0.237116 -0.0360141 0.128932 0.950379 0.28312 0 
0.0921739 0.237144 -0.0360314 0.140893 0.948677 0.283127 0 
0.0918249 0.237065 -0.0364337 0.113849 0.956594 0.268265 0 
0.0920866 0.236965 -0.0363926 0.131031 0.954276 0.26868 0 
0.0917348 0.236814 -0.0369523 0.149892 0.956389 0.250704 0 
0.0919446 0.236725 -0.0370424 0.172287 0.954924 0.241736 0 
0.0919067 0.23698 -0.0371591 0.181084 0.953708 0.240104 0 
0.0916778 0.237196 -0.0371274 0.162407 0.959919 0.228426 0 
0.0916343 0.237306 -0.0375586 0.224174 0.949684 0.21874 0 
0.0918549 0.236991 -0.0372902 0.174319 0.956758 0.232869 0 
0.0921604 0.23718 -0.0373192 0.224174 0.949684 0.21874 0 
0.0916943 0.237394 -0.0377276 0.245693 0.945712 0.212751 0 
0.091945 0.237123 -0.0375437 0.227473 0.949395 0.216576 0 
0.0920051 0.237212 -0.0377127 0.245693 0.945712 0.212751 0 
0.0917845 0.237527 -0.0379811 0.250414 0.942167 0.222744 0 
0.0918145 0.237571 -0.0380656 0.268444 0.93886 0.21559 0 
0.0921252 0.237389 -0.0380507 0.268444 0.93886 0.21559 0 
0.0921852 0.237478 -0.0382196 0.293622 0.931442 0.214948 0 
0.0921905 0.237224 -0.0374037 0.233232 0.947931 0.216865 0 
0.0922805 0.237357 -0.0376572 0.236419 0.947044 0.217287 0 
0.0923707 0.23749 -0.0379106 0.268444 0.93886 0.21559 0 
0.0928885 0.237265 -0.0373711 0.217443 0.952158 0.214742 0 
0.0929786 0.237397 -0.0376246 0.245057 0.946001 0.2122 0 
0.0930687 0.23753 -0.037878 0.263412 0.941938 0.208247 0 
0.0925416 0.236697 -0.0350694 0.179477 0.933557 0.310258 0 
0.0927405 0.236437 -0.0350166 0.243145 0.919346 0.309326 0 
0.0920155 0.236823 -0.0353088 0.151506 0.940426 0.304376 0 
0.0925827 0.236913 -0.0352967 0.142026 0.942785 0.301637 0 
0.0928773 0.236931 -0.0351828 0.154171 0.940034 0.304249 0 
0.0931196 0.236561 -0.0346988 0.227708 0.920857 0.3165 0 
0.0933762 0.236833 -0.0347016 0.136024 0.944087 0.30033 0 
0.0931607 0.236777 -0.0349261 0.160867 0.936328 0.312109 0 
0.0932809 0.236954 -0.0352641 0.142026 0.942785 0.301637 0 
0.0933682 0.237132 -0.0349028 0.112961 0.94754 0.299013 0 
0.0934821 0.236368 -0.0345527 0.265902 0.913948 0.306587 0 
0.0923404 0.237283 -0.0357807 0.140893 0.948677 0.283127 0 
0.0927219 0.236963 -0.0355763 0.144793 0.943185 0.299059 0 
0.0929374 0.237019 -0.0353518 0.136134 0.944848 0.297876 0 
0.0930575 0.237196 -0.0356898 0.144655 0.944992 0.293367 0 
0.0926266 0.237084 -0.0361388 0.164455 0.944598 0.284059 0 
0.092812 0.237096 -0.0358298 0.144655 0.944992 0.293367 0 
0.0929021 0.237228 -0.0360832 0.15875 0.945717 0.283579 0 
0.0932156 0.237119 -0.0359111 0.144655 0.944992 0.293367 0 
0.0932729 0.237253 -0.0354653 0.127328 0.944905 0.301565 0 
0.093461 0.237219 -0.035771 0.144655 0.944992 0.293367 0 
0.0927467 0.237261 -0.0364767 0.153053 0.954252 0.256863 0 
0.0933357 0.237296 -0.036249 0.164455 0.944598 0.284059 0 
0.0930902 0.237195 -0.036389 0.178104 0.947624 0.265117 0 
0.0929538 0.2371 -0.0367241 0.158163 0.955621 0.248541 0 
0.0932293 0.237245 -0.0366687 0.163658 0.95667 0.240831 0 
0.0933958 0.237384 -0.036418 0.176655 0.950702 0.254869 0 
0.0935159 0.237561 -0.036756 0.180151 0.956804 0.228192 0 
0.0935511 0.237352 -0.0360245 0.152668 0.94708 0.282368 0 
0.0936412 0.237485 -0.036278 0.175342 0.947393 0.267771 0 
0.0937203 0.237446 -0.0363886 0.176655 0.950702 0.254869 0 
0.093074 0.237277 -0.0370621 0.215296 0.951904 0.218004 0 
0.0933195 0.237377 -0.0369221 0.192032 0.954787 0.226947 0 
0.0934095 0.23751 -0.0371756 0.20511 0.95584 0.210473 0 
0.0935759 0.23765 -0.0369249 0.190903 0.957186 0.217603 0 
0.0934506 0.237726 -0.0374029 0.217443 0.952158 0.214742 0 
0.0932158 0.237399 -0.0371844 0.206215 0.9529 0.222388 0 
0.093336 0.237576 -0.0375224 0.220266 0.952686 0.209456 0 
0.0915314 0.238124 -0.0388237 0.348065 0.903206 0.251135 0 
0.0915204 0.237952 -0.0386808 0.349364 0.908926 0.227594 0 
0.0913978 0.238101 -0.0390015 0.34588 0.902233 0.257571 0 
0.0914551 0.238117 -0.0393278 0.386192 0.876883 0.286237 0 
0.0913815 0.238183 -0.0396746 0.376432 0.873262 0.309375 0 
0.0918318 0.238566 -0.0396686 0.365883 0.875995 0.314265 0 
0.0913433 0.238157 -0.0385179 0.281671 0.929939 0.236377 0 
0.0914903 0.237908 -0.0385963 0.309691 0.923364 0.226916 0 
0.0918508 0.238439 -0.0396102 0.358688 0.879315 0.313285 0 
0.0917665 0.238731 -0.0403155 0.377984 0.86768 0.322893 0 
0.0919056 0.238781 -0.0405952 0.374983 0.867818 0.326006 0 
0.0919657 0.238869 -0.0407641 0.390561 0.859852 0.328812 0 
0.0918103 0.238902 -0.0411576 0.396492 0.864935 0.307703 0 
0.0917938 0.238821 -0.0397853 0.367124 0.872872 0.321424 0 
0.0918808 0.238483 -0.0396947 0.365883 0.875995 0.314265 0 
0.0918839 0.238954 -0.0400387 0.358688 0.879315 0.313285 0 
0.0934386 0.239474 -0.0399241 0.341605 0.879064 0.332496 0 
0.0917085 0.237919 -0.0389865 0.358607 0.898732 0.252353 0 
0.0916021 0.237868 -0.0394062 0.374046 0.884792 0.277906 0 
0.0918476 0.237968 -0.0392662 0.358161 0.893172 0.271964 0 
0.091695 0.238073 -0.0395024 0.367278 0.881164 0.297752 0 
0.0917437 0.237709 -0.0382551 0.27486 0.936199 0.219051 0 
0.0917492 0.237736 -0.0387126 0.345216 0.911428 0.223885 0 
0.0919046 0.237704 -0.038319 0.279449 0.933839 0.223279 0 
0.0919947 0.237837 -0.0385725 0.322054 0.920358 0.221859 0 
0.0922754 0.23761 -0.0384731 0.330131 0.918936 0.2158 0 
0.0918093 0.237825 -0.0388815 0.370994 0.89889 0.233154 0 
0.091924 0.237975 -0.0387621 0.339095 0.909589 0.240131 0 
0.091973 0.237892 -0.0387882 0.345141 0.90727 0.240288 0 
0.0920844 0.237453 -0.0390967 0.339512 0.907794 0.246255 0 
0.0921418 0.237587 -0.0386509 0.32824 0.918784 0.219304 0 
0.0932569 0.237497 -0.0381838 0.30681 0.931637 0.194733 0 
0.0929379 0.237462 -0.0386706 0.307031 0.926752 0.216478 0 
0.092845 0.237256 -0.0385744 0.306597 0.928267 0.21052 0 
0.092935 0.237389 -0.0388279 0.302117 0.926209 0.225524 0 
0.093347 0.237629 -0.0384372 0.286556 0.935151 0.208277 0 
0.0931505 0.237446 -0.0386034 0.296962 0.930293 0.215333 0 
0.0918176 0.237924 -0.0391817 0.376247 0.885904 0.271317 0 
0.0919646 0.237674 -0.0392601 0.358449 0.893891 0.269208 0 
0.0921417 0.237469 -0.039423 0.335651 0.900491 0.276505 0 
0.0920547 0.237807 -0.0395135 0.358507 0.886517 0.292506 0 
0.0920196 0.238135 -0.039473 0.365654 0.883288 0.293426 0 
0.0921176 0.237968 -0.0395252 0.34907 0.888407 0.298133 0 
0.0920278 0.238234 -0.0397731 0.362283 0.877665 0.313776 0 
0.0923982 0.237742 -0.0394258 0.335651 0.900491 0.276505 0 
0.0923247 0.237807 -0.0397726 0.340522 0.889557 0.30452 0 
0.0924772 0.237703 -0.0395365 0.327237 0.898792 0.2917 0 
0.0925018 0.237602 -0.0399355 0.32531 0.888982 0.322312 0 
0.0925508 0.237519 -0.0399617 0.321766 0.890468 0.321766 0 
0.0930168 0.237305 -0.0395533 0.281671 0.917237 0.281671 0 
0.0933877 0.237329 -0.0389353 0.286111 0.931623 0.224097 0 
0.0934205 0.237446 -0.0388625 0.284793 0.932941 0.220258 0 
0.0936248 0.237212 -0.0392672 0.253705 0.934923 0.248098 0 
0.0937066 0.237246 -0.0392205 0.243884 0.937909 0.246672 0 
0.0938619 0.237095 -0.0395991 0.244946 0.93023 0.273264 0 
0.0940584 0.237279 -0.0394329 0.244523 0.937573 0.247318 0 
0.0919053 0.238383 -0.0400938 0.349723 0.879606 0.322472 0 
0.092412 0.237868 -0.0401834 0.346473 0.882068 0.319239 0 
0.092178 0.238455 -0.0401956 0.357262 0.877193 0.320776 0 
0.0919625 0.238399 -0.0404201 0.370474 0.873586 0.315589 0 
0.0921044 0.238521 -0.0405424 0.357262 0.877193 0.320776 0 
0.0924152 0.238338 -0.0405275 0.352718 0.879525 0.319414 0 
0.0920226 0.238487 -0.0405891 0.367739 0.871283 0.325014 0 
0.0920527 0.238531 -0.0406736 0.374983 0.867818 0.326006 0 
0.0921127 0.23862 -0.0408425 0.377984 0.86768 0.322893 0 
0.0925053 0.238471 -0.0407809 0.361477 0.873952 0.324872 0 
0.0920392 0.238686 -0.0411894 0.393232 0.867558 0.304487 0 
0.0922408 0.238498 -0.0409793 0.387307 0.867997 0.310764 0 
0.0923008 0.238586 -0.0411483 0.391224 0.863762 0.317582 0 
0.0925353 0.238515 -0.0408654 0.367124 0.872872 0.321424 0 
0.0923713 0.238168 -0.0396854 0.344688 0.886555 0.308563 0 
0.0920879 0.238322 -0.0399421 0.343472 0.882132 0.322288 0 
0.092382 0.237823 -0.040099 0.349467 0.881987 0.316184 0 
0.0922349 0.238073 -0.0400205 0.349467 0.881987 0.316184 0 
0.0923551 0.23825 -0.0403585 0.353058 0.880373 0.316692 0 
0.0925349 0.238117 -0.0403641 0.350063 0.880462 0.319755 0 
0.09248 0.237657 -0.0401512 0.343472 0.882132 0.322288 0 
0.0927745 0.237675 -0.0400373 0.32531 0.888982 0.322312 0 
0.0928614 0.237337 -0.0399468 0.306884 0.899897 0.309849 0 
0.0926606 0.238439 -0.0403875 0.349467 0.881987 0.316184 0 
0.0939501 0.238071 -0.0402405 0.32974 0.886836 0.323718 0 
0.0939583 0.23817 -0.0405407 0.343472 0.882132 0.322288 0 
0.0929512 0.236953 -0.0404709 0.311707 0.893362 0.323639 0 
0.0932317 0.236608 -0.0411436 0.327597 0.873083 0.361118 0 
0.0933108 0.236569 -0.0412542 0.342017 0.866545 0.363489 0 
0.0931065 0.236921 -0.0400775 0.285243 0.908389 0.305722 0 
0.0930002 0.23687 -0.040497 0.311707 0.893362 0.323639 0 
0.0935591 0.236861 -0.0401848 0.285243 0.908389 0.305722 0 
0.0930902 0.237003 -0.0407506 0.336312 0.885271 0.321231 0 
0.09405 0.237062 -0.0399048 0.255649 0.924049 0.284213 0 
0.0942386 0.237545 -0.0399399 0.274876 0.919613 0.280633 0 
0.094067 0.237777 -0.0402345 0.300938 0.89985 0.315763 0 
0.0933053 0.236543 -0.0407967 0.306009 0.894142 0.326907 0 
0.0931503 0.237091 -0.0409195 0.338781 0.876577 0.341819 0 
0.0942223 0.237627 -0.040613 0.314999 0.894238 0.317984 0 
0.094195 0.237537 -0.0411432 0.347459 0.870944 0.347459 0 
0.0935407 0.237859 -0.0376564 0.21926 0.953713 0.205808 0 
0.0937617 0.237942 -0.0378893 0.242587 0.950019 0.196509 0 
0.0938518 0.238075 -0.0381428 0.238659 0.947818 0.211384 0 
0.0934941 0.237498 -0.0377436 0.243082 0.949242 0.199626 0 
0.0934861 0.237797 -0.0379448 0.256928 0.9439 0.207466 0 
0.0936743 0.237764 -0.0382506 0.279213 0.937657 0.206979 0 
0.0935679 0.237713 -0.0386702 0.28091 0.934968 0.216622 0 
0.0938134 0.237813 -0.0385302 0.267207 0.940069 0.211827 0 
0.0939035 0.237946 -0.0387837 0.247997 0.940726 0.231371 0 
0.093805 0.237596 -0.0390021 0.240327 0.940471 0.240327 0 
0.0939936 0.238079 -0.0390372 0.247796 0.936586 0.247796 0 
0.0939932 0.237562 -0.0393079 0.244523 0.937573 0.247318 0 
0.0939853 0.237861 -0.0395091 0.254711 0.926352 0.277479 0 
0.0940184 0.238376 -0.0399376 0.312809 0.899882 0.303914 0 
0.0940264 0.238077 -0.0397364 0.29085 0.910551 0.293773 0 
0.0906005 0.239673 -0.044734 0.255791 0.897486 0.35929 0 
0.0905269 0.239739 -0.0450808 0.259346 0.882977 0.391268 0 
0.0908376 0.239557 -0.0450659 0.300906 0.869114 0.392552 0 
0.090944 0.239608 -0.0446463 0.294614 0.889823 0.348452 0 
0.0912385 0.239625 -0.0445324 0.287145 0.885488 0.36532 0 
0.0911649 0.239691 -0.0448792 0.300906 0.869114 0.392552 0 
0.0913287 0.239876 -0.0440138 0.224962 0.918475 0.325263 0 
0.0914539 0.239682 -0.0443079 0.281824 0.893188 0.350416 0 
0.0914757 0.239627 -0.0440922 0.298688 0.896065 0.328409 0 
0.0916393 0.239694 -0.0439989 0.290152 0.894263 0.340742 0 
0.091574 0.239859 -0.0446459 0.278014 0.88213 0.380203 0 
0.0918682 0.239478 -0.0440307 0.238926 0.913711 0.328704 0 
0.0916338 0.239549 -0.0443135 0.277879 0.896049 0.346235 0 
0.0917808 0.2393 -0.0443919 0.240925 0.906753 0.346055 0 
0.0920453 0.239273 -0.0441935 0.233005 0.913206 0.334311 0 
0.0919065 0.239621 -0.0444153 0.265033 0.895783 0.356833 0 
0.0917539 0.239726 -0.0446515 0.26434 0.888599 0.374855 0 
0.0918682 0.23936 -0.0448027 0.257001 0.892817 0.369903 0 
0.0921054 0.239361 -0.0443625 0.236133 0.911212 0.33754 0 
0.0921136 0.239461 -0.0446627 0.209362 0.908198 0.362413 0 
0.0923962 0.238273 -0.0449473 0.211861 0.898582 0.384272 0 
0.0927986 0.236865 -0.0450687 0.418777 0.860564 0.289923 0 
0.0930223 0.237021 -0.0451443 0.334272 0.871551 0.358694 0 
0.0932899 0.237465 -0.04529 0.227748 0.858203 0.460021 0 
0.0905696 0.241903 -0.0449974 0.202886 0.852121 0.482418 0 
0.090349 0.242218 -0.0452658 0.285529 0.751309 0.594986 0 
0.0902897 0.239738 -0.045521 0.229189 0.870319 0.435909 0 
0.0906332 0.239672 -0.0454332 0.248344 0.871463 0.422938 0 
0.0906633 0.239716 -0.0455177 0.252487 0.869343 0.424844 0 
0.0905411 0.240381 -0.0455677 0.195859 0.879156 0.434424 0 
0.0906668 0.240703 -0.0455911 0.186858 0.878379 0.439925 0 
0.0909772 0.240123 -0.0450748 0.198929 0.898811 0.390598 0 
0.0909606 0.239806 -0.0452465 0.254624 0.872349 0.417341 0 
0.091195 0.239735 -0.0449637 0.293104 0.860896 0.41587 0 
0.0914187 0.239891 -0.0450393 0.254231 0.877023 0.407673 0 
0.0910562 0.240084 -0.0451854 0.183064 0.900907 0.393516 0 
0.0914487 0.239935 -0.0451238 0.219548 0.891455 0.396366 0 
0.0910811 0.2405 -0.0453138 0.172499 0.891485 0.418926 0 
0.0912443 0.24005 -0.0454912 0.216087 0.8718 0.439626 0 
0.0913535 0.240174 -0.0449142 0.184948 0.907534 0.377064 0 
0.0918444 0.240257 -0.0454063 0.212406 0.877846 0.429268 0 
0.0907079 0.240919 -0.0458184 0.186134 0.880839 0.43529 0 
0.0908633 0.240887 -0.0454249 0.121891 0.903674 0.410506 0 
0.0906502 0.240387 -0.0457628 0.18589 0.88261 0.431791 0 
0.092442 0.24079 -0.04598 0.158216 0.878171 0.451424 0 
0.0915385 0.23967 -0.0448759 0.279999 0.876321 0.391998 0 
0.0916286 0.239802 -0.0451294 0.252147 0.871189 0.421251 0 
0.0917839 0.23977 -0.044736 0.24177 0.888467 0.390095 0 
0.0920784 0.239788 -0.0446221 0.227347 0.899122 0.374023 0 
0.091893 0.239776 -0.0449311 0.23664 0.882563 0.406306 0 
0.0920567 0.239843 -0.0448377 0.238619 0.890744 0.386829 0 
0.0922856 0.239627 -0.0448695 0.22567 0.892355 0.390866 0 
0.0917187 0.239935 -0.0453829 0.25535 0.848617 0.463299 0 
0.0917677 0.239852 -0.0454091 0.25535 0.848617 0.463299 0 
0.0919313 0.239919 -0.0453157 0.246819 0.864625 0.437612 0 
0.0919914 0.240008 -0.0454847 0.251833 0.850126 0.462456 0 
0.0922748 0.239854 -0.045228 0.242696 0.869786 0.429617 0 
0.0923349 0.239942 -0.045397 0.237895 0.859151 0.453062 0 
0.0922938 0.239726 -0.0451696 0.221119 0.882993 0.414042 0 
0.0923239 0.23977 -0.0452541 0.239227 0.871148 0.428803 0 
0.0923887 0.239089 -0.0448778 0.166077 0.912716 0.373319 0 
0.0924978 0.239094 -0.045073 0.170549 0.904339 0.391259 0 
0.0920815 0.24014 -0.0457382 0.206716 0.869994 0.447638 0 
0.0922614 0.240008 -0.0457438 0.242465 0.84634 0.474256 0 
0.092384 0.239859 -0.0454231 0.240454 0.860492 0.44915 0 
0.0924741 0.239992 -0.0456766 0.22542 0.854779 0.467481 0 
0.0921444 0.240301 -0.0457499 0.214288 0.861649 0.460046 0 
0.0924551 0.240119 -0.0457349 0.21193 0.858241 0.467448 0 
0.0923981 0.240501 -0.04591 0.191574 0.862824 0.467796 0 
0.0924472 0.240418 -0.0459361 0.212356 0.850932 0.480437 0 
0.092646 0.240158 -0.0458834 0.215541 0.851612 0.477807 0 
0.092589 0.24054 -0.0460584 0.186426 0.854578 0.484708 0 
0.0926491 0.240629 -0.0462275 0.127401 0.87749 0.462364 0 
0.0927693 0.240806 -0.0465654 0.119164 0.868605 0.480963 0 
0.0929163 0.240556 -0.0466438 0.0854947 0.878773 0.46952 0 
0.0929732 0.240174 -0.0464687 0.163871 0.851834 0.497518 0 
0.0926601 0.240682 -0.0471423 0.076482 0.883019 0.463064 0 
0.0925048 0.240833 -0.0467637 0.121993 0.868304 0.480797 0 
0.0927175 0.240817 -0.0466966 0.121993 0.868304 0.480797 0 
0.0925949 0.240965 -0.0470172 0.0882894 0.881493 0.46387 0 
0.0928261 0.240305 -0.0471624 0.0474646 0.89369 0.446167 0 
0.0926221 0.240937 -0.047259 0.0881856 0.883256 0.460525 0 
0.0927692 0.240688 -0.0473374 0.0117984 0.905852 0.42343 0 
0.0929162 0.240438 -0.0474158 0.0306093 0.903639 0.427199 0 
0.0929763 0.240527 -0.0475848 0.0117852 0.904845 0.425578 0 
0.0931917 0.240583 -0.0473603 0.0118426 0.901357 0.432915 0 
0.0927123 0.24107 -0.0475125 -0.0699789 0.936133 0.344613 0 
0.0928024 0.241203 -0.047766 -0.169458 0.938217 0.301717 0 
0.0928593 0.24082 -0.0475909 -0.0195502 0.916251 0.400127 0 
0.0930363 0.240615 -0.0477538 -0.0383141 0.915576 0.400317 0 
0.0929494 0.240953 -0.0478444 -0.184366 0.935694 0.300808 0 
0.0930964 0.240704 -0.0479228 -0.196241 0.924733 0.326127 0 
0.0928925 0.241335 -0.0480195 -0.346802 0.913773 0.211535 0 
0.0930395 0.241086 -0.0480978 -0.357162 0.909534 0.212562 0 
0.0931865 0.240837 -0.0481763 -0.409284 0.892851 0.187892 0 
0.0932518 0.240672 -0.0475293 -0.0552899 0.904866 0.422091 0 
0.0933419 0.240804 -0.0477828 -0.24311 0.909843 0.336278 0 
0.09353 0.240771 -0.0480886 -0.411829 0.881641 0.230446 0 
0.0935901 0.240859 -0.0482575 -0.476671 0.863875 0.162802 0 
0.0932766 0.240969 -0.0484298 -0.451629 0.878571 0.155384 0 
0.0935822 0.241159 -0.0484587 -0.536517 0.836036 0.114864 0 
0.0938411 0.240987 -0.0485749 -0.561919 0.820373 0.105995 0 
0.0938494 0.241086 -0.0488751 -0.558805 0.819875 0.124668 0 
0.0916691 0.239576 -0.042038 0.267955 0.928628 0.256613 0 
0.0919004 0.239034 -0.0414111 0.420566 0.854997 0.303486 0 
0.0919905 0.239167 -0.0416646 0.419823 0.862545 0.282426 0 
0.0918435 0.239417 -0.0415861 0.387567 0.873926 0.293335 0 
0.0920205 0.239211 -0.0417491 0.41656 0.865163 0.279233 0 
0.0919636 0.239594 -0.0419241 0.313252 0.910615 0.269542 0 
0.0916145 0.239396 -0.0430985 0.300726 0.924983 0.232315 0 
0.0920154 0.239465 -0.042565 0.346584 0.909239 0.230573 0 
0.0918767 0.239932 -0.0420147 0.257176 0.934547 0.245933 0 
0.0919581 0.239449 -0.0422387 0.328413 0.90934 0.255433 0 
0.0919802 0.239792 -0.0425244 0.266232 0.938084 0.221628 0 
0.0916445 0.23944 -0.043183 0.308724 0.920427 0.239799 0 
0.0917374 0.239646 -0.0432791 0.275898 0.924902 0.261603 0 
0.0916477 0.239911 -0.043527 0.2611 0.918899 0.295721 0 
0.0917947 0.239662 -0.0436054 0.273212 0.917934 0.287667 0 
0.0921293 0.238818 -0.0414428 0.414377 0.858021 0.303465 0 
0.0920775 0.238829 -0.041574 0.418777 0.860564 0.289923 0 
0.0923063 0.238613 -0.0416057 0.415494 0.860119 0.295905 0 
0.0923664 0.238702 -0.0417747 0.436417 0.855991 0.277163 0 
0.0921676 0.238962 -0.0418275 0.441661 0.857342 0.264385 0 
0.0921921 0.238861 -0.0422266 0.484484 0.842115 0.236893 0 
0.0924565 0.238835 -0.0420282 0.497943 0.830933 0.248201 0 
0.0921023 0.239127 -0.0424744 0.418076 0.87661 0.238258 0 
0.0922193 0.238833 -0.0424684 0.455466 0.85797 0.237568 0 
0.0918979 0.239242 -0.0428417 0.321813 0.916373 0.238113 0 
0.0919469 0.239159 -0.0428679 0.432537 0.875478 0.215525 0 
0.0923094 0.238966 -0.0427218 0.487671 0.84317 0.226365 0 
0.0922359 0.239032 -0.0430686 0.403026 0.879465 0.253202 0 
0.0922087 0.239178 -0.0420548 0.430028 0.864615 0.25984 0 
0.0937954 0.239017 -0.0408647 0.357865 0.875627 0.324363 0 
0.0939345 0.239067 -0.0411442 0.268778 0.895433 0.354906 0 
0.0937488 0.238538 -0.0417239 0.316298 0.888934 0.331289 0 
0.093659 0.238922 -0.0411998 0.321231 0.885271 0.336312 0 
0.0939262 0.23885 -0.0416161 0.294614 0.889823 0.348452 0 
0.0935938 0.239087 -0.0418467 0.306009 0.894142 0.326907 0 
0.0935854 0.23887 -0.0423186 0.314922 0.900412 0.300137 0 
0.0938309 0.23897 -0.0421786 0.276395 0.908156 0.314418 0 
0.093921 0.239103 -0.0424321 0.247134 0.914829 0.319395 0 
0.0940843 0.238772 -0.0418374 0.270932 0.898666 0.344957 0 
0.0937894 0.238238 -0.0422219 0.431249 0.860973 0.269721 0 
0.0939696 0.238504 -0.0427289 0.307933 0.903172 0.299093 0 
0.0918244 0.239308 -0.0431886 0.363277 0.903086 0.229054 0 
0.0918845 0.239396 -0.0433575 0.341068 0.9061 0.250312 0 
0.092007 0.239247 -0.0430369 0.377281 0.896961 0.230479 0 
0.0920971 0.23938 -0.0432903 0.308279 0.916154 0.256176 0 
0.0922659 0.239076 -0.0431531 0.359795 0.900223 0.245248 0 
0.0918927 0.239496 -0.0436577 0.278269 0.918433 0.281153 0 
0.0921872 0.239513 -0.0435438 0.263052 0.9214 0.286051 0 
0.0921188 0.239207 -0.0438467 0.228002 0.927584 0.295977 0 
0.0922742 0.239175 -0.0434533 0.263977 0.92606 0.269685 0 
0.0923343 0.239264 -0.0436222 0.235757 0.930321 0.280931 0 
0.0923588 0.239163 -0.0440213 0.201864 0.927445 0.314795 0 
0.0924188 0.239251 -0.0441903 0.199996 0.923388 0.327654 0 
0.092539 0.239428 -0.0445283 0.174164 0.91613 0.361071 0 
0.0938637 0.238969 -0.0428778 0.226118 0.925805 0.302913 0 
0.0938067 0.239351 -0.0430529 0.128703 0.951344 0.279963 0 
0.0936103 0.239167 -0.043219 0.154171 0.940034 0.304249 0 
0.0941909 0.238985 -0.0434632 0.0311721 0.95636 0.290524 0 
0.0930943 0.238432 -0.0441427 0.148713 0.940027 0.306975 0 
0.0940379 0.238573 -0.0439701 0.0575095 0.952101 0.300327 0 
0.0934781 0.237549 -0.0448237 0.209362 0.908198 0.362413 0 
0.0942066 0.238151 -0.0446049 0.0513199 0.927706 0.369767 0 
0.093806 0.238436 -0.0428222 0.382259 0.877837 0.288583 0 
0.0938961 0.238569 -0.0430757 0.248329 0.920108 0.302875 0 
0.0942587 0.241727 -0.0455536 -0.241411 0.890111 0.386554 0 
0.0925361 0.239356 -0.0446856 0.177367 0.915216 0.36183 0 
0.0927247 0.239839 -0.0447206 0.172036 0.911362 0.373929 0 
0.0927164 0.239622 -0.0451925 0.162322 0.8978 0.409397 0 
0.0939267 0.239292 -0.044935 -0.0115798 0.925095 0.379559 0 
0.0927274 0.239793 -0.0453354 0.163657 0.887803 0.430143 0 
0.093063 0.240027 -0.0454489 0.15782 0.881765 0.444502 0 
0.0928096 0.240225 -0.04579 0.212356 0.850932 0.480437 0 
0.0928966 0.239887 -0.0456995 0.171243 0.873776 0.455183 0 
0.0929867 0.24002 -0.0459529 0.199929 0.849323 0.488548 0 
0.0933824 0.24046 -0.0454634 0.0277088 0.909111 0.415631 0 
0.0934124 0.240504 -0.0455479 0.0555035 0.900239 0.431844 0 
0.093837 0.239557 -0.0451828 -0.00386453 0.918471 0.39547 0 
0.0937334 0.239579 -0.0454451 0.0387207 0.903928 0.425928 0 
0.0941643 0.239692 -0.0449961 -0.0116323 0.918949 0.394205 0 
0.0935674 0.239956 -0.0454251 0.0331332 0.910501 0.412177 0 
0.0937801 0.23994 -0.0453578 0.0117531 0.910214 0.413971 0 
0.0938212 0.240156 -0.0455852 -0.00129888 0.905318 0.424733 0 
0.0939765 0.240124 -0.0451917 -0.0275625 0.914812 0.402937 0 
0.0940666 0.240256 -0.0454452 -0.0441434 0.908284 0.416018 0 
0.094339 0.239931 -0.0450456 -0.0329108 0.917554 0.396246 0 
0.0934515 0.238374 -0.0455846 0.148759 0.882444 0.446277 0 
0.0940327 0.238827 -0.044786 -0.0193073 0.928037 0.371987 0 
0.0937983 0.238898 -0.0450689 0.0464358 0.916775 0.396694 0 
0.0938884 0.23903 -0.0453223 0.0497959 0.903055 0.426629 0 
0.0943793 0.239232 -0.0450424 -0.0356855 0.913284 0.405757 0 
0.0939536 0.238747 -0.0454474 0.0415395 0.901809 0.430135 0 
0.094445 0.239465 -0.0448967 -0.0356375 0.914695 0.402571 0 
0.0957293 0.239586 -0.0440216 -0.480231 0.784216 0.392916 0 
0.0928997 0.240358 -0.0460435 0.16955 0.859546 0.482113 0 
0.0931452 0.240459 -0.0459035 0.137209 0.873808 0.466512 0 
0.0930468 0.240108 -0.0461219 0.156986 0.858289 0.488565 0 
0.0929297 0.240402 -0.046128 0.183403 0.848423 0.496529 0 
0.0935678 0.240354 -0.0459264 0.0588468 0.888176 0.45572 0 
0.0929898 0.240491 -0.046297 0.13795 0.861101 0.489361 0 
0.093227 0.240374 -0.0466289 0.0860646 0.8677 0.48958 0 
0.0936579 0.240487 -0.0461799 0.065143 0.877352 0.475405 0 
