0.1011 0.2323 -0.0486 0.501232 -0.850172 0.161163 0 
0.1014 0.2325 -0.0488 0.495292 -0.853085 0.164112 0 
0.1014 0.2326 -0.0484 0.490571 -0.855921 0.163524 0 
0.1008 0.2323 -0.0483 0.508178 -0.845976 0.161491 0 
0.1011 0.2325 -0.0483 0.504706 -0.848083 0.161328 0 
0.1014 0.2326 -0.0481 0.494045 -0.853887 0.163698 0 
0.1017 0.2326 -0.0488 0.494045 -0.853887 0.163698 0 
0.1017 0.2326 -0.0484 0.487328 -0.858346 0.16048 0 
0.1022 0.2328 -0.0486 0.486549 -0.860593 0.150494 0 
0.1017 0.2326 -0.0482 0.482629 -0.861105 0.159898 0 
0.0992 0.2313 -0.0468 0.558177 -0.809282 0.183034 0 
0.0992 0.2313 -0.0465 0.562999 -0.805802 0.18362 0 
0.0992 0.2314 -0.0454 0.560562 -0.808357 0.179803 0 
0.0992 0.2313 -0.0452 0.551544 -0.816045 0.172827 0 
0.0992 0.2314 -0.0452 0.551544 -0.816045 0.172827 0 
0.0992 0.2313 -0.0448 0.558713 -0.811715 0.170174 0 
0.0992 0.2314 -0.0448 0.56312 -0.809391 0.166683 0 
0.099 0.2319 -0.0452 0.551829 -0.816466 0.169909 0 
0.0992 0.2317 -0.0448 0.542789 -0.823903 0.162986 0 
0.0992 0.2322 -0.045 0.538012 -0.825751 0.169346 0 
0.099 0.2326 -0.0448 0.549675 -0.819271 0.163255 0 
0.0999 0.2311 -0.048 0.547508 -0.822008 0.156644 0 
0.0999 0.2311 -0.0478 0.550678 -0.819302 0.159682 0 
0.0999 0.2314 -0.048 0.54725 -0.821621 0.159552 0 
0.0999 0.2314 -0.0478 0.549592 -0.820665 0.156388 0 
0.0996 0.2313 -0.0475 0.549675 -0.819271 0.163255 0 
0.0998 0.2316 -0.0474 0.546234 -0.821596 0.163122 0 
0.0999 0.2317 -0.0475 0.546234 -0.821596 0.163122 0 
0.0998 0.2319 -0.0472 0.544928 -0.821145 0.169633 0 
0.1001 0.2317 -0.0478 0.544074 -0.82431 0.156514 0 
0.1002 0.2319 -0.0478 0.534822 -0.829793 0.159404 0 
0.1001 0.232 -0.0475 0.542522 -0.823498 0.165895 0 
0.0996 0.2311 -0.0472 0.551544 -0.816045 0.172827 0 
0.0995 0.2314 -0.0471 0.549159 -0.816968 0.176032 0 
0.0996 0.2316 -0.0472 0.549448 -0.817398 0.173114 0 
0.0996 0.2317 -0.0469 0.547052 -0.818318 0.176323 0 
0.0996 0.232 -0.047 0.542532 -0.822064 0.172829 0 
0.0993 0.2314 -0.0468 0.557118 -0.810765 0.179667 0 
0.0993 0.2314 -0.0466 0.558177 -0.809282 0.183034 0 
0.0995 0.2317 -0.0466 0.546759 -0.81788 0.179241 0 
0.0996 0.232 -0.0465 0.550216 -0.815526 0.179386 0 
0.0999 0.232 -0.0472 0.547033 -0.819801 0.169356 0 
0.1004 0.232 -0.0478 0.522052 -0.837365 0.162119 0 
0.1004 0.232 -0.0475 0.539076 -0.825786 0.165755 0 
0.1005 0.2329 -0.0474 0.518586 -0.839545 0.161965 0 
0.0999 0.232 -0.047 0.537737 -0.825329 0.172256 0 
0.0999 0.2323 -0.0469 0.530812 -0.829862 0.171953 0 
0.0995 0.232 -0.0466 0.546759 -0.81788 0.179241 0 
0.0998 0.2322 -0.0466 0.53422 -0.82616 0.179077 0 
0.0996 0.2325 -0.0465 0.541172 -0.821556 0.179386 0 
0.1001 0.2323 -0.0471 0.537737 -0.825329 0.172256 0 
0.1005 0.2323 -0.0471 0.536952 -0.827115 0.166021 0 
0.1004 0.2326 -0.0471 0.530031 -0.831626 0.165728 0 
0.1007 0.2326 -0.0471 0.522052 -0.837365 0.162119 0 
0.1001 0.2323 -0.0466 0.533178 -0.827552 0.175723 0 
0.1004 0.2328 -0.0468 0.525184 -0.833411 0.172069 0 
0.1007 0.2328 -0.0468 0.523876 -0.834322 0.17164 0 
0.1005 0.2329 -0.0465 0.522739 -0.834286 0.175245 0 
0.1008 0.2325 -0.048 0.505481 -0.846422 0.167506 0 
0.101 0.2326 -0.0477 0.503269 -0.84769 0.167756 0 
0.1013 0.2326 -0.048 0.498528 -0.850604 0.167162 0 
0.1013 0.2326 -0.0477 0.49157 -0.854712 0.166809 0 
0.1014 0.2326 -0.0478 0.493038 -0.85509 0.160421 0 
0.101 0.2326 -0.0474 0.514869 -0.841299 0.164699 0 
0.1016 0.2326 -0.0475 0.483851 -0.860343 0.160303 0 
0.1013 0.2326 -0.0474 0.498772 -0.851021 0.164284 0 
0.1017 0.2328 -0.0478 0.467779 -0.869982 0.155926 0 
0.1017 0.2326 -0.0475 0.482854 -0.861505 0.157038 0 
0.1017 0.2326 -0.0472 0.488091 -0.856739 0.166629 0 
0.101 0.2326 -0.0471 0.520754 -0.83825 0.161716 0 
0.1013 0.2326 -0.0471 0.505481 -0.846422 0.167506 0 
0.1016 0.2325 -0.0472 0.49157 -0.854712 0.166809 0 
0.1016 0.2325 -0.0469 0.510234 -0.843448 0.168095 0 
0.101 0.2326 -0.0468 0.523099 -0.836064 0.165424 0 
0.1011 0.2325 -0.0468 0.515901 -0.840012 0.168002 0 
0.101 0.2326 -0.0465 0.519255 -0.836494 0.17508 0 
0.1011 0.2325 -0.0465 0.517957 -0.837389 0.174643 0 
0.1014 0.2325 -0.0466 0.509977 -0.843023 0.170984 0 
0.1017 0.2325 -0.047 0.507933 -0.845568 0.164375 0 
0.1022 0.2325 -0.0471 0.463338 -0.86931 0.172097 0 
0.1017 0.2323 -0.0468 0.507772 -0.844301 0.171243 0 
0.0993 0.2311 -0.0463 0.56751 -0.801817 0.187141 0 
0.0993 0.2311 -0.046 0.569568 -0.800432 0.186818 0 
0.0993 0.2311 -0.0458 0.569568 -0.800432 0.186818 0 
0.0993 0.2314 -0.0463 0.559546 -0.808234 0.183483 0 
0.0993 0.2314 -0.046 0.559546 -0.808234 0.183483 0 
0.0995 0.2317 -0.0463 0.556089 -0.810648 0.183343 0 
0.0995 0.232 -0.0462 0.551572 -0.814513 0.179827 0 
0.0993 0.2314 -0.0458 0.562999 -0.805802 0.18362 0 
0.0993 0.2317 -0.046 0.559233 -0.807781 0.186411 0 
0.0993 0.2317 -0.0457 0.558177 -0.809282 0.183034 0 
0.0993 0.2311 -0.0454 0.569888 -0.800883 0.183884 0 
0.0993 0.2317 -0.0454 0.545992 -0.81974 0.172973 0 
0.0995 0.2323 -0.046 0.547809 -0.816432 0.182603 0 
0.0996 0.2322 -0.0464 0.550512 -0.815964 0.176465 0 
0.0996 0.2325 -0.0462 0.542218 -0.820123 0.182753 0 
0.0995 0.232 -0.0459 0.547809 -0.816432 0.182603 0 
0.0996 0.2323 -0.0458 0.540122 -0.822972 0.176029 0 
0.1001 0.2326 -0.0463 0.527256 -0.830691 0.178756 0 
0.1001 0.2326 -0.046 0.53422 -0.82616 0.179077 0 
0.1001 0.2326 -0.0458 0.528659 -0.831178 0.172226 0 
0.1004 0.2326 -0.0459 0.519255 -0.836494 0.17508 0 
0.1007 0.2326 -0.0459 0.515768 -0.838683 0.174913 0 
0.1004 0.2329 -0.0462 0.520281 -0.835148 0.178425 0 
0.1004 0.2329 -0.0464 0.522739 -0.834286 0.175245 0 
0.1007 0.2329 -0.046 0.504025 -0.845989 0.173956 0 
0.0993 0.232 -0.0456 0.543589 -0.820654 0.176177 0 
0.0993 0.2323 -0.0454 0.547052 -0.818318 0.176323 0 
0.0993 0.2322 -0.0453 0.542248 -0.821634 0.175742 0 
0.0999 0.2323 -0.0454 0.532132 -0.828927 0.172381 0 
0.0999 0.2328 -0.0454 0.529766 -0.831211 0.16863 0 
0.0993 0.2325 -0.0452 0.534549 -0.828027 0.169199 0 
0.1001 0.2326 -0.0454 0.532132 -0.828927 0.172381 0 
0.1004 0.2326 -0.0456 0.524911 -0.832979 0.17497 0 
0.1007 0.2326 -0.0456 0.519255 -0.836494 0.17508 0 
0.1005 0.2326 -0.0453 0.535323 -0.826226 0.175442 0 
0.1004 0.2326 -0.0453 0.535323 -0.826226 0.175442 0 
0.1005 0.2326 -0.045 0.532132 -0.828927 0.172381 0 
0.1004 0.2326 -0.045 0.532132 -0.828927 0.172381 0 
0.0998 0.2329 -0.0451 0.534276 -0.827604 0.172106 0 
0.1001 0.2329 -0.0451 0.532132 -0.828927 0.172381 0 
0.1014 0.2323 -0.0464 0.514477 -0.839567 0.174475 0 
0.1016 0.2322 -0.046 0.498307 -0.849354 0.174036 0 
0.101 0.2326 -0.0462 0.507772 -0.844301 0.171243 0 
0.1013 0.2326 -0.0462 0.500795 -0.848528 0.170894 0 
0.101 0.2326 -0.0459 0.504025 -0.845989 0.173956 0 
0.1013 0.2325 -0.0459 0.500795 -0.848528 0.170894 0 
0.1014 0.2325 -0.0458 0.500795 -0.848528 0.170894 0 
0.1017 0.2323 -0.0464 0.508521 -0.842564 0.17746 0 
0.101 0.2326 -0.0456 0.512279 -0.840854 0.174742 0 
0.101 0.2325 -0.0453 0.518225 -0.837822 0.171746 0 
0.1013 0.2326 -0.0456 0.494554 -0.850989 0.176732 0 
0.1014 0.2325 -0.0454 0.491315 -0.853492 0.173667 0 
0.101 0.2326 -0.045 0.524143 -0.834746 0.168741 0 
0.1013 0.2326 -0.0452 0.505296 -0.845141 0.174394 0 
0.1013 0.2326 -0.0448 0.509977 -0.843023 0.170984 0 
0.0992 0.2316 -0.0447 0.548593 -0.820648 0.159944 0 
0.0992 0.2317 -0.0446 0.542789 -0.823903 0.162986 0 
0.099 0.2316 -0.0444 0.558883 -0.813601 0.160323 0 
0.099 0.2313 -0.0441 0.572331 -0.805448 0.153917 0 
0.099 0.2316 -0.0441 0.555584 -0.817737 0.15044 0 
0.0992 0.2317 -0.0444 0.543818 -0.823922 0.159421 0 
0.099 0.2319 -0.0441 0.562304 -0.811217 0.160444 0 
0.0989 0.2311 -0.0436 0.594807 -0.787555 0.161125 0 
0.0987 0.2314 -0.0438 0.597315 -0.786892 0.154971 0 
0.0989 0.2317 -0.0438 0.571429 -0.8054 0.15748 0 
0.099 0.2319 -0.0438 0.572331 -0.805448 0.153917 0 
0.0987 0.2314 -0.0434 0.603751 -0.779278 0.167961 0 
0.0986 0.2313 -0.0434 0.629565 -0.757612 0.172254 0 
0.0987 0.2317 -0.0433 0.604866 -0.777684 0.171303 0 
0.0989 0.2317 -0.0434 0.586107 -0.794032 0.161217 0 
0.099 0.2319 -0.0434 0.58582 -0.793643 0.16415 0 
0.0989 0.2319 -0.0433 0.599574 -0.781723 0.171524 0 
0.099 0.2323 -0.0447 0.551761 -0.817922 0.162986 0 
0.0992 0.2322 -0.0445 0.551761 -0.817922 0.162986 0 
0.099 0.2322 -0.0442 0.558883 -0.813601 0.160323 0 
0.099 0.2322 -0.044 0.561204 -0.812624 0.157137 0 
0.099 0.2323 -0.0436 0.599259 -0.781313 0.174468 0 
0.099 0.2322 -0.0434 0.606294 -0.776482 0.171707 0 
0.0987 0.2314 -0.0431 0.630595 -0.758233 0.165626 0 
0.0987 0.2314 -0.043 0.640079 -0.749546 0.168762 0 
0.0987 0.2317 -0.043 0.620705 -0.766396 0.16542 0 
0.0989 0.2319 -0.043 0.618199 -0.767053 0.171638 0 
0.0986 0.2316 -0.0427 0.639407 -0.749281 0.172442 0 
0.0987 0.2317 -0.0427 0.626989 -0.760584 0.168513 0 
0.0987 0.232 -0.0427 0.645577 -0.743253 0.175512 0 
0.0984 0.2316 -0.0418 0.658825 -0.732198 0.172731 0 
0.0984 0.2319 -0.0418 0.650127 -0.74148 0.165958 0 
0.0986 0.2316 -0.0424 0.638278 -0.751005 0.16909 0 
0.0984 0.2316 -0.0421 0.667452 -0.722689 0.179522 0 
0.0986 0.2319 -0.0424 0.627307 -0.76097 0.16556 0 
0.0987 0.232 -0.0424 0.638278 -0.751005 0.16909 0 
0.0984 0.2319 -0.0421 0.657695 -0.733994 0.169383 0 
0.099 0.2323 -0.043 0.637305 -0.747873 0.185817 0 
0.099 0.2323 -0.0428 0.645577 -0.743253 0.175512 0 
0.0989 0.2323 -0.0425 0.646693 -0.74148 0.178873 0 
0.0987 0.2323 -0.0422 0.647695 -0.742182 0.172211 0 
0.0986 0.232 -0.0421 0.64592 -0.743648 0.172551 0 
0.0984 0.2322 -0.0418 0.664083 -0.728202 0.169456 0 
0.0986 0.2325 -0.0419 0.637947 -0.750615 0.172048 0 
0.0984 0.2326 -0.0416 0.660656 -0.733556 0.159469 0 
0.0993 0.2311 -0.0447 0.559697 -0.811786 0.166559 0 
0.0993 0.2311 -0.0444 0.555457 -0.815968 0.160199 0 
0.0993 0.2323 -0.0447 0.547033 -0.819801 0.169356 0 
0.0996 0.2322 -0.0445 0.543587 -0.822119 0.169216 0 
0.1004 0.2326 -0.0447 0.527614 -0.832525 0.168896 0 
0.1007 0.2326 -0.0447 0.529766 -0.831211 0.16863 0 
0.1001 0.2328 -0.0442 0.575459 -0.795262 0.190802 0 
0.1004 0.2326 -0.0444 0.545692 -0.817782 0.182905 0 
0.1007 0.2326 -0.0444 0.520669 -0.836949 0.168583 0 
0.1004 0.2328 -0.0441 0.587875 -0.784345 0.198005 0 
0.1007 0.2328 -0.0441 0.581702 -0.78737 0.204133 0 
0.0999 0.2331 -0.0447 0.565116 -0.802739 0.190403 0 
0.0998 0.2329 -0.0445 0.571682 -0.797305 0.193609 0 
0.0996 0.2329 -0.0441 0.583601 -0.790832 0.184375 0 
0.0999 0.2329 -0.0442 0.577828 -0.794323 0.187527 0 
0.1001 0.2331 -0.0448 0.544345 -0.818779 0.182454 0 
0.1001 0.2329 -0.0445 0.568569 -0.800265 0.190539 0 
0.0996 0.2326 -0.0436 0.6118 -0.7682 0.1886 0 
0.0999 0.2328 -0.0436 0.61252 -0.766034 0.194963 0 
0.1004 0.2328 -0.0438 0.600232 -0.77305 0.205221 0 
0.1007 0.2326 -0.0438 0.595491 -0.774912 0.211902 0 
0.1001 0.2328 -0.0436 0.607029 -0.767668 0.205432 0 
0.1001 0.2328 -0.0433 0.636779 -0.742135 0.209161 0 
0.1004 0.2328 -0.0434 0.629323 -0.747418 0.212882 0 
0.1007 0.2328 -0.0434 0.618994 -0.753083 0.222963 0 
0.0996 0.2329 -0.0438 0.610227 -0.767011 0.198285 0 
0.0999 0.2329 -0.0439 0.600087 -0.775048 0.197983 0 
0.0999 0.2329 -0.0433 0.641255 -0.740147 0.20242 0 
0.1001 0.2329 -0.0439 0.597051 -0.778161 0.194924 0 
0.101 0.2326 -0.0447 0.522839 -0.835648 0.168321 0 
0.101 0.2326 -0.0442 0.558195 -0.807634 0.190121 0 
0.1013 0.2331 -0.0446 0.529555 -0.823921 0.201807 0 
0.101 0.2328 -0.044 0.577252 -0.78968 0.207811 0 
0.101 0.2329 -0.0436 0.614252 -0.754921 0.229758 0 
0.101 0.2329 -0.0434 0.616255 -0.751109 0.23678 0 
0.1013 0.2331 -0.0434 0.614766 -0.744356 0.260762 0 
0.1013 0.2332 -0.0436 0.605068 -0.755943 0.249885 0 
0.0996 0.2328 -0.0431 0.646738 -0.736263 0.199115 0 
0.1004 0.2328 -0.0431 0.634516 -0.743113 0.21254 0 
0.1007 0.2328 -0.0428 0.633468 -0.744983 0.209091 0 
0.0993 0.2329 -0.043 0.649999 -0.733371 0.199168 0 
0.0996 0.2329 -0.0428 0.647133 -0.736712 0.196148 0 
0.0999 0.2329 -0.0428 0.646738 -0.736263 0.199115 0 
0.0999 0.2332 -0.0425 0.663984 -0.722525 0.192571 0 
0.1001 0.2329 -0.043 0.636895 -0.744843 0.198933 0 
0.1007 0.2329 -0.043 0.628056 -0.746498 0.219742 0 
0.1001 0.2329 -0.0427 0.639492 -0.744277 0.192618 0 
0.1005 0.2331 -0.0428 0.652446 -0.727189 0.21333 0 
0.101 0.2329 -0.043 0.624399 -0.746462 0.230042 0 
0.1014 0.2332 -0.043 0.625261 -0.730267 0.275242 0 
0.1016 0.2332 -0.0431 0.57213 -0.766558 0.291643 0 
0.1005 0.2341 -0.0424 0.632896 -0.749928 0.192487 0 
0.1001 0.2349 -0.0421 0.666108 -0.715795 0.209614 0 
0.1004 0.235 -0.0421 0.697925 -0.679105 0.227414 0 
0.101 0.235 -0.0418 0.86962 -0.426521 0.248678 0 
0.1007 0.2356 -0.0418 0.841462 -0.412113 0.349434 0 
0.0984 0.2317 -0.0416 0.659758 -0.732895 0.166082 0 
0.0984 0.232 -0.0416 0.645432 -0.745664 0.165534 0 
0.0984 0.2317 -0.0412 0.636662 -0.754618 0.158787 0 
0.0984 0.2319 -0.0412 0.641129 -0.752761 0.149345 0 
0.0983 0.2314 -0.0409 0.645523 -0.748323 0.152688 0 
0.0983 0.2317 -0.041 0.629284 -0.762083 0.152417 0 
0.0984 0.232 -0.041 0.634356 -0.757913 0.152185 0 
0.0984 0.2316 -0.0407 0.630222 -0.762584 0.145899 0 
0.0981 0.2314 -0.0406 0.634645 -0.758257 0.149239 0 
0.0983 0.232 -0.0407 0.622726 -0.767476 0.152289 0 
0.0981 0.2317 -0.0404 0.620132 -0.770285 0.148651 0 
0.0981 0.2314 -0.0404 0.621287 -0.768711 0.151937 0 
0.0983 0.2314 -0.04 0.595903 -0.788033 0.154605 0 
0.0981 0.2317 -0.0401 0.595903 -0.788033 0.154605 0 
0.0984 0.2322 -0.041 0.634356 -0.757913 0.152185 0 
0.0987 0.232 -0.0416 0.646896 -0.744311 0.16591 0 
0.0984 0.232 -0.0412 0.629284 -0.762083 0.152417 0 
0.0986 0.2325 -0.0415 0.650739 -0.741752 0.162306 0 
0.0987 0.2323 -0.0412 0.640214 -0.752213 0.155891 0 
0.0986 0.2325 -0.0409 0.655151 -0.739881 0.152818 0 
0.0981 0.2323 -0.0404 0.613822 -0.775906 0.145576 0 
0.098 0.2322 -0.0404 0.613822 -0.775906 0.145576 0 
0.098 0.2323 -0.0401 0.602581 -0.782905 0.154778 0 
0.0981 0.232 -0.0401 0.602859 -0.783266 0.151842 0 
0.0984 0.2322 -0.0407 0.631389 -0.760982 0.149183 0 
0.0987 0.2323 -0.0406 0.620132 -0.770285 0.148651 0 
0.0984 0.2325 -0.0404 0.618279 -0.77172 0.148928 0 
0.0984 0.2325 -0.04 0.598108 -0.786984 0.151401 0 
0.099 0.2329 -0.04 0.643422 -0.753893 0.132864 0 
0.0992 0.2332 -0.0403 0.672258 -0.7264 0.142874 0 
0.0975 0.2311 -0.0391 0.604768 -0.781846 0.151567 0 
0.0975 0.2314 -0.0392 0.601712 -0.784777 0.148552 0 
0.0975 0.2314 -0.0389 0.598161 -0.784992 0.161217 0 
0.0975 0.2317 -0.0392 0.596966 -0.788474 0.148119 0 
0.0975 0.2317 -0.0389 0.590602 -0.791978 0.154789 0 
0.0974 0.2314 -0.0386 0.591716 -0.788451 0.167981 0 
0.0975 0.2317 -0.0386 0.577943 -0.800114 0.160623 0 
0.099 0.2306 -0.04 0.601712 -0.784777 0.148552 0 
0.098 0.2314 -0.0398 0.600379 -0.783953 0.157994 0 
0.098 0.2319 -0.0398 0.592554 -0.790572 0.154514 0 
0.0978 0.2313 -0.0394 0.601441 -0.784424 0.151485 0 
0.0978 0.2316 -0.0394 0.600561 -0.786271 0.145273 0 
0.0978 0.2319 -0.0395 0.593889 -0.791353 0.145106 0 
0.0978 0.232 -0.0392 0.596966 -0.788474 0.148119 0 
0.0978 0.2319 -0.0391 0.596966 -0.788474 0.148119 0 
0.0978 0.2313 -0.0385 0.577046 -0.80003 0.164225 0 
0.0978 0.232 -0.0388 0.585837 -0.7956 0.154325 0 
0.0977 0.232 -0.0385 0.559842 -0.813637 0.156756 0 
0.0978 0.2322 -0.0398 0.592554 -0.790572 0.154514 0 
0.0981 0.2323 -0.0398 0.584709 -0.797059 0.151037 0 
0.0978 0.2323 -0.0395 0.586105 -0.795964 0.151398 0 
0.098 0.2323 -0.0395 0.581604 -0.799892 0.148017 0 
0.0978 0.2322 -0.0394 0.592485 -0.792468 0.144763 0 
0.0981 0.2323 -0.0394 0.589144 -0.794971 0.144676 0 
0.0984 0.2325 -0.0398 0.593889 -0.791353 0.145106 0 
0.099 0.2329 -0.0398 0.62082 -0.772675 0.132501 0 
0.0992 0.2329 -0.0394 0.563568 -0.815029 0.134606 0 
0.0989 0.2329 -0.0392 0.559963 -0.817044 0.137405 0 
0.0978 0.2322 -0.0391 0.593629 -0.791006 0.148033 0 
0.0978 0.2322 -0.0389 0.584971 -0.797416 0.148113 0 
0.0981 0.2323 -0.0391 0.584654 -0.798878 0.141329 0 
0.0981 0.2323 -0.0389 0.57259 -0.807575 0.141289 0 
0.0977 0.2323 -0.0385 0.563511 -0.811636 0.153957 0 
0.098 0.2323 -0.0386 0.571215 -0.80686 0.150634 0 
0.0983 0.2329 -0.0392 0.563323 -0.813028 0.147148 0 
0.0983 0.2329 -0.0386 0.567828 -0.809267 0.150527 0 
0.0987 0.2329 -0.0391 0.555423 -0.819063 0.143669 0 
0.0987 0.2329 -0.0391 0.555423 -0.819063 0.143669 0 
0.0992 0.2329 -0.0392 0.55793 -0.818396 0.137633 0 
0.0992 0.2329 -0.0389 0.554478 -0.819082 0.147167 0 
0.0987 0.2329 -0.0388 0.563323 -0.813028 0.147148 0 
0.0987 0.2329 -0.0388 0.563323 -0.813028 0.147148 0 
0.0987 0.2329 -0.0385 0.568941 -0.807867 0.153808 0 
0.0987 0.2329 -0.0385 0.568941 -0.807867 0.153808 0 
0.0992 0.2329 -0.0386 0.565803 -0.810637 0.150781 0 
0.0993 0.2331 -0.0404 0.66942 -0.729592 0.139901 0 
0.0999 0.2329 -0.0404 0.645228 -0.75051 0.142883 0 
0.0999 0.2334 -0.0407 0.655998 -0.737809 0.159076 0 
0.0996 0.2332 -0.0404 0.67847 -0.720592 0.142915 0 
0.0993 0.2331 -0.0401 0.650572 -0.748828 0.126541 0 
0.0999 0.2329 -0.0403 0.644948 -0.750184 0.145827 0 
0.0996 0.2329 -0.0401 0.643674 -0.754189 0.12993 0 
0.0995 0.2329 -0.0398 0.650572 -0.748828 0.126541 0 
0.0995 0.2329 -0.0397 0.61987 -0.774465 0.126352 0 
0.0996 0.2329 -0.0398 0.650572 -0.748828 0.126541 0 
0.0999 0.2329 -0.04 0.637826 -0.759741 0.126376 0 
0.0999 0.2329 -0.0397 0.64838 -0.75224 0.117213 0 
0.0995 0.2329 -0.0394 0.561079 -0.81732 0.131066 0 
0.0996 0.2329 -0.0395 0.586712 -0.799524 0.128574 0 
0.0996 0.2329 -0.0392 0.556581 -0.81937 0.1373 0 
0.0999 0.2329 -0.0394 0.582222 -0.803319 0.125288 0 
0.0995 0.2328 -0.0391 0.558837 -0.81835 0.13418 0 
0.0999 0.2329 -0.0391 0.556804 -0.819698 0.134401 0 
0.0996 0.2329 -0.0389 0.55431 -0.820379 0.140425 0 
0.0995 0.2329 -0.0388 0.555423 -0.819063 0.143669 0 
0.0995 0.2329 -0.0385 0.567828 -0.809267 0.150527 0 
0.0996 0.2329 -0.0386 0.555333 -0.817367 0.153349 0 
0.0999 0.2331 -0.0386 0.548503 -0.822012 0.153105 0 
0.0998 0.2338 -0.0406 0.649324 -0.745743 0.149149 0 
0.101 0.2359 -0.0415 0.919967 -0.155428 0.359865 0 
0.1004 0.2337 -0.0395 0.673512 -0.738463 0.0324754 0 
0.096 0.2323 -0.0329 0.602324 -0.76955 0.212129 0 
0.0959 0.2323 -0.0327 0.596442 -0.775221 0.208061 0 
0.0959 0.2323 -0.0321 0.58252 -0.792409 0.180992 0 
0.096 0.2325 -0.0323 0.575362 -0.797005 0.183691 0 
0.0959 0.2326 -0.0321 0.570091 -0.802966 0.1739 0 
0.0975 0.2317 -0.0383 0.569949 -0.804546 0.166924 0 
0.0975 0.232 -0.0382 0.564491 -0.808351 0.167089 0 
0.0972 0.2319 -0.0373 0.55979 -0.810263 0.17352 0 
0.0972 0.2319 -0.037 0.560562 -0.808357 0.179803 0 
0.0975 0.232 -0.037 0.558177 -0.809282 0.183034 0 
0.0978 0.2313 -0.0382 0.563399 -0.809792 0.163761 0 
0.0978 0.2316 -0.0382 0.562304 -0.811217 0.160444 0 
0.0978 0.2313 -0.0379 0.558424 -0.811295 0.173096 0 
0.0977 0.2316 -0.0379 0.564205 -0.807941 0.170014 0 
0.0978 0.2316 -0.0376 0.55979 -0.810263 0.17352 0 
0.0975 0.2323 -0.0382 0.564491 -0.808351 0.167089 0 
0.0975 0.232 -0.038 0.564205 -0.807941 0.170014 0 
0.0975 0.2323 -0.038 0.566662 -0.805416 0.173776 0 
0.0975 0.232 -0.0376 0.564306 -0.806367 0.177007 0 
0.0975 0.2323 -0.0376 0.564001 -0.805932 0.179936 0 
0.0975 0.232 -0.0374 0.554986 -0.813679 0.172963 0 
0.0975 0.2323 -0.0374 0.553967 -0.813592 0.176605 0 
0.0974 0.232 -0.0371 0.557118 -0.810765 0.179667 0 
0.0975 0.2323 -0.0371 0.555778 -0.810194 0.186269 0 
0.0975 0.2323 -0.037 0.554727 -0.810054 0.189975 0 
0.0978 0.2325 -0.0382 0.564205 -0.807941 0.170014 0 
0.0977 0.2325 -0.038 0.566662 -0.805416 0.173776 0 
0.0978 0.2325 -0.0377 0.566363 -0.80499 0.176705 0 
0.0984 0.2331 -0.0382 0.570233 -0.804946 0.163998 0 
0.0983 0.2329 -0.038 0.571331 -0.803481 0.167329 0 
0.0984 0.2331 -0.0376 0.557349 -0.812738 0.169759 0 
0.0986 0.2329 -0.0382 0.570233 -0.804946 0.163998 0 
0.0992 0.2329 -0.0382 0.56572 -0.808814 0.160562 0 
0.0989 0.2329 -0.0382 0.568854 -0.806002 0.163602 0 
0.0987 0.2329 -0.0379 0.569949 -0.804546 0.166924 0 
0.0987 0.2329 -0.0379 0.569949 -0.804546 0.166924 0 
0.0992 0.2329 -0.038 0.565445 -0.808421 0.163484 0 
0.0992 0.2329 -0.0376 0.557787 -0.814997 0.157018 0 
0.0978 0.2325 -0.0374 0.558424 -0.811295 0.173096 0 
0.098 0.2326 -0.0374 0.556347 -0.812659 0.173387 0 
0.0978 0.2325 -0.0371 0.555778 -0.810194 0.186269 0 
0.098 0.2328 -0.037 0.552319 -0.81259 0.186124 0 
0.0978 0.2325 -0.037 0.55368 -0.811558 0.186582 0 
0.098 0.2326 -0.0368 0.552295 -0.810946 0.193227 0 
0.0984 0.2332 -0.0374 0.557349 -0.812738 0.169759 0 
0.0981 0.2335 -0.0373 0.553967 -0.813592 0.176605 0 
0.0984 0.2331 -0.037 0.552628 -0.813044 0.1832 0 
0.098 0.2332 -0.037 0.55021 -0.813948 0.186435 0 
0.0987 0.2329 -0.0376 0.550754 -0.817877 0.166577 0 
0.0987 0.2329 -0.0373 0.558713 -0.811715 0.170174 0 
0.0989 0.2329 -0.0376 0.562031 -0.810823 0.163364 0 
0.0989 0.2329 -0.0373 0.555273 -0.814099 0.170043 0 
0.0992 0.2329 -0.0374 0.549404 -0.818867 0.166169 0 
0.0987 0.2331 -0.037 0.550216 -0.815526 0.179386 0 
0.0992 0.2329 -0.037 0.547052 -0.818318 0.176323 0 
0.0989 0.2329 -0.037 0.55127 -0.814067 0.18275 0 
0.0975 0.2317 -0.0368 0.559233 -0.807781 0.186411 0 
0.0975 0.2317 -0.0365 0.553331 -0.809418 0.196638 0 
0.0975 0.2314 -0.0361 0.542523 -0.809942 0.222849 0 
0.0975 0.2317 -0.0362 0.5474 -0.806451 0.223586 0 
0.0972 0.2319 -0.0359 0.549926 -0.800879 0.237011 0 
0.0971 0.2317 -0.0357 0.554658 -0.792146 0.254674 0 
0.0971 0.232 -0.0357 0.558192 -0.7896 0.254861 0 
0.0971 0.2319 -0.0355 0.555587 -0.790342 0.258231 0 
0.0978 0.2311 -0.0364 0.555441 -0.808053 0.196307 0 
0.0977 0.232 -0.0367 0.548815 -0.813341 0.193074 0 
0.0975 0.2323 -0.0367 0.549848 -0.811826 0.196483 0 
0.0974 0.232 -0.0364 0.549424 -0.809597 0.206608 0 
0.0975 0.2323 -0.0364 0.547575 -0.808325 0.216269 0 
0.0974 0.232 -0.0361 0.549357 -0.803145 0.230575 0 
0.0975 0.2326 -0.0364 0.551078 -0.805895 0.21644 0 
0.0972 0.2325 -0.0361 0.545829 -0.8056 0.230392 0 
0.0975 0.2326 -0.0361 0.553063 -0.802634 0.223382 0 
0.0971 0.2323 -0.0358 0.552783 -0.795696 0.247585 0 
0.0972 0.2325 -0.0359 0.555784 -0.795534 0.241307 0 
0.0975 0.2326 -0.0359 0.550328 -0.801464 0.234083 0 
0.0971 0.2323 -0.0356 0.556034 -0.790978 0.255306 0 
0.0971 0.2323 -0.0353 0.555255 -0.788052 0.26583 0 
0.0972 0.2325 -0.0356 0.559122 -0.787783 0.258418 0 
0.0974 0.2326 -0.0356 0.559573 -0.788418 0.255491 0 
0.0972 0.2325 -0.0353 0.559715 -0.783601 0.269609 0 
0.0974 0.2326 -0.0353 0.552607 -0.788763 0.269219 0 
0.0977 0.2325 -0.0367 0.549517 -0.811337 0.199409 0 
0.0978 0.2328 -0.0365 0.553935 -0.805583 0.210219 0 
0.0978 0.2328 -0.0362 0.548935 -0.807258 0.216806 0 
0.0987 0.2326 -0.0364 0.547386 -0.812694 0.199743 0 
0.0984 0.2332 -0.0368 0.550935 -0.811984 0.192751 0 
0.0984 0.2332 -0.0365 0.547386 -0.812694 0.199743 0 
0.0977 0.2329 -0.0361 0.553441 -0.803184 0.220452 0 
0.0984 0.2332 -0.0362 0.554944 -0.803977 0.213677 0 
0.0987 0.2331 -0.0367 0.547461 -0.814367 0.192597 0 
0.0992 0.2331 -0.0368 0.543298 -0.820215 0.179093 0 
0.0989 0.2332 -0.0365 0.547386 -0.812694 0.199743 0 
0.0989 0.2331 -0.0362 0.560553 -0.800132 0.213471 0 
0.0987 0.2332 -0.0364 0.551901 -0.808741 0.203332 0 
0.0987 0.2334 -0.0361 0.553575 -0.80506 0.213149 0 
0.0978 0.2328 -0.0356 0.553724 -0.793931 0.251125 0 
0.0981 0.2332 -0.0359 0.558535 -0.796802 0.230531 0 
0.0984 0.2332 -0.0359 0.55542 -0.799866 0.227428 0 
0.0981 0.2332 -0.0356 0.555364 -0.794933 0.244236 0 
0.0984 0.2332 -0.0356 0.552253 -0.798045 0.241125 0 
0.0981 0.2332 -0.0353 0.546309 -0.796766 0.258284 0 
0.0984 0.2332 -0.0353 0.548008 -0.797812 0.251365 0 
0.0989 0.2332 -0.0359 0.560066 -0.797669 0.223718 0 
0.0987 0.2334 -0.0358 0.551903 -0.802346 0.227254 0 
0.099 0.2332 -0.0357 0.554047 -0.800976 0.226866 0 
0.0987 0.2335 -0.0355 0.544221 -0.804703 0.237225 0 
0.099 0.2335 -0.0353 0.550884 -0.79917 0.240527 0 
0.0995 0.2329 -0.0382 0.566916 -0.809239 0.15407 0 
0.0996 0.2329 -0.0383 0.564617 -0.810234 0.157254 0 
0.0995 0.2329 -0.0379 0.562304 -0.811217 0.160444 0 
0.0995 0.2329 -0.0376 0.55643 -0.815997 0.156636 0 
0.0996 0.2329 -0.0373 0.544893 -0.822565 0.162722 0 
0.0996 0.2329 -0.037 0.531083 -0.830285 0.169049 0 
0.0999 0.232 -0.0365 0.529701 -0.829815 0.175567 0 
0.0995 0.2329 -0.0367 0.537405 -0.823419 0.182146 0 
0.0993 0.2332 -0.0365 0.548407 -0.811154 0.20317 0 
0.0996 0.2329 -0.0361 0.550435 -0.808021 0.210055 0 
0.0996 0.2332 -0.0362 0.542419 -0.814392 0.206272 0 
0.0993 0.2332 -0.0361 0.553935 -0.805583 0.210219 0 
0.0993 0.2332 -0.0359 0.552444 -0.804814 0.216977 0 
0.0968 0.2319 -0.035 0.589963 -0.760784 0.270466 0 
0.0969 0.232 -0.0352 0.569844 -0.775051 0.273083 0 
0.0969 0.232 -0.0349 0.586212 -0.760963 0.278014 0 
0.0971 0.232 -0.0346 0.585308 -0.762963 0.274413 0 
0.0969 0.232 -0.0344 0.603826 -0.749632 0.271009 0 
0.0971 0.2323 -0.035 0.559715 -0.783601 0.269609 0 
0.0972 0.2325 -0.035 0.556163 -0.786191 0.269416 0 
0.0974 0.2326 -0.035 0.552607 -0.788763 0.269219 0 
0.0971 0.2322 -0.0347 0.578289 -0.768411 0.274093 0 
0.0969 0.2323 -0.0344 0.582553 -0.768844 0.263649 0 
0.0969 0.2326 -0.0344 0.575539 -0.774218 0.263329 0 
0.0972 0.2325 -0.0347 0.564166 -0.779086 0.273391 0 
0.0975 0.2326 -0.0347 0.552136 -0.788091 0.272135 0 
0.0975 0.2326 -0.0346 0.54768 -0.792488 0.268347 0 
0.0975 0.2334 -0.0347 0.557887 -0.787328 0.262443 0 
0.0975 0.2335 -0.0344 0.56143 -0.784743 0.26263 0 
0.0968 0.232 -0.0341 0.598341 -0.753878 0.271396 0 
0.0966 0.2322 -0.0338 0.600373 -0.752447 0.270881 0 
0.0966 0.2325 -0.0338 0.599453 -0.754457 0.267302 0 
0.0969 0.2323 -0.0341 0.596911 -0.755243 0.270748 0 
0.0971 0.2328 -0.0343 0.575539 -0.774218 0.263329 0 
0.0969 0.2326 -0.0341 0.595064 -0.75922 0.263596 0 
0.0965 0.2329 -0.0338 0.584175 -0.769978 0.256659 0 
0.0975 0.2335 -0.0341 0.555098 -0.792773 0.251749 0 
0.0969 0.2329 -0.034 0.588604 -0.765343 0.260374 0 
0.0969 0.2329 -0.0337 0.576233 -0.777208 0.252789 0 
0.0972 0.2335 -0.034 0.552489 -0.793519 0.255115 0 
0.0978 0.2332 -0.0352 0.546776 -0.794313 0.264771 0 
0.0978 0.2334 -0.0349 0.533849 -0.803122 0.264576 0 
0.0981 0.2334 -0.035 0.540551 -0.797509 0.267925 0 
0.0984 0.2332 -0.035 0.543216 -0.796821 0.264563 0 
0.0984 0.2332 -0.0346 0.527571 -0.806229 0.267699 0 
0.0978 0.2335 -0.0346 0.534746 -0.801335 0.268157 0 
0.0981 0.2332 -0.0346 0.533405 -0.802453 0.267484 0 
0.0987 0.2334 -0.0352 0.541826 -0.801028 0.254518 0 
0.0987 0.2334 -0.0349 0.545477 -0.79385 0.268808 0 
0.099 0.2332 -0.035 0.54894 -0.796041 0.254921 0 
0.0987 0.2334 -0.0346 0.535178 -0.798844 0.274651 0 
0.0978 0.2335 -0.0343 0.555255 -0.788052 0.26583 0 
0.0981 0.2334 -0.0344 0.538328 -0.798859 0.268379 0 
0.0984 0.2332 -0.0344 0.53205 -0.801998 0.271518 0 
0.0981 0.2334 -0.0341 0.546776 -0.794313 0.264771 0 
0.0978 0.2335 -0.034 0.541393 -0.800388 0.257435 0 
0.0978 0.2335 -0.0337 0.533772 -0.80766 0.250546 0 
0.0981 0.2332 -0.0338 0.541826 -0.801028 0.254518 0 
0.0987 0.2329 -0.0343 0.536522 -0.797703 0.275341 0 
0.0984 0.2334 -0.0341 0.517288 -0.815545 0.259421 0 
0.0987 0.2332 -0.034 0.509149 -0.817441 0.269366 0 
0.0984 0.2334 -0.0338 0.532037 -0.806637 0.257437 0 
0.0963 0.2323 -0.0335 0.611415 -0.752874 0.243623 0 
0.0963 0.2326 -0.0335 0.602597 -0.762246 0.236343 0 
0.0963 0.2326 -0.0334 0.608 -0.758047 0.23601 0 
0.0963 0.2323 -0.0332 0.60984 -0.759571 0.226156 0 
0.0962 0.2326 -0.0331 0.593096 -0.775825 0.215249 0 
0.096 0.2325 -0.0329 0.597482 -0.773484 0.211512 0 
0.0963 0.2329 -0.0334 0.58785 -0.777079 0.224903 0 
0.0965 0.2329 -0.0335 0.591274 -0.772244 0.232453 0 
0.0968 0.2329 -0.0334 0.584351 -0.777577 0.232182 0 
0.0963 0.2329 -0.0331 0.585187 -0.782822 0.211532 0 
0.0968 0.2329 -0.0332 0.583788 -0.781997 0.21834 0 
0.0965 0.2331 -0.0329 0.575851 -0.790835 0.207306 0 
0.0968 0.2332 -0.0329 0.565826 -0.798904 0.203943 0 
0.0972 0.2335 -0.0334 0.5435 -0.808321 0.22633 0 
0.0975 0.2335 -0.0335 0.539329 -0.808221 0.236439 0 
0.0975 0.2334 -0.0333 0.539001 -0.812341 0.222664 0 
0.0972 0.2332 -0.0331 0.56542 -0.796517 0.214151 0 
0.0975 0.2334 -0.0329 0.548407 -0.811154 0.20317 0 
0.096 0.2325 -0.0327 0.590934 -0.78126 0.201071 0 
0.096 0.2328 -0.0328 0.585136 -0.784789 0.20426 0 
0.0962 0.2326 -0.0326 0.575121 -0.794796 0.193741 0 
0.096 0.2322 -0.0323 0.584842 -0.791436 0.177731 0 
0.096 0.2328 -0.0323 0.568817 -0.802412 0.180505 0 
0.0962 0.2329 -0.0328 0.582065 -0.78786 0.201189 0 
0.096 0.2331 -0.0325 0.570955 -0.799337 0.187273 0 
0.0963 0.2331 -0.0326 0.571682 -0.797305 0.193609 0 
0.0966 0.2334 -0.0328 0.556473 -0.806505 0.19972 0 
0.0966 0.2334 -0.0325 0.556089 -0.810648 0.183343 0 
0.0962 0.2329 -0.0323 0.562999 -0.805802 0.18362 0 
0.0963 0.2332 -0.0323 0.561934 -0.807306 0.180243 0 
0.0963 0.2329 -0.0321 0.551572 -0.814513 0.179827 0 
0.0965 0.2331 -0.0321 0.549159 -0.816968 0.176032 0 
0.0968 0.2332 -0.0323 0.545705 -0.81931 0.175889 0 
0.0968 0.2335 -0.0323 0.546759 -0.81788 0.179241 0 
0.0966 0.2335 -0.0321 0.542532 -0.822064 0.172829 0 
0.0969 0.2335 -0.0328 0.556473 -0.806505 0.19972 0 
0.0969 0.2335 -0.0325 0.546737 -0.816319 0.186284 0 
0.0972 0.2332 -0.0328 0.564443 -0.800009 0.203444 0 
0.0972 0.2332 -0.0325 0.549897 -0.813484 0.189359 0 
0.0969 0.2334 -0.0322 0.543589 -0.820654 0.176177 0 
0.0972 0.2334 -0.0322 0.542532 -0.822064 0.172829 0 
0.0978 0.2335 -0.0334 0.521964 -0.820669 0.232497 0 
0.0981 0.2335 -0.0335 0.519892 -0.819176 0.242205 0 
0.0978 0.2335 -0.0331 0.535839 -0.815274 0.219556 0 
0.0981 0.2335 -0.0332 0.522297 -0.822503 0.225154 0 
0.0981 0.2335 -0.0329 0.511375 -0.833071 0.210923 0 
0.0977 0.2334 -0.0327 0.540394 -0.817441 0.199413 0 
0.0978 0.2335 -0.0328 0.523524 -0.827016 0.204857 0 
0.0978 0.2335 -0.0325 0.529016 -0.827435 0.188396 0 
0.0977 0.2334 -0.0323 0.527256 -0.830691 0.178756 0 
0.0977 0.2334 -0.0321 0.523876 -0.834322 0.17164 0 
0.0978 0.2335 -0.0322 0.521706 -0.835626 0.171909 0 
0.0975 0.2337 -0.0338 0.540898 -0.802774 0.250964 0 
0.0969 0.2343 -0.0326 0.528287 -0.829305 0.182116 0 
0.0957 0.2323 -0.0319 0.564491 -0.808351 0.167089 0 
0.096 0.2325 -0.0319 0.561063 -0.810759 0.166965 0 
0.0957 0.2323 -0.0316 0.544233 -0.825989 0.146809 0 
0.0956 0.2325 -0.0313 0.515493 -0.844469 0.145395 0 
0.0959 0.2326 -0.0316 0.543818 -0.823922 0.159421 0 
0.096 0.2325 -0.0314 0.521049 -0.839877 0.152034 0 
0.0957 0.2323 -0.0311 0.519147 -0.842695 0.142655 0 
0.0957 0.2323 -0.0309 0.522769 -0.841995 0.133255 0 
0.0959 0.2326 -0.0311 0.512273 -0.846938 0.14238 0 
0.096 0.2325 -0.0309 0.496702 -0.858729 0.125986 0 
0.0957 0.232 -0.0306 0.517318 -0.847706 0.117375 0 
0.0959 0.232 -0.0305 0.509442 -0.852919 0.114011 0 
0.0957 0.2323 -0.0305 0.514957 -0.849608 0.113954 0 
0.096 0.2328 -0.0306 0.499098 -0.858678 0.116504 0 
0.0959 0.2325 -0.0305 0.498192 -0.859991 0.11055 0 
0.096 0.2328 -0.0305 0.491255 -0.863635 0.113146 0 
0.0959 0.2329 -0.0309 0.496702 -0.858729 0.125986 0 
0.0956 0.2322 -0.0302 0.520779 -0.846807 0.108195 0 
0.0957 0.2323 -0.0303 0.510647 -0.852996 0.107883 0 
0.0957 0.2323 -0.03 0.526405 -0.84369 0.105281 0 
0.0959 0.2326 -0.0303 0.507266 -0.855024 0.107776 0 
0.0957 0.2326 -0.03 0.518403 -0.848687 0.104829 0 
0.096 0.2328 -0.0302 0.506022 -0.855794 0.107512 0 
0.0954 0.2323 -0.0299 0.53871 -0.836228 0.102543 0 
0.0954 0.2325 -0.0297 0.545407 -0.831854 0.102716 0 
0.0957 0.2326 -0.0297 0.531842 -0.840282 0.105215 0 
0.096 0.2331 -0.0302 0.50158 -0.858004 0.110664 0 
0.0957 0.2329 -0.0299 0.520652 -0.847674 0.101836 0 
0.0959 0.2332 -0.0299 0.511672 -0.852787 0.104628 0 
0.0957 0.2329 -0.0297 0.525283 -0.84477 0.102178 0 
0.0959 0.2331 -0.0297 0.513935 -0.851786 0.101642 0 
0.0951 0.2323 -0.0296 0.551924 -0.827162 0.105749 0 
0.0951 0.2325 -0.0293 0.556416 -0.823729 0.108959 0 
0.0948 0.2326 -0.029 0.565594 -0.816969 0.112534 0 
0.0951 0.2326 -0.0291 0.557751 -0.822791 0.10922 0 
0.0948 0.2328 -0.0288 0.56091 -0.82024 0.112182 0 
0.0953 0.2326 -0.0294 0.548585 -0.829391 0.105664 0 
0.0954 0.2328 -0.0294 0.548585 -0.829391 0.105664 0 
0.0957 0.2329 -0.0294 0.537411 -0.837093 0.102295 0 
0.0953 0.2329 -0.0291 0.554405 -0.82506 0.109135 0 
0.0953 0.2329 -0.029 0.555559 -0.823861 0.112278 0 
0.0957 0.2329 -0.0291 0.553077 -0.825986 0.108873 0 
0.0957 0.2329 -0.0288 0.555559 -0.823861 0.112278 0 
0.096 0.2338 -0.029 0.512833 -0.850869 0.114123 0 
0.0944 0.2317 -0.0276 0.583384 -0.801968 0.128492 0 
0.0941 0.2314 -0.0275 0.679312 -0.723905 0.120403 0 
0.0942 0.2314 -0.0273 0.644487 -0.756572 0.11061 0 
0.0942 0.2317 -0.0273 0.602301 -0.788763 0.122828 0 
0.0945 0.232 -0.0281 0.577729 -0.807057 0.122014 0 
0.0944 0.232 -0.0279 0.580268 -0.804697 0.125503 0 
0.0944 0.232 -0.0276 0.578087 -0.805773 0.128628 0 
0.0942 0.232 -0.0275 0.59452 -0.795152 0.119494 0 
0.0944 0.2322 -0.0273 0.563307 -0.81628 0.127957 0 
0.0945 0.2328 -0.0285 0.565594 -0.816969 0.112534 0 
0.0947 0.2323 -0.0284 0.565406 -0.816697 0.115419 0 
0.0945 0.2322 -0.0281 0.579103 -0.806028 0.122304 0 
0.0947 0.2323 -0.0281 0.567718 -0.814169 0.121759 0 
0.0948 0.2326 -0.0282 0.561217 -0.819114 0.118691 0 
0.095 0.2326 -0.0284 0.563413 -0.818047 0.115609 0 
0.0948 0.2328 -0.0281 0.562165 -0.817561 0.124762 0 
0.0947 0.2329 -0.0285 0.562254 -0.819284 0.112451 0 
0.0951 0.2329 -0.0287 0.556521 -0.822366 0.118316 0 
0.0951 0.2329 -0.0284 0.558909 -0.821581 0.112365 0 
0.0957 0.2329 -0.0285 0.554227 -0.824795 0.112009 0 
0.0957 0.2335 -0.0285 0.549994 -0.827179 0.115251 0 
0.0959 0.2335 -0.0285 0.552207 -0.826124 0.11219 0 
0.0956 0.2329 -0.0284 0.555559 -0.823861 0.112278 0 
0.0953 0.2329 -0.0281 0.557861 -0.821417 0.1186 0 
0.0957 0.2329 -0.0281 0.553354 -0.824921 0.115343 0 
0.0954 0.2335 -0.0281 0.553354 -0.824921 0.115343 0 
0.0957 0.2335 -0.0281 0.549994 -0.827179 0.115251 0 
0.096 0.2335 -0.0281 0.548669 -0.828097 0.114973 0 
0.0945 0.2322 -0.0279 0.577865 -0.805463 0.131534 0 
0.0947 0.2323 -0.0278 0.563307 -0.81628 0.127957 0 
0.0948 0.2325 -0.0279 0.562165 -0.817561 0.124762 0 
0.0948 0.2325 -0.0278 0.559007 -0.820171 0.121779 0 
0.0951 0.2326 -0.0276 0.554544 -0.822255 0.127972 0 
0.0945 0.2322 -0.0275 0.56552 -0.815229 0.124855 0 
0.0947 0.2323 -0.0275 0.565804 -0.81399 0.131479 0 
0.0947 0.2323 -0.0273 0.557921 -0.819952 0.128072 0 
0.0948 0.2326 -0.0275 0.555676 -0.820985 0.131181 0 
0.0951 0.2326 -0.0273 0.549804 -0.823969 0.137082 0 
0.0953 0.2326 -0.0279 0.555643 -0.822468 0.121684 0 
0.0954 0.2328 -0.0279 0.554305 -0.823414 0.121391 0 
0.0954 0.2328 -0.0276 0.553205 -0.823205 0.127663 0 
0.0954 0.2326 -0.0275 0.554544 -0.822255 0.127972 0 
0.0957 0.2329 -0.0279 0.5545 -0.823703 0.118508 0 
0.0957 0.2334 -0.0279 0.551135 -0.825971 0.118414 0 
0.096 0.2335 -0.0279 0.549806 -0.826897 0.118128 0 
0.0954 0.2332 -0.0273 0.551142 -0.823019 0.137416 0 
0.0957 0.2329 -0.0275 0.554544 -0.822255 0.127972 0 
0.0957 0.2329 -0.0273 0.551164 -0.824541 0.12787 0 
0.0954 0.2332 -0.0275 0.552291 -0.823282 0.131077 0 
0.0957 0.2332 -0.0275 0.551164 -0.824541 0.12787 0 
0.096 0.2335 -0.0275 0.550942 -0.825682 0.121295 0 
0.0957 0.2334 -0.0273 0.552076 -0.822961 0.13397 0 
0.0939 0.2314 -0.027 0.669399 -0.732015 0.126724 0 
0.0941 0.2314 -0.027 0.649364 -0.75041 0.123335 0 
0.0941 0.2319 -0.027 0.594517 -0.793183 0.13195 0 
0.0939 0.2319 -0.0267 0.597034 -0.786521 0.157906 0 
0.0939 0.2319 -0.0266 0.592856 -0.788966 0.161414 0 
0.0945 0.2316 -0.0269 0.574738 -0.808179 0.12854 0 
0.0948 0.2317 -0.0262 0.547778 -0.814839 0.189674 0 
0.0948 0.2317 -0.026 0.548407 -0.811154 0.20317 0 
0.0939 0.2323 -0.027 0.60702 -0.783011 0.135722 0 
0.0939 0.2322 -0.0269 0.604883 -0.784107 0.138899 0 
0.0944 0.2323 -0.027 0.5577 -0.818059 0.140535 0 
0.0944 0.2323 -0.0267 0.564617 -0.810234 0.157254 0 
0.0945 0.2323 -0.027 0.5577 -0.818059 0.140535 0 
0.0947 0.2323 -0.027 0.55793 -0.818396 0.137633 0 
0.0948 0.2325 -0.0272 0.556581 -0.81937 0.1373 0 
0.095 0.2325 -0.027 0.553369 -0.820411 0.143906 0 
0.095 0.2326 -0.0272 0.554538 -0.820716 0.137525 0 
0.0948 0.2326 -0.027 0.555423 -0.819063 0.143669 0 
0.0951 0.2326 -0.0269 0.558742 -0.815018 0.153468 0 
0.0945 0.2323 -0.0267 0.555188 -0.815573 0.163115 0 
0.0945 0.2322 -0.0266 0.565445 -0.808421 0.163484 0 
0.0947 0.2323 -0.0266 0.554986 -0.813679 0.172963 0 
0.0948 0.2322 -0.0267 0.554102 -0.816965 0.159809 0 
0.095 0.232 -0.0264 0.552609 -0.814608 0.176172 0 
0.0948 0.2326 -0.0267 0.558713 -0.811715 0.170174 0 
0.0947 0.2326 -0.0264 0.557144 -0.80915 0.186727 0 
0.095 0.2326 -0.0266 0.562148 -0.809312 0.170302 0 
0.0954 0.2328 -0.0272 0.548853 -0.824019 0.140542 0 
0.0954 0.2328 -0.027 0.556687 -0.816375 0.153723 0 
0.0954 0.2328 -0.0269 0.554365 -0.817352 0.156896 0 
0.0956 0.2329 -0.027 0.557886 -0.816745 0.147282 0 
0.0957 0.2335 -0.027 0.554478 -0.819082 0.147167 0 
0.0953 0.2329 -0.0267 0.557349 -0.812738 0.169759 0 
0.0954 0.2329 -0.0267 0.557631 -0.81315 0.166838 0 
0.0954 0.2331 -0.0267 0.558713 -0.811715 0.170174 0 
0.0953 0.2332 -0.0264 0.560284 -0.806262 0.189798 0 
0.0957 0.2335 -0.0267 0.561063 -0.810759 0.166965 0 
0.0945 0.2322 -0.0264 0.558177 -0.809282 0.183034 0 
0.0947 0.2323 -0.0263 0.548815 -0.813341 0.193074 0 
0.0945 0.2323 -0.0261 0.562353 -0.801391 0.203795 0 
0.0945 0.2326 -0.0262 0.558873 -0.803859 0.203644 0 
0.0948 0.2328 -0.0261 0.556056 -0.804214 0.209861 0 
0.095 0.2326 -0.0264 0.557144 -0.80915 0.186727 0 
0.0945 0.2328 -0.0258 0.546041 -0.807525 0.223031 0 
0.0951 0.2329 -0.0264 0.558195 -0.807634 0.190121 0 
0.0951 0.2332 -0.0263 0.557844 -0.805435 0.200212 0 
0.095 0.2329 -0.0261 0.551555 -0.808235 0.20626 0 
0.0947 0.2329 -0.0258 0.542893 -0.810494 0.219925 0 
0.095 0.2329 -0.0258 0.537392 -0.81604 0.212813 0 
0.095 0.2332 -0.026 0.549074 -0.809081 0.209535 0 
0.0951 0.2332 -0.0257 0.523283 -0.825352 0.212059 0 
0.0953 0.2329 -0.0264 0.562683 -0.805349 0.18655 0 
0.0957 0.2332 -0.0264 0.559233 -0.807781 0.186411 0 
0.0954 0.2332 -0.0261 0.551901 -0.808741 0.203332 0 
0.096 0.2335 -0.0264 0.562683 -0.805349 0.18655 0 
0.0957 0.2334 -0.0261 0.543892 -0.815076 0.199579 0 
0.096 0.2335 -0.0261 0.54501 -0.815237 0.195839 0 
0.0954 0.2331 -0.0258 0.521967 -0.826321 0.211526 0 
0.0957 0.2332 -0.0258 0.530553 -0.822433 0.205228 0 
0.096 0.2335 -0.0258 0.532056 -0.823095 0.198574 0 
0.0959 0.2337 -0.0287 0.535215 -0.836908 0.114585 0 
0.0954 0.2341 -0.0287 0.536517 -0.836036 0.114864 0 
0.096 0.2337 -0.0273 0.548901 -0.827011 0.12149 0 
0.096 0.2338 -0.027 0.553369 -0.820411 0.143906 0 
0.096 0.2338 -0.0267 0.559697 -0.811786 0.166559 0 
0.096 0.2328 -0.032 0.564205 -0.807941 0.170014 0 
0.096 0.2328 -0.0317 0.544893 -0.822565 0.162722 0 
0.096 0.2328 -0.0314 0.514387 -0.844539 0.148863 0 
0.0962 0.2326 -0.0313 0.51655 -0.843257 0.148637 0 
0.0963 0.2329 -0.0317 0.535873 -0.829787 0.155863 0 
0.0965 0.2331 -0.0317 0.529236 -0.834622 0.152693 0 
0.0968 0.2334 -0.0317 0.522105 -0.838623 0.1553 0 
0.096 0.2331 -0.0314 0.512057 -0.846581 0.145254 0 
0.096 0.2331 -0.0313 0.513331 -0.845746 0.145615 0 
0.0969 0.2334 -0.0319 0.525515 -0.835166 0.162269 0 
0.0974 0.2335 -0.0319 0.517295 -0.840419 0.161562 0 
0.0971 0.2335 -0.0316 0.509887 -0.847852 0.145472 0 
0.0971 0.2335 -0.0313 0.497755 -0.857647 0.129155 0 
0.0974 0.2335 -0.0316 0.506441 -0.84994 0.145327 0 
0.0974 0.2335 -0.0313 0.495469 -0.859487 0.125673 0 
0.096 0.2331 -0.0309 0.493103 -0.860399 0.128698 0 
0.0968 0.2335 -0.0309 0.48541 -0.865672 0.122433 0 
0.096 0.2331 -0.0308 0.492235 -0.861772 0.122698 0 
0.096 0.2331 -0.0305 0.492473 -0.862905 0.113427 0 
0.0968 0.2335 -0.0305 0.465314 -0.877978 0.112415 0 
0.0969 0.2334 -0.0309 0.481826 -0.867287 0.125131 0 
0.0974 0.2335 -0.0309 0.490131 -0.863838 0.116424 0 
0.0974 0.2335 -0.0306 0.470926 -0.874983 0.112396 0 
0.0977 0.2334 -0.0317 0.515441 -0.843315 0.152122 0 
0.0977 0.2334 -0.0314 0.499657 -0.855097 0.138389 0 
0.098 0.2334 -0.0316 0.500904 -0.854311 0.138734 0 
0.0977 0.2335 -0.0311 0.489078 -0.86485 0.113305 0 
0.0977 0.2335 -0.0309 0.478734 -0.870296 0.115754 0 
0.0977 0.2335 -0.0305 0.475774 -0.873436 0.103676 0 
0.0965 0.2335 -0.03 0.485763 -0.867536 0.106839 0 
0.0968 0.2335 -0.0299 0.471362 -0.876195 0.100501 0 
0.0965 0.2335 -0.0297 0.490388 -0.865641 0.10092 0 
0.0969 0.2335 -0.0303 0.467687 -0.877091 0.109459 0 
0.0971 0.2335 -0.0303 0.464154 -0.878628 0.112135 0 
0.0971 0.2335 -0.03 0.463285 -0.879816 0.106258 0 
0.0974 0.2335 -0.0303 0.460914 -0.8807 0.109201 0 
0.0974 0.2335 -0.03 0.452153 -0.885994 0.102826 0 
0.0969 0.2335 -0.0297 0.478106 -0.872507 0.100728 0 
0.0971 0.2335 -0.0297 0.464488 -0.879562 0.103063 0 
0.0974 0.2335 -0.0297 0.45439 -0.884864 0.102695 0 
0.0965 0.2335 -0.0294 0.499423 -0.860037 0.104464 0 
0.0968 0.2335 -0.0294 0.488082 -0.866594 0.103877 0 
0.096 0.2335 -0.0291 0.534263 -0.838315 0.10859 0 
0.0962 0.2335 -0.029 0.520615 -0.84654 0.111045 0 
0.0965 0.2335 -0.0291 0.507107 -0.854755 0.110615 0 
0.0968 0.2335 -0.0291 0.491413 -0.863912 0.110317 0 
0.0965 0.2335 -0.029 0.508355 -0.853979 0.110888 0 
0.0971 0.2335 -0.0294 0.479009 -0.871313 0.106604 0 
0.0974 0.2335 -0.0294 0.453013 -0.884857 0.108667 0 
0.0971 0.2335 -0.0291 0.477853 -0.871546 0.109835 0 
0.0971 0.2335 -0.0288 0.482128 -0.868403 0.115882 0 
0.0974 0.2335 -0.0291 0.458532 -0.881573 0.112149 0 
0.0975 0.2335 -0.0288 0.459533 -0.880653 0.115239 0 
0.0971 0.2337 -0.0306 0.468707 -0.876155 0.112547 0 
0.0978 0.2337 -0.0319 0.510712 -0.846281 0.151595 0 
0.0965 0.2338 -0.0303 0.471075 -0.87526 0.109585 0 
0.0962 0.2338 -0.0294 0.498342 -0.861032 0.101382 0 
0.0962 0.2335 -0.0287 0.534093 -0.838048 0.11145 0 
0.0965 0.2334 -0.0287 0.521888 -0.845719 0.111317 0 
0.0968 0.2335 -0.0285 0.51174 -0.85194 0.110997 0 
0.0962 0.2335 -0.0284 0.541948 -0.832537 0.114783 0 
0.0962 0.2335 -0.0281 0.549733 -0.828226 0.108786 0 
0.0965 0.2335 -0.0284 0.525267 -0.843611 0.11142 0 
0.0968 0.2335 -0.0281 0.523038 -0.845794 0.105184 0 
0.0969 0.2335 -0.0287 0.501419 -0.857728 0.113502 0 
0.0971 0.2335 -0.0285 0.492473 -0.862905 0.113427 0 
0.0974 0.2329 -0.0281 0.501714 -0.85906 0.101486 0 
0.0971 0.2334 -0.0284 0.507107 -0.854755 0.110615 0 
0.0971 0.2334 -0.0281 0.504936 -0.856817 0.10442 0 
0.0972 0.2328 -0.0275 0.524122 -0.846878 0.0899718 0 
0.0962 0.2335 -0.0278 0.549994 -0.827179 0.115251 0 
0.0962 0.2335 -0.0275 0.550942 -0.825682 0.121295 0 
0.0972 0.2332 -0.0278 0.516185 -0.850776 0.0986614 0 
0.0969 0.2335 -0.0279 0.518403 -0.848687 0.104829 0 
0.0969 0.2335 -0.0275 0.520802 -0.847918 0.0989955 0 
0.0969 0.2334 -0.0273 0.518403 -0.848687 0.104829 0 
0.0962 0.2335 -0.0272 0.54983 -0.825479 0.127561 0 
0.0962 0.2335 -0.0269 0.554478 -0.819082 0.147167 0 
0.0966 0.2335 -0.0272 0.539891 -0.833847 0.114963 0 
0.0965 0.2335 -0.0269 0.548623 -0.823673 0.14344 0 
0.0962 0.2335 -0.0266 0.560779 -0.810349 0.169888 0 
0.0969 0.2332 -0.027 0.529761 -0.840361 0.114661 0 
0.0969 0.2332 -0.0267 0.5331 -0.836894 0.124147 0 
0.0962 0.2335 -0.0263 0.559233 -0.807781 0.186411 0 
0.0966 0.2335 -0.0263 0.541472 -0.823457 0.169491 0 
0.0962 0.2335 -0.026 0.5405 -0.819078 0.192279 0 
0.0962 0.2335 -0.0257 0.509748 -0.836471 0.201177 0 
0.0966 0.2337 -0.0281 0.521888 -0.845719 0.111317 0 
0.0966 0.2338 -0.0278 0.516185 -0.850776 0.0986614 0 
0.0966 0.2337 -0.0275 0.521888 -0.845719 0.111317 0 
0.0966 0.2337 -0.0257 0.488915 -0.850742 0.192875 0 
0.095 0.2319 -0.0255 0.529637 -0.813757 0.23934 0 
0.0944 0.2328 -0.0255 0.522524 -0.818468 0.238912 0 
0.0944 0.2328 -0.0246 0.439243 -0.861767 0.253818 0 
0.0942 0.2329 -0.0243 0.407359 -0.876349 0.257042 0 
0.0944 0.2329 -0.0243 0.399757 -0.88186 0.250035 0 
0.0942 0.2334 -0.0243 0.399456 -0.881197 0.252839 0 
0.0951 0.2326 -0.0252 0.488583 -0.841703 0.229832 0 
0.0945 0.2326 -0.0251 0.497943 -0.830933 0.248201 0 
0.0945 0.2328 -0.0249 0.459207 -0.852813 0.248674 0 
0.0945 0.2329 -0.0255 0.521964 -0.820669 0.232497 0 
0.0947 0.2332 -0.0255 0.511654 -0.829338 0.224517 0 
0.0945 0.2329 -0.0252 0.493064 -0.838057 0.233557 0 
0.0947 0.2332 -0.0252 0.488583 -0.841703 0.229832 0 
0.0948 0.2334 -0.0255 0.508448 -0.832144 0.221396 0 
0.0945 0.2329 -0.0251 0.489862 -0.836911 0.244163 0 
0.0947 0.2332 -0.0251 0.483585 -0.843605 0.233402 0 
0.0948 0.2334 -0.0251 0.474302 -0.850106 0.228817 0 
0.0948 0.2334 -0.0249 0.452207 -0.860555 0.234422 0 
0.0951 0.2332 -0.0249 0.446055 -0.866578 0.223778 0 
0.0954 0.2329 -0.0255 0.496833 -0.840209 0.217269 0 
0.0957 0.2332 -0.0255 0.499809 -0.841068 0.20687 0 
0.096 0.2335 -0.0255 0.489199 -0.847443 0.206216 0 
0.0954 0.2331 -0.0249 0.436933 -0.872374 0.219212 0 
0.0957 0.2332 -0.0251 0.460046 -0.861649 0.214288 0 
0.0954 0.2334 -0.0251 0.458264 -0.860936 0.220868 0 
0.096 0.2335 -0.0251 0.428262 -0.881543 0.198678 0 
0.0957 0.2334 -0.0249 0.406187 -0.890092 0.206759 0 
0.0945 0.2326 -0.024 0.372463 -0.891834 0.256718 0 
0.0945 0.2329 -0.0248 0.448889 -0.856693 0.254117 0 
0.0945 0.2332 -0.0248 0.444469 -0.860115 0.250298 0 
0.0945 0.2329 -0.0245 0.426521 -0.86962 0.248678 0 
0.0945 0.2332 -0.0245 0.405368 -0.881039 0.243819 0 
0.0947 0.2335 -0.0246 0.400261 -0.885335 0.236585 0 
0.0951 0.2335 -0.0246 0.37955 -0.898318 0.221282 0 
0.0947 0.2335 -0.0243 0.369898 -0.897482 0.240213 0 
0.0947 0.2335 -0.0242 0.362158 -0.90173 0.236063 0 
0.0951 0.2335 -0.0243 0.341985 -0.913403 0.220775 0 
0.0954 0.2332 -0.0246 0.390096 -0.893541 0.222281 0 
0.0957 0.2335 -0.0246 0.360947 -0.910277 0.202763 0 
0.096 0.2335 -0.0246 0.324956 -0.927038 0.187096 0 
0.0954 0.2334 -0.0243 0.326063 -0.921235 0.212155 0 
0.0944 0.2328 -0.0239 0.349971 -0.903482 0.247469 0 
0.0942 0.2331 -0.024 0.362822 -0.895948 0.256197 0 
0.0941 0.2332 -0.0237 0.366079 -0.893708 0.259368 0 
0.0942 0.2334 -0.024 0.365665 -0.895658 0.253153 0 
0.0942 0.2334 -0.0237 0.351311 -0.901062 0.254297 0 
0.0939 0.2329 -0.0236 0.364192 -0.893385 0.26311 0 
0.0939 0.2332 -0.0234 0.35929 -0.897486 0.255791 0 
0.0938 0.2331 -0.0233 0.356975 -0.900518 0.248267 0 
0.0941 0.2335 -0.0234 0.304715 -0.92273 0.236047 0 
0.0944 0.2335 -0.0236 0.301911 -0.922904 0.238953 0 
0.0934 0.2332 -0.023 0.436445 -0.862245 0.257001 0 
0.0933 0.2332 -0.0227 0.447569 -0.860242 0.244266 0 
0.0933 0.2332 -0.0225 0.447235 -0.859601 0.247116 0 
0.0939 0.2332 -0.0232 0.348622 -0.905834 0.240681 0 
0.0939 0.2332 -0.023 0.303055 -0.9289 0.212844 0 
0.0939 0.2335 -0.023 0.311648 -0.923558 0.223419 0 
0.0941 0.2335 -0.0232 0.273206 -0.938885 0.209412 0 
0.0944 0.2335 -0.0231 0.277047 -0.936949 0.213006 0 
0.0942 0.2335 -0.0228 0.298341 -0.928957 0.21916 0 
0.0944 0.2335 -0.0228 0.296962 -0.930293 0.215333 0 
0.0938 0.2334 -0.0227 0.326259 -0.921788 0.209433 0 
0.0939 0.2335 -0.0227 0.305351 -0.930124 0.204036 0 
0.0944 0.2335 -0.0226 0.281358 -0.938322 0.20097 0 
0.0945 0.2335 -0.0239 0.32589 -0.913941 0.241883 0 
0.0945 0.2335 -0.0234 0.276132 -0.934923 0.222868 0 
0.0948 0.2335 -0.0227 0.260165 -0.942926 0.207857 0 
0.0954 0.2335 -0.0225 0.235609 -0.949247 0.208371 0 
0.0947 0.2337 -0.0242 0.361906 -0.901102 0.238829 0 
0.0948 0.2338 -0.0242 0.328061 -0.914813 0.235568 0 
0.0951 0.2341 -0.024 0.29875 -0.927398 0.225124 0 
0.0959 0.2338 -0.0243 0.306176 -0.932508 0.191535 0 
0.0945 0.2338 -0.0239 0.322442 -0.915272 0.24147 0 
0.0945 0.2338 -0.0237 0.315568 -0.917884 0.240638 0 
0.0951 0.234 -0.024 0.300132 -0.925999 0.229011 0 
0.0948 0.2338 -0.0237 0.299935 -0.925393 0.231704 0 
0.0947 0.2337 -0.0234 0.27486 -0.936199 0.219051 0 
0.0948 0.2338 -0.0234 0.270478 -0.939044 0.212221 0 
0.0948 0.2338 -0.0234 0.270478 -0.939044 0.212221 0 
0.0951 0.234 -0.0234 0.256928 -0.9439 0.207466 0 
0.0954 0.2337 -0.024 0.305493 -0.925004 0.225923 0 
0.0959 0.234 -0.024 0.254873 -0.94372 0.210787 0 
0.0953 0.2341 -0.0237 0.264633 -0.940762 0.211983 0 
0.0959 0.2343 -0.0237 0.212604 -0.956051 0.201907 0 
0.0954 0.2343 -0.0236 0.240524 -0.949866 0.199757 0 
0.0954 0.2344 -0.0233 0.232901 -0.94931 0.211109 0 
0.0959 0.2343 -0.0234 0.200809 -0.958828 0.200809 0 
0.0945 0.2338 -0.0232 0.272278 -0.936914 0.219218 0 
0.0945 0.2338 -0.0231 0.268819 -0.937385 0.221462 0 
0.0947 0.2337 -0.0228 0.260165 -0.942926 0.207857 0 
0.0948 0.2338 -0.0232 0.268984 -0.93796 0.218811 0 
0.095 0.234 -0.0231 0.262424 -0.940007 0.217993 0 
0.0951 0.234 -0.0231 0.262424 -0.940007 0.217993 0 
0.095 0.2338 -0.0228 0.245057 -0.946001 0.2122 0 
0.0947 0.234 -0.0228 0.276132 -0.934923 0.222868 0 
0.0951 0.2337 -0.0227 0.241504 -0.948277 0.206028 0 
0.095 0.234 -0.0228 0.235002 -0.949515 0.207834 0 
0.0951 0.234 -0.0228 0.237699 -0.949438 0.2051 0 
0.0954 0.234 -0.0231 0.2323 -0.949578 0.210565 0 
0.0959 0.2341 -0.0231 0.202643 -0.960236 0.192047 0 
0.0959 0.234 -0.0228 0.21626 -0.955035 0.202827 0 
