0.0565365 0.245971 -0.0417181 -0.4224 0.172734 0.889798 0 
0.0564789 0.24618 -0.0419248 -0.429044 0.113943 0.896068 0 
0.0566846 0.245853 -0.0413955 -0.464987 0.181566 0.866499 0 
0.0568885 0.246001 -0.0419306 -0.423215 0.163219 0.891206 0 
0.0571444 0.245912 -0.0418016 -0.458421 0.19138 0.867885 0 
0.0568955 0.245646 -0.0407932 -0.510015 0.272944 0.815712 0 
0.0571514 0.245557 -0.0406642 -0.526406 0.313299 0.790405 0 
0.0569405 0.245764 -0.0412664 -0.506028 0.25224 0.82481 0 
0.0572648 0.245614 -0.0413152 -0.516736 0.301824 0.801178 0 
0.0574523 0.245586 -0.0410085 -0.525914 0.327697 0.784875 0 
0.0545783 0.245605 -0.0411083 -0.0639962 0.330429 0.941659 0 
0.0546615 0.246145 -0.0415995 -0.110267 0.179648 0.977532 0 
0.0543727 0.245933 -0.0416377 -0.0302228 0.238156 0.970757 0 
0.0546286 0.245844 -0.0415087 -0.074519 0.256396 0.963695 0 
0.0548845 0.245755 -0.0413797 -0.117716 0.20885 0.970837 0 
0.0549858 0.245995 -0.0416482 -0.096785 0.180094 0.978876 0 
0.0551404 0.245666 -0.0412508 -0.150831 0.199819 0.968154 0 
0.055327 0.245877 -0.0414763 -0.180746 0.160236 0.970389 0 
0.0553621 0.245608 -0.0410329 -0.243955 0.16397 0.955824 0 
0.0555496 0.245581 -0.0407261 -0.284542 0.180072 0.9416 0 
0.055583 0.245788 -0.0413473 -0.22289 0.149897 0.96325 0 
0.0558389 0.245699 -0.0412183 -0.331843 0.144579 0.932189 0 
0.0557029 0.245584 -0.0403305 -0.40314 0.190655 0.895058 0 
0.0563503 0.245616 -0.04043 -0.501046 0.290575 0.815181 0 
0.0559588 0.245495 -0.0402016 -0.493626 0.340266 0.800345 0 
0.0560264 0.245672 -0.0409116 -0.390247 0.170108 0.904859 0 
0.0563507 0.245522 -0.0409603 -0.472708 0.280525 0.835376 0 
0.0584141 0.247977 -0.0401095 -0.669034 -0.0985172 0.736673 0 
0.0580399 0.247795 -0.0401907 -0.634437 -0.0323549 0.772297 0 
0.0579901 0.247462 -0.0403206 -0.61812 0.00412998 0.786073 0 
0.058217 0.247525 -0.0400299 -0.637493 -0.0323672 0.769776 0 
0.058246 0.247373 -0.0401916 -0.627779 -0.0208796 0.778112 0 
0.0585518 0.247617 -0.0399327 -0.662254 -0.0706981 0.745937 0 
0.0584232 0.247103 -0.0400308 -0.634437 -0.0323549 0.772297 0 
0.0590688 0.247561 -0.0396018 -0.590642 -0.0761655 0.803331 0 
0.0591645 0.247773 -0.0394129 -0.555305 -0.0607585 0.829425 0 
0.0586435 0.247377 -0.0398148 -0.640554 -0.0527851 0.766097 0 
0.0589848 0.247259 -0.0396429 -0.594336 -0.0853183 0.799678 0 
0.0585254 0.247105 -0.0397671 -0.62345 -0.0351834 0.781071 0 
0.0586566 0.246956 -0.0396651 -0.611162 -0.0672707 0.788642 0 
0.0589675 0.247321 -0.0393333 -0.553449 -0.0754057 0.829462 0 
0.0590701 0.247229 -0.0395999 -0.576315 -0.0757933 0.813705 0 
0.0594014 0.248172 -0.0384459 -0.512849 -0.0894999 0.853801 0 
0.0595958 0.24784 -0.0385947 -0.498879 -0.125804 0.857493 0 
0.0595278 0.247808 -0.0389473 -0.526405 -0.105281 0.84369 0 
0.06005 0.247872 -0.0385434 -0.46701 -0.149851 0.871462 0 
0.0597837 0.247719 -0.0388183 -0.493284 -0.125853 0.860716 0 
0.0598032 0.247087 -0.0385937 -0.478415 -0.124991 0.869193 0 
0.0593862 0.247715 -0.0391951 -0.545103 -0.0844123 0.834108 0 
0.0596486 0.247416 -0.0389912 -0.504936 -0.10442 0.856817 0 
0.0597339 0.247386 -0.0389483 -0.492235 -0.122698 0.861772 0 
0.0595412 0.247293 -0.0393279 -0.535154 -0.0841975 0.840548 0 
0.0595646 0.247114 -0.0390323 -0.493284 -0.125853 0.860716 0 
0.059326 0.24714 -0.0394709 -0.535154 -0.0841975 0.840548 0 
0.0601184 0.247811 -0.0387212 -0.474392 -0.140722 0.868993 0 
0.0603285 0.247843 -0.0386511 -0.472221 -0.159356 0.866956 0 
0.0604822 0.247752 -0.0387859 -0.453523 -0.161868 0.876422 0 
0.0588345 0.246448 -0.038972 -0.508304 -0.104525 0.854811 0 
0.0593429 0.245724 -0.0393154 -0.499058 -0.122956 0.857801 0 
0.0594962 0.245727 -0.0389198 -0.488332 -0.134762 0.862189 0 
0.0587372 0.245213 -0.0386977 -0.48749 -0.0712377 0.870218 0 
0.0592299 0.245574 -0.0391947 -0.499058 -0.122956 0.857801 0 
0.0589186 0.245302 -0.0389962 -0.485047 -0.0857619 0.870273 0 
0.0596327 0.245699 -0.0387449 -0.461371 -0.12427 0.878461 0 
0.0600765 0.245489 -0.0388396 -0.42553 -0.116564 0.897406 0 
0.0596391 0.245488 -0.0386701 -0.45456 -0.123971 0.882047 0 
0.059378 0.245456 -0.038872 -0.481663 -0.131626 0.866415 0 
0.0591394 0.245482 -0.0393106 -0.514854 -0.129807 0.847394 0 
0.0592814 0.245481 -0.0395931 -0.526307 -0.123923 0.841216 0 
0.0598197 0.245816 -0.0395008 -0.493284 -0.125853 0.860716 0 
0.0598876 0.245848 -0.0391482 -0.461371 -0.12427 0.878461 0 
0.0602289 0.24573 -0.0389762 -0.422159 -0.116409 0.899016 0 
0.0575554 0.24535 -0.0402125 -0.5474 0.223586 0.806451 0 
0.0613127 0.247397 -0.0381192 -0.417311 -0.224249 0.880661 0 
0.061166 0.247184 -0.03844 -0.418652 -0.211545 0.883164 0 
0.0611854 0.246552 -0.0382154 -0.41241 -0.214335 0.885425 0 
0.0612539 0.246491 -0.0383931 -0.41241 -0.214335 0.885425 0 
0.0616934 0.24737 -0.0379632 -0.400261 -0.236585 0.885335 0 
0.061864 0.24731 -0.0378772 -0.390095 -0.24177 0.888467 0 
0.0614569 0.246826 -0.0378676 -0.38984 -0.225077 0.892953 0 
0.061864 0.24731 -0.0378772 -0.390095 -0.24177 0.888467 0 
0.0621199 0.247222 -0.0377482 -0.367051 -0.260057 0.893109 0 
0.0622052 0.247192 -0.0377052 -0.364873 -0.266581 0.892078 0 
0.0618601 0.246858 -0.0379482 -0.378405 -0.247818 0.891849 0 
0.0614414 0.246463 -0.0380864 -0.393621 -0.22261 0.891912 0 
0.0613232 0.246192 -0.0380386 -0.393621 -0.22261 0.891912 0 
0.0617934 0.246494 -0.0382989 -0.38581 -0.23799 0.891354 0 
0.0614258 0.2461 -0.0383052 -0.393361 -0.225409 0.891324 0 
0.0615284 0.246009 -0.0385718 -0.396366 -0.219548 0.891455 0 
0.061612 0.246404 -0.0380004 -0.3818 -0.231439 0.894799 0 
0.0616752 0.246222 -0.0382511 -0.3818 -0.231439 0.894799 0 
0.0620493 0.246405 -0.0381699 -0.369203 -0.253549 0.894093 0 
0.0602969 0.245762 -0.0386236 -0.414254 -0.131487 0.900614 0 
0.0603324 0.2454 -0.0387106 -0.405546 -0.127698 0.905111 0 
0.0605883 0.245311 -0.0385816 -0.393839 -0.118291 0.911536 0 
0.0603848 0.245069 -0.0385768 -0.39073 -0.0884929 0.916242 0 
0.0610491 0.245133 -0.0384555 -0.379511 -0.129284 0.91611 0 
0.0612708 0.245075 -0.0382376 -0.371566 -0.162472 0.91408 0 
0.0617973 0.245499 -0.0382931 -0.364702 -0.235811 0.90077 0 
0.0608966 0.244892 -0.0383188 -0.369534 -0.0933987 0.924511 0 
0.0611525 0.244803 -0.0381898 -0.362048 -0.125271 0.923704 0 
0.0615574 0.245857 -0.0387336 -0.396366 -0.219548 0.891455 0 
0.0616596 0.245859 -0.0384699 -0.38734 -0.225335 0.893975 0 
0.0620008 0.245741 -0.0382979 -0.376224 -0.237538 0.895562 0 
0.061014 0.245402 -0.0388989 -0.388743 -0.138937 0.91081 0 
0.0609862 0.245222 -0.0387351 -0.382756 -0.105635 0.91779 0 
0.0612751 0.245434 -0.0386969 -0.38713 -0.154569 0.908977 0 
0.0612422 0.245133 -0.0386062 -0.376188 -0.117128 0.91911 0 
0.061644 0.245496 -0.0386887 -0.377482 -0.201034 0.903932 0 
0.0615085 0.245286 -0.0383313 -0.372545 -0.220605 0.901412 0 
0.0623074 0.247194 -0.0374415 -0.361037 -0.268921 0.892936 0 
0.0623927 0.247165 -0.0373985 -0.355565 -0.272253 0.894121 0 
0.0623758 0.247133 -0.0376192 -0.356833 -0.265033 0.895783 0 
0.0627171 0.247015 -0.0374472 -0.355495 -0.258139 0.898325 0 
0.0625243 0.246921 -0.0378269 -0.351089 -0.271094 0.896239 0 
0.0621896 0.246829 -0.037924 -0.361861 -0.255519 0.89653 0 
0.0621398 0.246496 -0.038054 -0.368226 -0.252878 0.894686 0 
0.0623273 0.246469 -0.0377472 -0.359693 -0.261999 0.895532 0 
0.0627015 0.246652 -0.0376661 -0.35358 -0.261856 0.898005 0 
0.0627885 0.246197 -0.0381515 -0.342759 -0.263321 0.901764 0 
0.0623291 0.246044 -0.0382756 -0.361175 -0.252085 0.897778 0 
0.0620402 0.245831 -0.0383139 -0.376224 -0.237538 0.895562 0 
0.0622962 0.245742 -0.0381849 -0.363568 -0.242869 0.899351 0 
0.0620584 0.245531 -0.0380912 -0.361861 -0.255519 0.89653 0 
0.0623996 0.245413 -0.0379192 -0.351978 -0.257725 0.899827 0 
0.0625179 0.245684 -0.037967 -0.350642 -0.250878 0.902281 0 
0.0629046 0.246987 -0.0371405 -0.34582 -0.29492 0.890748 0 
0.0628877 0.246956 -0.0373613 -0.347502 -0.284862 0.893362 0 
0.0631436 0.246867 -0.0372323 -0.34907 -0.298133 0.888407 0 
0.0628721 0.246593 -0.0375801 -0.349394 -0.257991 0.900758 0 
0.0630938 0.246534 -0.0373622 -0.345597 -0.274401 0.897366 0 
0.0636558 0.246596 -0.0375046 -0.353255 -0.302146 0.885392 0 
0.062808 0.245565 -0.0379269 -0.348065 -0.251135 0.903206 0 
0.0625703 0.245354 -0.0378332 -0.343042 -0.28364 0.895472 0 
0.0628262 0.245265 -0.0377042 -0.348065 -0.251135 0.903206 0 
0.0630639 0.245476 -0.0377979 -0.341722 -0.253725 0.904903 0 
0.0633198 0.245388 -0.0376689 -0.345811 -0.243673 0.906112 0 
0.0630821 0.245176 -0.0375753 -0.348065 -0.251135 0.903206 0 
0.0620532 0.24541 -0.0381641 -0.363508 -0.259649 0.894676 0 
0.0618389 0.245019 -0.0377748 -0.335174 -0.293463 0.895286 0 
0.0620606 0.244961 -0.037557 -0.352384 -0.278041 0.893599 0 
0.0621277 0.245232 -0.0377367 -0.349133 -0.274849 0.89586 0 
0.0624625 0.245324 -0.0376396 -0.35358 -0.261856 0.898005 0 
0.0627184 0.245235 -0.0375106 -0.347397 -0.247722 0.904405 0 
0.0629743 0.245147 -0.0373816 -0.348065 -0.251135 0.903206 0 
0.0627491 0.246106 -0.0381355 -0.346268 -0.263753 0.900296 0 
0.0630444 0.246108 -0.0380225 -0.341434 -0.270487 0.900144 0 
0.0633337 0.246227 -0.0385146 -0.332749 -0.279509 0.90064 0 
0.0635212 0.246199 -0.0382079 -0.343401 -0.266762 0.900507 0 
0.063403 0.245928 -0.0381601 -0.339517 -0.260149 0.903908 0 
0.0628409 0.245866 -0.0380177 -0.33702 -0.269322 0.902155 0 
0.0630968 0.245777 -0.0378887 -0.343023 -0.26058 0.90246 0 
0.0633527 0.245689 -0.0377597 -0.339256 -0.262887 0.903214 0 
0.0638433 0.246568 -0.0371979 -0.354487 -0.309234 0.882447 0 
0.0634233 0.245058 -0.0374033 -0.355605 -0.224975 0.907156 0 
0.0637134 0.244939 -0.0373631 -0.356544 -0.225568 0.90664 0 
0.064867 0.246214 -0.036682 -0.395132 -0.300544 0.868069 0 
0.0652429 0.245971 -0.0371292 -0.395814 -0.30412 0.866512 0 
0.0648358 0.245487 -0.0371196 -0.388765 -0.285901 0.875855 0 
0.0647176 0.245216 -0.0370718 -0.384105 -0.275651 0.881181 0 
0.0640503 0.24596 -0.0382595 -0.343023 -0.26058 0.90246 0 
0.0639321 0.245688 -0.0382117 -0.342992 -0.246662 0.906374 0 
0.0645435 0.246176 -0.0376939 -0.374727 -0.281421 0.883392 0 
0.0646916 0.246058 -0.0373712 -0.381577 -0.285052 0.879286 0 
0.0645106 0.245875 -0.0376031 -0.376938 -0.27482 0.884529 0 
0.064563 0.245544 -0.0374693 -0.379122 -0.268233 0.885617 0 
0.0647666 0.245786 -0.0374741 -0.384804 -0.279171 0.879767 0 
0.064819 0.245456 -0.0373403 -0.384105 -0.275651 0.881181 0 
0.0649541 0.245759 -0.0371674 -0.388765 -0.285901 0.875855 0 
0.0645643 0.245213 -0.0374674 -0.374154 -0.260864 0.88992 0 
0.0645825 0.244913 -0.0372447 -0.373772 -0.230126 0.898519 0 
0.06477 0.244885 -0.036938 -0.391586 -0.24865 0.885908 0 
0.065294 0.245972 -0.0369973 -0.399442 -0.304555 0.864692 0 
0.0654988 0.245883 -0.0370002 -0.406807 -0.287964 0.86694 0 
0.0647709 0.244647 -0.0364057 -0.398437 -0.232545 0.887226 0 
0.0648882 0.245157 -0.0369858 -0.394846 -0.259727 0.881271 0 
0.0649918 0.244827 -0.0367202 -0.396937 -0.253141 0.882248 0 
0.0650268 0.244558 -0.0362767 -0.413463 -0.204524 0.887253 0 
0.0652827 0.24447 -0.0361478 -0.430834 -0.208755 0.877954 0 
0.0656058 0.244651 -0.0361985 -0.432812 -0.212688 0.876035 0 
0.065947 0.244533 -0.0360265 -0.458254 -0.207483 0.864265 0 
0.06521 0.24567 -0.0370384 -0.39597 -0.286737 0.872347 0 
0.0652624 0.245339 -0.0369046 -0.399905 -0.267106 0.876773 0 
0.0657837 0.245642 -0.037033 -0.424844 -0.252487 0.869343 0 
0.0655867 0.24519 -0.0369533 -0.423302 -0.234836 0.875024 0 
0.0657391 0.245431 -0.03709 -0.425721 -0.245203 0.870998 0 
0.0652979 0.244977 -0.0369915 -0.411829 -0.230446 0.881641 0 
0.065588 0.244858 -0.0369514 -0.429268 -0.212406 0.877846 0 
0.0652819 0.244708 -0.03668 -0.422781 -0.22857 0.876933 0 
0.0658426 0.245101 -0.0368244 -0.434515 -0.219497 0.873509 0 
0.0659951 0.245342 -0.036961 -0.436206 -0.226348 0.870914 0 
0.0660132 0.245042 -0.0367384 -0.436206 -0.226348 0.870914 0 
0.0661657 0.245283 -0.036875 -0.436206 -0.226348 0.870914 0 
0.0662956 0.245465 -0.036775 -0.439233 -0.243012 0.864881 0 
0.0662861 0.244985 -0.0363887 -0.443458 -0.213517 0.870492 0 
0.0664675 0.245074 -0.0366871 -0.447011 -0.213788 0.868606 0 
0.0666541 0.245285 -0.0369126 -0.447011 -0.213788 0.868606 0 
0.0658439 0.244769 -0.0368225 -0.436358 -0.212967 0.874206 0 
0.0655378 0.244619 -0.036551 -0.436358 -0.212967 0.874206 0 
0.0660656 0.244711 -0.0366046 -0.439694 -0.202822 0.874947 0 
0.0659293 0.244689 -0.0351865 -0.459983 -0.200963 0.864887 0 
0.0671482 0.245263 -0.0358148 -0.441338 -0.222913 0.869212 0 
0.0667979 0.244807 -0.0361307 -0.445852 -0.213234 0.869337 0 
0.0669672 0.24508 -0.0360466 -0.443458 -0.213517 0.870492 0 
0.0670196 0.244749 -0.0359129 -0.439626 -0.216087 0.8718 0 
0.0661003 0.244536 -0.0356309 -0.449658 -0.197375 0.87112 0 
0.0662532 0.244683 -0.0362979 -0.454714 -0.20723 0.866193 0 
0.0663211 0.244716 -0.0359453 -0.442341 -0.199719 0.874326 0 
0.0673097 0.24463 -0.0358727 -0.43608 -0.215807 0.873648 0 
0.0676839 0.244813 -0.0357915 -0.427408 -0.218916 0.877154 0 
0.0668074 0.245287 -0.0365171 -0.435498 -0.209574 0.875454 0 
0.0666104 0.244835 -0.0364374 -0.447911 -0.203867 0.870525 0 
0.0670802 0.24523 -0.0361674 -0.443174 -0.216364 0.869933 0 
0.0668767 0.244988 -0.0361625 -0.443458 -0.213517 0.870492 0 
0.0675068 0.245082 -0.0359524 -0.432537 -0.215525 0.875478 0 
0.0673886 0.244811 -0.0359046 -0.432537 -0.215525 0.875478 0 
0.0677129 0.244661 -0.0359533 -0.429979 -0.205385 0.879167 0 
0.0675657 0.244541 -0.0357437 -0.425727 -0.212122 0.879637 0 
0.0679398 0.244724 -0.0356625 -0.424618 -0.211569 0.880306 0 
0.0687075 0.244458 -0.0352756 -0.413758 -0.254273 0.874157 0 
0.0688899 0.244309 -0.0350418 -0.40333 -0.250395 0.880129 0 
0.068811 0.244128 -0.0350099 -0.404302 -0.243178 0.881706 0 
0.0679688 0.244572 -0.0358243 -0.425603 -0.201756 0.882132 0 
0.06789 0.244391 -0.0357925 -0.431778 -0.198942 0.879767 0 
0.0681394 0.244513 -0.0357383 -0.431687 -0.212135 0.876724 0 
0.0681957 0.244635 -0.0355335 -0.427408 -0.218916 0.877154 0 
0.0684516 0.244547 -0.0354046 -0.427408 -0.218916 0.877154 0 
0.0681459 0.244303 -0.0356635 -0.4274 -0.195341 0.882707 0 
0.0684122 0.244456 -0.0353886 -0.424407 -0.224861 0.877107 0 
0.0683334 0.244275 -0.0353568 -0.421675 -0.227973 0.877621 0 
0.0685828 0.244397 -0.0353026 -0.413758 -0.254273 0.874157 0 
0.0690488 0.24434 -0.0351036 -0.398999 -0.246572 0.883177 0 
0.0691631 0.244158 -0.0352224 -0.403026 -0.253202 0.879465 0 
0.0693047 0.244251 -0.0349746 -0.393067 -0.255568 0.88328 0 
0.0690618 0.243918 -0.0349539 -0.39364 -0.242126 0.886805 0 
0.0693177 0.24383 -0.0348249 -0.400205 -0.256311 0.879852 0 
0.0699816 0.243987 -0.0341733 -0.387307 -0.310764 0.867997 0 
0.0695935 0.244463 -0.0349364 -0.393128 -0.272629 0.878137 0 
0.0693571 0.24392 -0.0348408 -0.394536 -0.262524 0.880581 0 
0.0695606 0.244162 -0.0348456 -0.391289 -0.276471 0.877757 0 
0.0699192 0.243982 -0.0349832 -0.378313 -0.281851 0.881725 0 
0.0697944 0.243921 -0.0350103 -0.387695 -0.276063 0.879478 0 
0.0701058 0.244192 -0.0352088 -0.382259 -0.288583 0.877837 0 
0.0702604 0.243864 -0.0348113 -0.38266 -0.309482 0.870513 0 
0.0698689 0.243743 -0.0345828 -0.383614 -0.295671 0.874882 0 
0.07067 0.243684 -0.0348171 -0.384982 -0.317495 0.866594 0 
0.0715577 0.243214 -0.0334134 -0.455345 -0.282468 0.844318 0 
0.070738 0.243717 -0.0344644 -0.38824 -0.32072 0.863949 0 
0.0709588 0.243897 -0.0347788 -0.38824 -0.32072 0.863949 0 
0.0711134 0.243568 -0.0343813 -0.415494 -0.295905 0.860119 0 
0.0708926 0.243388 -0.0340669 -0.408601 -0.292295 0.864643 0 
0.0713343 0.243748 -0.0346957 -0.412952 -0.296282 0.861213 0 
0.0715733 0.243628 -0.0347875 -0.431069 -0.280732 0.857536 0 
0.0713867 0.243417 -0.0345619 -0.426678 -0.276805 0.861002 0 
0.0721371 0.243213 -0.0338654 -0.460557 -0.28998 0.838927 0 
0.072358 0.243393 -0.0341798 -0.462115 -0.297185 0.835542 0 
0.0725286 0.243334 -0.0340938 -0.469289 -0.309197 0.827142 0 
0.0728698 0.243216 -0.0339218 -0.476621 -0.309882 0.822682 0 
0.0734501 0.242977 -0.0338416 -0.476914 -0.316368 0.820039 0 
0.073518 0.24301 -0.033489 -0.469586 -0.315675 0.824523 0 
0.0733998 0.242738 -0.0334412 -0.478901 -0.320848 0.817135 0 
0.0735687 0.243104 -0.0328268 -0.460756 -0.307691 0.832484 0 
0.0737562 0.243077 -0.0325201 -0.441728 -0.302235 0.844707 0 
0.0740805 0.242927 -0.0325688 -0.420235 -0.297089 0.857403 0 
0.0753943 0.242453 -0.0320127 -0.365976 -0.290672 0.884065 0 
0.0759404 0.24514 -0.0317132 -0.365976 -0.290672 0.884065 0 
0.076111 0.245081 -0.0316272 -0.362078 -0.292968 0.884912 0 
0.0758118 0.244626 -0.0318113 -0.365976 -0.290672 0.884065 0 
0.0761348 0.244808 -0.0318619 -0.360784 -0.285932 0.887737 0 
0.0759144 0.244535 -0.0320779 -0.366302 -0.296961 0.881838 0 
0.0758304 0.244233 -0.0321189 -0.374135 -0.301428 0.87702 0 
0.0760694 0.244113 -0.0322107 -0.372172 -0.305333 0.876504 0 
0.0760694 0.244113 -0.0322107 -0.372172 -0.305333 0.876504 0 
0.076247 0.245146 -0.030922 -0.359645 -0.31412 0.878626 0 
0.0766228 0.244904 -0.0313692 -0.347938 -0.311788 0.884153 0 
0.0768787 0.244815 -0.0312403 -0.344086 -0.30502 0.888013 0 
0.0762881 0.244811 -0.0314663 -0.360102 -0.29682 0.884434 0 
0.0764414 0.244814 -0.0310708 -0.355099 -0.312789 0.880947 0 
0.0764189 0.244755 -0.0308341 -0.354487 -0.309234 0.882447 0 
0.0763907 0.24472 -0.0317329 -0.352634 -0.298613 0.886837 0 
0.0762833 0.244597 -0.0320696 -0.351688 -0.288833 0.890444 0 
0.0765392 0.244508 -0.0319406 -0.34907 -0.298133 0.888407 0 
0.0764435 0.244295 -0.0321295 -0.351383 -0.291573 0.889672 0 
0.0766466 0.244631 -0.0316039 -0.352634 -0.298613 0.886837 0 
0.0769026 0.244542 -0.031475 -0.34907 -0.298133 0.888407 0 
0.0768125 0.244357 -0.0321212 -0.351383 -0.291573 0.889672 0 
0.0768346 0.24451 -0.0318276 -0.34582 -0.29492 0.890748 0 
0.076631 0.244268 -0.0318228 -0.351688 -0.288833 0.890444 0 
0.0765812 0.243935 -0.0319527 -0.351089 -0.271094 0.896239 0 
0.0767163 0.244238 -0.0317798 -0.347502 -0.284862 0.893362 0 
0.076887 0.244179 -0.0316938 -0.344315 -0.267472 0.899948 0 
0.0768714 0.243816 -0.0319126 -0.349127 -0.26074 0.900069 0 
0.0762175 0.243994 -0.031888 -0.358507 -0.292506 0.886517 0 
0.0762916 0.243961 -0.0325232 -0.365258 -0.310696 0.877528 0 
0.0764777 0.244265 -0.0322184 -0.351383 -0.291573 0.889672 0 
0.0767337 0.244176 -0.0320894 -0.347502 -0.284862 0.893362 0 
0.0760538 0.243749 -0.0324295 -0.372172 -0.305333 0.876504 0 
0.0763885 0.243842 -0.0323323 -0.355574 -0.295562 0.886685 0 
0.0763439 0.24363 -0.0323894 -0.360102 -0.29682 0.884434 0 
0.0761915 0.243389 -0.0322527 -0.365976 -0.290672 0.884065 0 
0.0766458 0.243421 -0.0322015 -0.35358 -0.261856 0.898005 0 
0.0764422 0.243179 -0.0321966 -0.361037 -0.268921 0.892936 0 
0.0766982 0.243091 -0.0320677 -0.351978 -0.257725 0.899827 0 
0.0758711 0.242544 -0.0321982 -0.376938 -0.27482 0.884529 0 
0.0761707 0.242905 -0.0325444 -0.374727 -0.281421 0.883392 0 
0.0760183 0.242664 -0.0324078 -0.373054 -0.277169 0.885442 0 
0.0764267 0.242816 -0.0324155 -0.369792 -0.273976 0.887801 0 
0.0761903 0.242273 -0.0323199 -0.376008 -0.257112 0.890231 0 
0.0763937 0.242515 -0.0323247 -0.367051 -0.260057 0.893109 0 
0.0770494 0.244756 -0.0311542 -0.34139 -0.314319 0.885808 0 
0.07722 0.244697 -0.0310683 -0.34907 -0.298133 0.888407 0 
0.0774759 0.244608 -0.0309393 -0.349485 -0.281075 0.893788 0 
0.077152 0.244664 -0.0314208 -0.34783 -0.291102 0.89122 0 
0.0774932 0.244546 -0.0312489 -0.349485 -0.281075 0.893788 0 
0.0770052 0.244451 -0.0317416 -0.343664 -0.28713 0.894121 0 
0.0770407 0.244089 -0.0318286 -0.341434 -0.270487 0.900144 0 
0.0772217 0.244271 -0.0315967 -0.34179 -0.276687 0.898123 0 
0.0770576 0.24412 -0.0316078 -0.345597 -0.274401 0.897366 0 
0.0771035 0.244 -0.0315489 -0.347839 -0.26791 0.898461 0 
0.0771208 0.243938 -0.0318584 -0.349127 -0.26074 0.900069 0 
0.0774776 0.244183 -0.0314677 -0.345597 -0.274401 0.897366 0 
0.0773988 0.244002 -0.0314358 -0.347839 -0.26791 0.898461 0 
0.0772126 0.243698 -0.0317406 -0.342759 -0.263321 0.901764 0 
0.0773988 0.244002 -0.0314358 -0.347839 -0.26791 0.898461 0 
0.0774343 0.24364 -0.0315228 -0.34588 -0.257571 0.902233 0 
0.0777318 0.244519 -0.0308103 -0.357527 -0.28273 0.890077 0 
0.0779877 0.244431 -0.0306813 -0.36532 -0.287145 0.885488 0 
0.0776638 0.244487 -0.0311629 -0.348846 -0.277593 0.895125 0 
0.0778344 0.244428 -0.0310769 -0.355565 -0.272253 0.894121 0 
0.0780903 0.244339 -0.0309479 -0.360784 -0.285932 0.887737 0 
0.0776482 0.244124 -0.0313817 -0.351089 -0.271094 0.896239 0 
0.0779895 0.244005 -0.0312097 -0.350713 -0.264885 0.898241 0 
0.0776547 0.243913 -0.0313068 -0.350713 -0.264885 0.898241 0 
0.0779107 0.243824 -0.0311778 -0.35358 -0.261856 0.898005 0 
0.0777245 0.24352 -0.0314826 -0.35358 -0.261856 0.898005 0 
0.0781995 0.244037 -0.0311397 -0.353965 -0.268065 0.896019 0 
0.0778951 0.243461 -0.0313966 -0.351311 -0.254297 0.901062 0 
0.0780813 0.243765 -0.0310919 -0.35358 -0.261856 0.898005 0 
0.076832 0.243725 -0.0318967 -0.349127 -0.26074 0.900069 0 
0.0770879 0.243637 -0.0317677 -0.343023 -0.26058 0.90246 0 
0.0782692 0.243644 -0.0313154 -0.346268 -0.263753 0.900296 0 
0.0769017 0.243333 -0.0320725 -0.351978 -0.257725 0.899827 0 
0.0768688 0.243032 -0.0319817 -0.350642 -0.250878 0.902281 0 
0.0771576 0.243244 -0.0319435 -0.343901 -0.247316 0.905851 0 
0.0773438 0.243548 -0.0316387 -0.348065 -0.251135 0.903206 0 
0.0774135 0.243155 -0.0318145 -0.346478 -0.247067 0.904937 0 
0.0772784 0.242852 -0.0319874 -0.341904 -0.23715 0.909319 0 
0.0768532 0.242668 -0.0322005 -0.352109 -0.241071 0.90438 0 
0.0766497 0.242426 -0.0321957 -0.355853 -0.2387 0.903544 0 
0.0771944 0.24255 -0.0320285 -0.348184 -0.234551 0.907609 0 
0.0769056 0.242338 -0.0320667 -0.354222 -0.23469 0.905233 0 
0.0771511 0.242007 -0.0320836 -0.355836 -0.222216 0.907745 0 
0.0777089 0.243157 -0.0317014 -0.352109 -0.241071 0.90438 0 
0.0776694 0.243067 -0.0316855 -0.352109 -0.241071 0.90438 0 
0.077449 0.242793 -0.0319014 -0.34447 -0.236914 0.908412 0 
0.0778245 0.242644 -0.0318183 -0.3475 -0.231182 0.908735 0 
0.0780436 0.243249 -0.0316043 -0.350642 -0.250878 0.902281 0 
0.0779938 0.242917 -0.0317343 -0.350223 -0.244717 0.904133 0 
0.0780804 0.242556 -0.0316893 -0.347265 -0.233932 0.90812 0 
0.0773651 0.242491 -0.0319425 -0.347265 -0.233932 0.90812 0 
0.0777063 0.242373 -0.0317705 -0.349593 -0.224842 0.909522 0 
0.0774071 0.241918 -0.0319546 -0.358369 -0.221986 0.906804 0 
0.0778769 0.242314 -0.0316845 -0.34798 -0.220917 0.911101 0 
0.0796116 0.24456 -0.0303256 -0.34139 -0.314319 0.885808 0 
0.0798675 0.244471 -0.0301967 -0.342557 -0.32143 0.882801 0 
0.08084 0.244115 -0.0298126 -0.34496 -0.314832 0.884242 0 
0.0809765 0.244087 -0.0296377 -0.350002 -0.298929 0.887773 0 
0.0810107 0.244056 -0.0297266 -0.350002 -0.298929 0.887773 0 
0.0813177 0.243968 -0.0294657 -0.354817 -0.306501 0.883268 0 
0.0813519 0.243938 -0.0295546 -0.356046 -0.313624 0.880268 0 
0.0812605 0.244084 -0.0302028 -0.350619 -0.302466 0.88633 0 
0.0814545 0.243846 -0.0298212 -0.354307 -0.288528 0.889504 0 
0.081455 0.243753 -0.0303515 -0.347502 -0.284862 0.893362 0 
0.0818412 0.243752 -0.0306529 -0.355574 -0.295562 0.886685 0 
0.0782437 0.244342 -0.0305523 -0.362078 -0.292968 0.884912 0 
0.0784143 0.244283 -0.0304663 -0.360102 -0.29682 0.884434 0 
0.0783463 0.24425 -0.0308189 -0.362395 -0.290217 0.885688 0 
0.0785169 0.244191 -0.0307329 -0.362078 -0.292968 0.884912 0 
0.0788568 0.244405 -0.0305629 -0.355574 -0.295562 0.886685 0 
0.0789659 0.244102 -0.0307546 -0.358507 -0.292506 0.886517 0 
0.0788754 0.244011 -0.0308706 -0.358507 -0.292506 0.886517 0 
0.0792392 0.243952 -0.0309352 -0.348757 -0.291879 0.890604 0 
0.0785407 0.243918 -0.0309677 -0.360784 -0.285932 0.887737 0 
0.0785697 0.243767 -0.0311295 -0.356222 -0.275737 0.892791 0 
0.0788992 0.243738 -0.0311053 -0.351688 -0.288833 0.890444 0 
0.0790443 0.244377 -0.0302562 -0.350002 -0.298929 0.887773 0 
0.0792717 0.244346 -0.0304957 -0.346124 -0.301173 0.888534 0 
0.0792153 0.244224 -0.0307005 -0.34907 -0.298133 0.888407 0 
0.0795055 0.244105 -0.0306604 -0.342875 -0.297957 0.890875 0 
0.0795228 0.244043 -0.03097 -0.34783 -0.291102 0.89122 0 
0.0796064 0.244439 -0.0303986 -0.341118 -0.308058 0.88811 0 
0.079777 0.244379 -0.0303126 -0.34139 -0.314319 0.885808 0 
0.0798008 0.244107 -0.0305473 -0.341962 -0.297164 0.891491 0 
0.0799493 0.243895 -0.030755 -0.342568 -0.300682 0.890077 0 
0.079234 0.243831 -0.0310082 -0.355888 -0.29282 0.887468 0 
0.0785251 0.243555 -0.0311865 -0.354244 -0.265313 0.896727 0 
0.078781 0.243467 -0.0310575 -0.353669 -0.285024 0.890887 0 
0.0791348 0.243072 -0.0317984 -0.35358 -0.261856 0.898005 0 
0.0794046 0.243771 -0.0309222 -0.346578 -0.284104 0.893962 0 
0.0795925 0.24365 -0.0311458 -0.348846 -0.277593 0.895125 0 
0.0799034 0.244015 -0.0308139 -0.341962 -0.297164 0.891491 0 
0.0798536 0.243683 -0.0309439 -0.343042 -0.28364 0.895472 0 
0.0801204 0.243742 -0.0311993 -0.340742 -0.290152 0.894263 0 
0.0793431 0.243528 -0.0311999 -0.346578 -0.284104 0.893962 0 
0.0791855 0.243166 -0.0311362 -0.35012 -0.284566 0.892434 0 
0.0793275 0.243165 -0.0314187 -0.352384 -0.278041 0.893599 0 
0.0792093 0.242894 -0.0313709 -0.354244 -0.265313 0.896727 0 
0.0797696 0.24338 -0.0309849 -0.343329 -0.280906 0.896224 0 
0.0796518 0.243015 -0.0314675 -0.344042 -0.270213 0.899233 0 
0.0795336 0.242744 -0.0314197 -0.344042 -0.270213 0.899233 0 
0.0799026 0.242806 -0.0314114 -0.341434 -0.270487 0.900144 0 
0.0783679 0.2431 -0.0316531 -0.343901 -0.247316 0.905851 0 
0.0785792 0.242799 -0.0315811 -0.346478 -0.247067 0.904937 0 
0.0782051 0.242617 -0.0316623 -0.345382 -0.237541 0.907902 0 
0.078461 0.242528 -0.0315333 -0.341234 -0.233782 0.910442 0 
0.0783363 0.242467 -0.0315604 -0.350978 -0.231558 0.907301 0 
0.0788352 0.242711 -0.0314521 -0.349394 -0.257991 0.900758 0 
0.0785134 0.242197 -0.0313995 -0.348898 -0.221499 0.910609 0 
0.078717 0.242439 -0.0314043 -0.348622 -0.240681 0.905834 0 
0.0782865 0.242134 -0.0316903 -0.348832 -0.20528 0.914427 0 
0.078474 0.242107 -0.0313836 -0.351661 -0.218522 0.910265 0 
0.0787299 0.242018 -0.0312546 -0.343121 -0.230195 0.910647 0 
0.0790911 0.242622 -0.0313231 -0.35358 -0.261856 0.898005 0 
0.0789729 0.242351 -0.0312753 -0.343901 -0.247316 0.905851 0 
0.0787352 0.242139 -0.0311817 -0.341234 -0.233782 0.910442 0 
0.0789911 0.24205 -0.0310527 -0.347807 -0.253884 0.902537 0 
0.079347 0.242533 -0.0311941 -0.354244 -0.265313 0.896727 0 
0.0792734 0.242473 -0.0310894 -0.349127 -0.26074 0.900069 0 
0.0796029 0.242445 -0.0310651 -0.343401 -0.266762 0.900507 0 
0.0795293 0.242385 -0.0309604 -0.342759 -0.263321 0.901764 0 
0.0793258 0.242143 -0.0309555 -0.341722 -0.253725 0.904903 0 
0.0788664 0.241989 -0.0310797 -0.348065 -0.251135 0.903206 0 
0.078584 0.241566 -0.031043 -0.332403 -0.20686 0.920172 0 
0.0789686 0.241991 -0.030816 -0.341722 -0.253725 0.904903 0 
0.0799303 0.244382 -0.029917 -0.339557 -0.324466 0.882849 0 
0.0801862 0.244294 -0.029788 -0.340464 -0.325333 0.882181 0 
0.0803568 0.244234 -0.029702 -0.340464 -0.325333 0.882181 0 
0.0800329 0.244291 -0.0301836 -0.34139 -0.314319 0.885808 0 
0.0802888 0.244202 -0.0300546 -0.34139 -0.314319 0.885808 0 
0.0800567 0.244018 -0.0304183 -0.338143 -0.311092 0.88819 0 
0.0802446 0.243897 -0.0306419 -0.344086 -0.30502 0.888013 0 
0.0804595 0.244143 -0.0299686 -0.342557 -0.32143 0.882801 0 
0.0803914 0.24411 -0.0303212 -0.338406 -0.31735 0.885873 0 
0.0806474 0.244022 -0.0301922 -0.34139 -0.314319 0.885808 0 
0.080698 0.244116 -0.02953 -0.340464 -0.325333 0.882181 0 
0.0809033 0.243933 -0.0300633 -0.34907 -0.298133 0.888407 0 
0.0805179 0.243746 -0.0308226 -0.339923 -0.300989 0.890987 0 
0.080103 0.243804 -0.0308897 -0.347048 -0.301976 0.887901 0 
0.0803763 0.243654 -0.0310704 -0.335773 -0.296973 0.893903 0 
0.0805006 0.243808 -0.0305129 -0.339923 -0.300989 0.890987 0 
0.0806491 0.243597 -0.0307206 -0.341651 -0.290926 0.893665 0 
0.0801282 0.2432 -0.0311226 -0.338546 -0.273498 0.900325 0 
0.0803841 0.243112 -0.0309936 -0.343042 -0.28364 0.895472 0 
0.0805547 0.243052 -0.0309076 -0.345597 -0.274401 0.897366 0 
0.0803512 0.24281 -0.0309028 -0.343401 -0.266762 0.900507 0 
0.080233 0.242539 -0.030855 -0.339256 -0.262887 0.903214 0 
0.0801979 0.242807 -0.0312984 -0.337286 -0.266589 0.902867 0 
0.0800273 0.242867 -0.0313843 -0.341434 -0.270487 0.900144 0 
0.0802503 0.242477 -0.0311646 -0.340166 -0.249649 0.906622 0 
0.0808353 0.243901 -0.0304158 -0.344899 -0.294135 0.891364 0 
0.0811085 0.24375 -0.0305965 -0.342875 -0.297957 0.890875 0 
0.0811596 0.243751 -0.0304646 -0.344899 -0.294135 0.891364 0 
0.0808721 0.243207 -0.0305008 -0.348846 -0.277593 0.895125 0 
0.0810432 0.243054 -0.0309452 -0.349133 -0.274849 0.89586 0 
0.0813476 0.24363 -0.0306882 -0.350416 -0.281824 0.893188 0 
0.0808959 0.242934 -0.0307356 -0.348846 -0.277593 0.895125 0 
0.0806071 0.242722 -0.0307738 -0.341434 -0.270487 0.900144 0 
0.0804889 0.24245 -0.030726 -0.343401 -0.266762 0.900507 0 
0.0808236 0.242542 -0.0306289 -0.343042 -0.28364 0.895472 0 
0.080863 0.242633 -0.0306448 -0.343042 -0.28364 0.895472 0 
0.0810795 0.242454 -0.0304999 -0.348846 -0.277593 0.895125 0 
0.0811189 0.242544 -0.0305158 -0.348846 -0.277593 0.895125 0 
0.0813727 0.243025 -0.030921 -0.346869 -0.281366 0.894715 0 
0.0812545 0.242754 -0.0308732 -0.348846 -0.277593 0.895125 0 
0.079428 0.242145 -0.0306918 -0.339517 -0.260149 0.903908 0 
0.0796562 0.241876 -0.0303991 -0.338857 -0.242871 0.90895 0 
0.0798588 0.242356 -0.0309362 -0.341722 -0.253725 0.904903 0 
0.0797406 0.242084 -0.0308884 -0.342992 -0.246662 0.906374 0 
0.0801148 0.242267 -0.0308072 -0.340166 -0.249649 0.906622 0 
0.0799624 0.242026 -0.0306705 -0.342992 -0.246662 0.906374 0 
0.0800083 0.241906 -0.0306116 -0.342992 -0.246662 0.906374 0 
0.0793098 0.241873 -0.030644 -0.337332 -0.252634 0.906853 0 
0.0803707 0.242179 -0.0306782 -0.342114 -0.259889 0.903004 0 
0.0805924 0.24212 -0.0304603 -0.342759 -0.263321 0.901764 0 
0.0802525 0.241907 -0.0306304 -0.335624 -0.239732 0.91098 0 
0.0803495 0.241788 -0.0304396 -0.33777 -0.233394 0.911833 0 
0.0808825 0.242001 -0.0304202 -0.347839 -0.26791 0.898461 0 
0.0805937 0.241789 -0.0304584 -0.341068 -0.250312 0.9061 0 
0.0809349 0.24167 -0.0302864 -0.341722 -0.253725 0.904903 0 
0.0815056 0.243847 -0.0296894 -0.359463 -0.293285 0.885873 0 
0.0816252 0.243787 -0.0297352 -0.354307 -0.288528 0.889504 0 
0.0818403 0.243939 -0.0295922 -0.361371 -0.303914 0.881503 0 
0.0819937 0.243942 -0.0291966 -0.370116 -0.31833 0.872743 0 
0.0820963 0.243851 -0.0294632 -0.370538 -0.300967 0.878704 0 
0.0817957 0.243728 -0.0296492 -0.360784 -0.285932 0.887737 0 
0.0821989 0.243759 -0.0297298 -0.362 -0.307473 0.880009 0 
0.0823912 0.243946 -0.0288198 -0.367707 -0.346167 0.863111 0 
0.082402 0.244095 -0.0292043 -0.371347 -0.346693 0.861339 0 
0.0824258 0.243822 -0.029439 -0.366506 -0.317841 0.874443 0 
0.0824548 0.24367 -0.0296009 -0.370116 -0.31833 0.872743 0 
0.0827432 0.243976 -0.0290323 -0.359471 -0.356385 0.862421 0 
0.0827484 0.244097 -0.0289594 -0.357511 -0.391857 0.847723 0 
0.0829312 0.243855 -0.0292559 -0.36003 -0.36003 0.860672 0 
0.082767 0.243704 -0.0292671 -0.365934 -0.335312 0.868135 0 
0.082796 0.243552 -0.0294289 -0.363277 -0.335686 0.869106 0 
0.0829208 0.243613 -0.0294019 -0.358516 -0.355439 0.863209 0 
0.0818239 0.243814 -0.0303433 -0.359779 -0.299565 0.88364 0 
0.0818815 0.243605 -0.0301366 -0.359779 -0.299565 0.88364 0 
0.0822162 0.243697 -0.0300394 -0.361371 -0.303914 0.881503 0 
0.0823868 0.243638 -0.0299534 -0.363996 -0.303581 0.880537 0 
0.0827623 0.243489 -0.0298703 -0.354885 -0.354885 0.864936 0 
0.0828987 0.243461 -0.0296955 -0.356936 -0.363117 0.860664 0 
0.0829991 0.243888 -0.0289034 -0.36705 -0.388917 0.844996 0 
0.0830844 0.243858 -0.0288604 -0.364917 -0.399373 0.841033 0 
0.0831871 0.243767 -0.029127 -0.36276 -0.378329 0.851629 0 
0.0831767 0.243524 -0.0292728 -0.362223 -0.37466 0.853478 0 
0.0834482 0.243799 -0.028925 -0.362198 -0.399828 0.841992 0 
0.083443 0.243678 -0.028998 -0.362858 -0.384661 0.848746 0 
0.0835456 0.243586 -0.0292646 -0.359994 -0.410299 0.83789 0 
0.0842947 0.243714 -0.02857 -0.361888 -0.425099 0.829655 0 
0.0843974 0.243622 -0.0288366 -0.366895 -0.414135 0.832994 0 
0.0837041 0.24371 -0.028796 -0.36441 -0.39569 0.842992 0 
0.0840388 0.243803 -0.0286989 -0.355855 -0.434933 0.827164 0 
0.0838067 0.243619 -0.0290626 -0.36382 -0.38568 0.847872 0 
0.0838015 0.243498 -0.0291356 -0.36441 -0.39569 0.842992 0 
0.0841414 0.243711 -0.0289655 -0.364162 -0.420914 0.830793 0 
0.0832741 0.243312 -0.0296124 -0.347565 -0.403674 0.846313 0 
0.0834447 0.243253 -0.0295264 -0.359994 -0.410299 0.83789 0 
0.08374 0.243254 -0.0294133 -0.355852 -0.412287 0.838683 0 
0.0840748 0.243347 -0.0293162 -0.363681 -0.410913 0.835995 0 
0.0840968 0.243499 -0.0290225 -0.363192 -0.407215 0.838014 0 
0.0845 0.243531 -0.0291032 -0.366048 -0.429433 0.825588 0 
0.0844385 0.243288 -0.0293809 -0.361243 -0.398775 0.842901 0 
0.0848074 0.243349 -0.0293726 -0.375247 -0.422746 0.824909 0 
0.0812952 0.243909 -0.0292291 -0.354487 -0.309234 0.882447 0 
0.0815511 0.243821 -0.0291001 -0.360738 -0.300363 0.882978 0 
0.0817057 0.243543 -0.0302955 -0.355888 -0.29282 0.887468 0 
0.0817238 0.243243 -0.0300728 -0.351383 -0.291573 0.889672 0 
0.0813749 0.242456 -0.0303868 -0.348205 -0.274119 0.896444 0 
0.0812566 0.242184 -0.030339 -0.349133 -0.274849 0.89586 0 
0.081988 0.242518 -0.0303974 -0.337673 -0.334645 0.879767 0 
0.0816308 0.242367 -0.0302578 -0.339321 -0.297466 0.892399 0 
0.0815126 0.242095 -0.03021 -0.347839 -0.26791 0.898461 0 
0.0819551 0.242217 -0.0303066 -0.330509 -0.351832 0.875773 0 
0.0818369 0.241946 -0.0302588 -0.325523 -0.34672 0.87967 0 
0.0817429 0.242755 -0.0309108 -0.335986 -0.323932 0.88441 0 
0.0818845 0.242848 -0.030663 -0.330521 -0.333539 0.882897 0 
0.0823045 0.242911 -0.0305229 -0.342732 -0.339685 0.87587 0 
0.082101 0.242669 -0.0305181 -0.338575 -0.335538 0.87908 0 
0.0815788 0.242604 -0.030922 -0.341962 -0.297164 0.891491 0 
0.0817663 0.242576 -0.0306152 -0.336551 -0.327496 0.882881 0 
0.0826285 0.242854 -0.0300413 -0.343582 -0.374396 0.861266 0 
0.0825787 0.242522 -0.0301713 -0.337737 -0.377833 0.862077 0 
0.082211 0.242128 -0.0301776 -0.325014 -0.367739 0.871283 0 
0.0820244 0.241918 -0.0299521 -0.317841 -0.366506 0.874443 0 
0.0824998 0.242341 -0.0301394 -0.326006 -0.374983 0.867818 0 
0.0827558 0.242252 -0.0300104 -0.327084 -0.410792 0.851038 0 
0.0825522 0.24201 -0.0300056 -0.323415 -0.403882 0.855735 0 
0.0824341 0.241739 -0.0299578 -0.311293 -0.397167 0.86334 0 
0.0825605 0.242822 -0.0303939 -0.333222 -0.376219 0.864536 0 
0.082357 0.24258 -0.0303891 -0.332075 -0.362681 0.87074 0 
0.0828688 0.242403 -0.0301311 -0.335243 -0.413206 0.846683 0 
0.0822781 0.242399 -0.0303573 -0.335164 -0.359651 0.870814 0 
0.0811385 0.241912 -0.0302912 -0.347839 -0.26791 0.898461 0 
0.081565 0.241765 -0.0300763 -0.334269 -0.313283 0.888886 0 
0.0812766 0.241459 -0.0306448 -0.316994 -0.287506 0.903801 0 
0.081804 0.241644 -0.030168 -0.31872 -0.342888 0.883655 0 
0.0821794 0.241496 -0.0300849 -0.30368 -0.39219 0.868312 0 
0.08235 0.241436 -0.0299989 -0.298193 -0.39912 0.867055 0 
0.0823002 0.241104 -0.0301288 -0.274534 -0.404976 0.872139 0 
0.0821638 0.241132 -0.0303037 -0.283536 -0.392704 0.874866 0 
0.0831234 0.242646 -0.0300041 -0.33846 -0.416446 0.843811 0 
0.0828082 0.241921 -0.0298767 -0.323455 -0.410123 0.852746 0 
0.0829459 0.241561 -0.0296999 -0.3275 -0.40821 0.85212 0 
0.0833611 0.242857 -0.0300978 -0.336581 -0.424249 0.84067 0 
0.0834135 0.242526 -0.029964 -0.338909 -0.420122 0.841806 0 
0.0832953 0.242255 -0.0299162 -0.33846 -0.416446 0.843811 0 
0.0836538 0.242074 -0.0300538 -0.345227 -0.436657 0.830752 0 
0.0830459 0.242133 -0.0299703 -0.337548 -0.409102 0.84776 0 
0.0828095 0.24159 -0.0298747 -0.316616 -0.406196 0.857181 0 
0.0833018 0.242044 -0.0298413 -0.341633 -0.407152 0.847062 0 
0.0831273 0.241651 -0.0299983 -0.322825 -0.428874 0.843713 0 
0.0826913 0.241318 -0.0298269 -0.305415 -0.406708 0.860994 0 
0.0826363 0.240865 -0.0300298 -0.262661 -0.423598 0.866934 0 
0.0824721 0.240713 -0.0300409 -0.239579 -0.368922 0.898053 0 
0.0838106 0.241227 -0.030715 -0.343432 -0.399375 0.850032 0 
0.0844978 0.241256 -0.0313607 -0.327657 -0.446806 0.832469 0 
0.0844138 0.240954 -0.0314018 -0.314847 -0.492047 0.811641 0 
0.0844333 0.240322 -0.0311772 -0.278732 -0.731074 0.622767 0 
0.0847568 0.240411 -0.0317582 -0.172259 -0.73934 0.650924 0 
0.0844996 0.243624 -0.0285728 -0.367853 -0.421531 0.828852 0 
0.0846022 0.243533 -0.0288394 -0.365917 -0.406749 0.837054 0 
0.0848408 0.243506 -0.0284009 -0.374403 -0.390068 0.841231 0 
0.0849092 0.243445 -0.0285786 -0.382305 -0.394891 0.835407 0 
0.0850335 0.243599 -0.0280212 -0.380138 -0.399066 0.834411 0 
0.0850508 0.243537 -0.0283308 -0.377011 -0.383268 0.84319 0 
0.085114 0.243355 -0.0285815 -0.378548 -0.387972 0.840345 0 
0.0852331 0.243389 -0.028097 -0.384838 -0.381697 0.840361 0 
0.0853682 0.243692 -0.0279241 -0.381234 -0.38751 0.839343 0 
0.0854093 0.243357 -0.0284684 -0.379032 -0.372792 0.846972 0 
0.0856415 0.243541 -0.0281047 -0.379471 -0.370102 0.847954 0 
0.0855388 0.243632 -0.0278381 -0.379032 -0.372792 0.846972 0 
0.0858013 0.243333 -0.0276342 -0.371347 -0.346693 0.861339 0 
0.0858974 0.243452 -0.0279757 -0.371347 -0.346693 0.861339 0 
0.0851824 0.243294 -0.0287592 -0.378548 -0.387972 0.840345 0 
0.084484 0.243261 -0.0287916 -0.366881 -0.40782 0.836111 0 
0.0849434 0.243414 -0.0286674 -0.377011 -0.383268 0.84319 0 
0.0847797 0.243169 -0.0292089 -0.370096 -0.411043 0.83311 0 
0.0849278 0.243051 -0.0288863 -0.378615 -0.394325 0.837352 0 
0.0852916 0.242992 -0.0289509 -0.38168 -0.410187 0.828292 0 
0.0858467 0.243358 -0.0286379 -0.385095 -0.360149 0.849703 0 
0.0858519 0.243479 -0.0285649 -0.385095 -0.360149 0.849703 0 
0.086142 0.24336 -0.0285248 -0.372516 -0.353967 0.857869 0 
0.086 0.243361 -0.0282423 -0.37658 -0.351785 0.856992 0 
0.0854383 0.243205 -0.0286302 -0.380691 -0.383824 0.841281 0 
0.0854397 0.242874 -0.0286283 -0.379471 -0.370102 0.847954 0 
0.0857969 0.243025 -0.0287678 -0.378468 -0.369124 0.848828 0 
0.0861382 0.242907 -0.0285959 -0.375988 -0.348137 0.858739 0 
0.0860385 0.242242 -0.0288557 -0.397597 -0.394429 0.828458 0 
0.0858064 0.242058 -0.0292194 -0.390562 -0.428821 0.8146 0 
0.0867816 0.243883 -0.0271081 -0.376169 -0.354496 0.856055 0 
0.0867989 0.243821 -0.0274177 -0.379647 -0.348655 0.856917 0 
0.0870548 0.243732 -0.0272888 -0.368289 -0.349798 0.861397 0 
0.0869016 0.243729 -0.0276843 -0.378042 -0.344095 0.859467 0 
0.0871575 0.24364 -0.0275553 -0.37016 -0.339442 0.864732 0 
0.0873502 0.243734 -0.0271757 -0.360442 -0.345104 0.866594 0 
0.0874134 0.243552 -0.0274264 -0.361118 -0.327597 0.873083 0 
0.0852518 0.242944 -0.0268118 -0.379647 -0.348655 0.856917 0 
0.0860901 0.243546 -0.027596 -0.368868 -0.353434 0.859663 0 
0.0862611 0.243393 -0.0280404 -0.371146 -0.340345 0.863954 0 
0.0864759 0.243639 -0.0273671 -0.375988 -0.348137 0.858739 0 
0.0865785 0.243547 -0.0276337 -0.381692 -0.344604 0.857647 0 
0.0865958 0.243485 -0.0279433 -0.381484 -0.338239 0.86027 0 
0.086886 0.243366 -0.0279031 -0.378042 -0.344095 0.859467 0 
0.0869371 0.243367 -0.0277713 -0.378042 -0.344095 0.859467 0 
0.0872436 0.243373 -0.0269801 -0.361118 -0.327597 0.873083 0 
0.0872272 0.243248 -0.0277312 -0.369941 -0.3331 0.867288 0 
0.0875225 0.24325 -0.0276181 -0.363996 -0.303581 0.880537 0 
0.0864425 0.243482 -0.0283388 -0.371146 -0.340345 0.863954 0 
0.0863586 0.24318 -0.0283799 -0.375603 -0.329611 0.866187 0 
0.0867327 0.243363 -0.0282987 -0.375603 -0.329611 0.866187 0 
0.0866539 0.243182 -0.0282669 -0.374983 -0.326006 0.867818 0 
0.0867838 0.243364 -0.0281669 -0.381484 -0.338239 0.86027 0 
0.0866997 0.243062 -0.0282079 -0.380867 -0.334608 0.861962 0 
0.0863088 0.242848 -0.0285099 -0.381484 -0.338239 0.86027 0 
0.0862091 0.242182 -0.0287697 -0.396735 -0.365373 0.842083 0 
0.0864716 0.241883 -0.0285659 -0.384954 -0.30279 0.871853 0 
0.0867604 0.242096 -0.0285277 -0.383614 -0.295671 0.874882 0 
0.0870397 0.243275 -0.0280379 -0.378442 -0.34137 0.860377 0 
0.0872103 0.243216 -0.0279519 -0.375603 -0.329611 0.866187 0 
0.0869557 0.242973 -0.028079 -0.382246 -0.326981 0.864275 0 
0.0871263 0.242914 -0.027993 -0.380702 -0.31343 0.869958 0 
0.0876251 0.243158 -0.0278847 -0.365258 -0.310696 0.877528 0 
0.0874216 0.242916 -0.0278799 -0.370474 -0.315589 0.873586 0 
0.0869968 0.242639 -0.0286233 -0.375783 -0.305799 0.874799 0 
0.0875086 0.242461 -0.0283653 -0.373457 -0.312484 0.873432 0 
0.0869245 0.242247 -0.0285165 -0.376415 -0.294783 0.878302 0 
0.0869245 0.242247 -0.0285165 -0.376415 -0.294783 0.878302 0 
0.0866422 0.241824 -0.0284799 -0.383614 -0.295671 0.874882 0 
0.0868981 0.241735 -0.0283509 -0.372823 -0.294334 0.879983 0 
0.0871804 0.242158 -0.0283876 -0.375783 -0.305799 0.874799 0 
0.0871804 0.242158 -0.0283876 -0.375783 -0.305799 0.874799 0 
0.0874363 0.24207 -0.0282586 -0.370474 -0.315589 0.873586 0 
0.0874363 0.24207 -0.0282586 -0.370474 -0.315589 0.873586 0 
0.087154 0.241647 -0.0282219 -0.371826 -0.308084 0.875688 0 
0.0856475 0.242027 -0.0291576 -0.390078 -0.425106 0.816777 0 
0.0853427 0.241545 -0.0288843 -0.387014 -0.396492 0.832475 0 
0.0852578 0.241481 -0.0294576 -0.37428 -0.41534 0.8291 0 
0.0855635 0.241725 -0.0291987 -0.392526 -0.437386 0.809084 0 
0.0859034 0.241939 -0.0290286 -0.401855 -0.398678 0.824359 0 
0.085428 0.241516 -0.0288413 -0.385998 -0.395451 0.833441 0 
0.0857168 0.241728 -0.0288031 -0.399707 -0.390228 0.829431 0 
0.0860121 0.24173 -0.0286901 -0.401855 -0.398678 0.824359 0 
0.0860974 0.2417 -0.0286471 -0.399828 -0.362198 0.841992 0 
0.0859727 0.241639 -0.0286741 -0.401855 -0.398678 0.824359 0 
0.0856839 0.241427 -0.0287123 -0.40277 -0.380657 0.832392 0 
0.0859398 0.241338 -0.0285833 -0.411901 -0.392817 0.822212 0 
0.0863534 0.241612 -0.0285181 -0.38722 -0.29611 0.873144 0 
0.0862286 0.241551 -0.0285451 -0.39357 -0.32566 0.859679 0 
0.0864846 0.241462 -0.0284161 -0.383614 -0.295671 0.874882 0 
0.0861957 0.241249 -0.0284543 -0.398504 -0.318495 0.860091 0 
0.0865751 0.241553 -0.0283002 -0.383614 -0.295671 0.874882 0 
0.0864517 0.241161 -0.0283254 -0.383957 -0.2929 0.875664 0 
0.0867405 0.241373 -0.0282872 -0.376749 -0.292019 0.879082 0 
0.0868652 0.241434 -0.0282601 -0.376415 -0.294783 0.878302 0 
0.0871211 0.241345 -0.0281311 -0.373457 -0.312484 0.873432 0 
0.0869964 0.241284 -0.0281582 -0.367278 -0.297752 0.881164 0 
0.0869466 0.240952 -0.0282881 -0.365976 -0.290672 0.884065 0 
0.0855193 0.24142 -0.0297861 -0.384361 -0.403342 0.83041 0 
0.0849971 0.239959 -0.031848 -0.108398 -0.891119 0.440632 0 
0.0861871 0.240582 -0.0291286 -0.491338 -0.394043 0.776735 0 
0.0930722 0.243041 -0.0257478 -0.319178 -0.371102 0.872014 0 
0.0932822 0.243072 -0.0256778 -0.321783 -0.364484 0.873846 0 
0.093794 0.242895 -0.0254198 -0.345416 -0.33933 0.874953 0 
0.0936524 0.242803 -0.0256676 -0.341259 -0.335192 0.878173 0 
0.0938966 0.242803 -0.0256864 -0.35366 -0.320267 0.878837 0 
0.0876693 0.243463 -0.0272974 -0.357262 -0.320776 0.877193 0 
0.0878572 0.243342 -0.027521 -0.356046 -0.313624 0.880268 0 
0.088709 0.243378 -0.027093 -0.347938 -0.311788 0.884153 0 
0.0889649 0.243289 -0.026964 -0.34496 -0.314832 0.884242 0 
0.0888809 0.242987 -0.027005 -0.34139 -0.314319 0.885808 0 
0.0874996 0.243284 -0.0268511 -0.359027 -0.310551 0.880146 0 
0.0876022 0.243193 -0.0271177 -0.362 -0.307473 0.880009 0 
0.0877555 0.243195 -0.0267221 -0.351845 -0.309563 0.883389 0 
0.0878975 0.243194 -0.0270047 -0.352453 -0.313124 0.88189 0 
0.088114 0.243015 -0.0268598 -0.347938 -0.311788 0.884153 0 
0.0879599 0.24325 -0.0277876 -0.356046 -0.313624 0.880268 0 
0.0880279 0.243283 -0.027435 -0.352453 -0.313124 0.88189 0 
0.0881305 0.243191 -0.0277016 -0.349131 -0.318903 0.88114 0 
0.0883691 0.243165 -0.027263 -0.349467 -0.316184 0.881987 0 
0.0884717 0.243073 -0.0275296 -0.342888 -0.31872 0.883655 0 
0.0885397 0.243105 -0.027177 -0.347657 -0.305517 0.88645 0 
0.0886423 0.243014 -0.0274436 -0.344086 -0.30502 0.888013 0 
0.088835 0.243107 -0.027064 -0.341118 -0.308058 0.88811 0 
0.0888982 0.242925 -0.0273147 -0.337243 -0.310263 0.888822 0 
0.0889835 0.242895 -0.0272717 -0.334582 -0.310576 0.889718 0 
0.0879101 0.242918 -0.0279175 -0.352453 -0.313124 0.88189 0 
0.0881201 0.242949 -0.0278475 -0.349131 -0.318903 0.88114 0 
0.0883366 0.24277 -0.0277026 -0.349467 -0.316184 0.881987 0 
0.0878789 0.242191 -0.0283551 -0.360259 -0.317697 0.877087 0 
0.0880205 0.242284 -0.0281074 -0.357262 -0.320776 0.877193 0 
0.0883907 0.242014 -0.0280972 -0.353873 -0.305686 0.883929 0 
0.0877317 0.242071 -0.0281455 -0.360259 -0.317697 0.877087 0 
0.0874952 0.241528 -0.0280499 -0.365258 -0.310696 0.877528 0 
0.0876134 0.2418 -0.0280977 -0.359301 -0.316852 0.877786 0 
0.0879482 0.241892 -0.0280006 -0.357262 -0.320776 0.877193 0 
0.0879482 0.241892 -0.0280006 -0.357262 -0.320776 0.877193 0 
0.0876659 0.241469 -0.027964 -0.359645 -0.31412 0.878626 0 
0.0880071 0.241351 -0.027792 -0.367924 -0.301304 0.879686 0 
0.0885925 0.242681 -0.0275736 -0.351845 -0.309563 0.883389 0 
0.0885479 0.24247 -0.0276306 -0.347657 -0.305517 0.88645 0 
0.0888484 0.242592 -0.0274446 -0.337243 -0.310263 0.888822 0 
0.0889576 0.24229 -0.0276363 -0.336656 -0.306731 0.890269 0 
0.0889337 0.242563 -0.0274016 -0.336656 -0.306731 0.890269 0 
0.0890598 0.242292 -0.0273726 -0.331027 -0.310057 0.891227 0 
0.0885956 0.241924 -0.0281 -0.353873 -0.305686 0.883929 0 
0.0889017 0.242075 -0.0283714 -0.344086 -0.30502 0.888013 0 
0.0889026 0.241837 -0.0278392 -0.34021 -0.307238 0.888742 0 
0.0890944 0.242168 -0.0279918 -0.336656 -0.306731 0.890269 0 
0.0882041 0.241804 -0.0278716 -0.356522 -0.29635 0.886041 0 
0.08846 0.241715 -0.0277426 -0.354817 -0.306501 0.883268 0 
0.0881253 0.241622 -0.0278397 -0.358072 -0.309725 0.880826 0 
0.0883812 0.241534 -0.0277108 -0.353255 -0.302146 0.885392 0 
0.0881777 0.241292 -0.027706 -0.353575 -0.29941 0.886193 0 
0.0887843 0.241565 -0.0277914 -0.342568 -0.300682 0.890077 0 
0.0885189 0.241173 -0.027534 -0.342875 -0.297957 0.890875 0 
0.0886371 0.241445 -0.0275818 -0.336964 -0.304017 0.891083 0 
0.0889489 0.24302 -0.0266524 -0.338406 -0.31735 0.885873 0 
0.0892048 0.242931 -0.0265235 -0.324503 -0.31254 0.892758 0 
0.0894434 0.242904 -0.0260849 -0.299891 -0.308755 0.902627 0 
0.0894607 0.242842 -0.0263945 -0.300656 -0.318428 0.899005 0 
0.0899033 0.242964 -0.026491 -0.288496 -0.324003 0.900995 0 
0.0900449 0.243056 -0.0262433 -0.273042 -0.33503 0.901778 0 
0.0901475 0.242965 -0.0265098 -0.273498 -0.338546 0.900325 0 
0.0902839 0.242936 -0.026335 -0.266589 -0.337286 0.902867 0 
0.0889667 0.242813 -0.0258995 -0.324503 -0.31254 0.892758 0 
0.089058 0.242717 -0.0268442 -0.329569 -0.305709 0.893267 0 
0.0892395 0.242807 -0.0271427 -0.326607 -0.308711 0.893323 0 
0.0894322 0.2429 -0.026763 -0.316879 -0.307953 0.89708 0 
0.0894954 0.242718 -0.0270137 -0.310106 -0.313073 0.897675 0 
0.0896881 0.242812 -0.026634 -0.294187 -0.320797 0.900302 0 
0.089598 0.242627 -0.0272803 -0.307133 -0.316035 0.897659 0 
0.0899379 0.24284 -0.0271102 -0.293682 -0.317295 0.901707 0 
0.0898539 0.242538 -0.0271513 -0.301975 -0.322801 0.897001 0 
0.0901649 0.242903 -0.0268195 -0.279038 -0.329236 0.902076 0 
0.0901085 0.242781 -0.0270242 -0.285707 -0.333078 0.898571 0 
0.0900245 0.242479 -0.0270653 -0.288496 -0.324003 0.900995 0 
0.0903355 0.242844 -0.0267335 -0.270039 -0.337917 0.901605 0 
0.0905914 0.242755 -0.0266045 -0.262887 -0.339256 0.903214 0 
0.0903645 0.242692 -0.0268952 -0.270487 -0.341434 0.900144 0 
0.0903198 0.24248 -0.0269523 -0.273951 -0.342068 0.898855 0 
0.0906204 0.242603 -0.0267663 -0.26074 -0.349127 0.900069 0 
0.0905758 0.242392 -0.0268233 -0.259889 -0.342114 0.903004 0 
0.0892291 0.242565 -0.0272886 -0.323076 -0.308188 0.894786 0 
0.0894629 0.242323 -0.0274532 -0.314999 -0.317984 0.894238 0 
0.0897188 0.242235 -0.0273242 -0.307133 -0.316035 0.897659 0 
0.0891252 0.24154 -0.0270891 -0.323076 -0.308188 0.894786 0 
0.0891074 0.241747 -0.0278421 -0.330449 -0.306525 0.892662 0 
0.0893633 0.241658 -0.0277131 -0.323076 -0.308188 0.894786 0 
0.0898777 0.242265 -0.027386 -0.304967 -0.319843 0.897048 0 
0.0896192 0.24157 -0.0275841 -0.311176 -0.32011 0.894818 0 
0.0890403 0.241476 -0.0276624 -0.329869 -0.303002 0.894079 0 
