0.139217 0.16647 0.0379861 -0.275766 -0.955378 0.105863 1 
0.139327 0.166396 0.0380356 -0.275766 -0.955378 0.105863 1 
0.139258 0.166188 0.0380815 -0.299287 -0.950137 0.0875642 1 
0.139617 0.166547 0.0374166 -0.286146 -0.954251 0.0867501 1 
0.139589 0.166351 0.0377914 -0.272708 -0.957711 0.0917644 1 
0.139754 0.166286 0.0375297 -0.279423 -0.956735 0.0811229 1 
0.139338 0.166846 0.0374722 -0.271427 -0.958357 0.0887606 1 
0.13931 0.166649 0.037847 -0.278254 -0.954947 0.103202 1 
0.138997 0.166326 0.0376536 -0.272708 -0.957711 0.0917644 1 
0.138867 0.165976 0.0376206 -0.265398 -0.960305 0.0859017 1 
0.139299 0.166199 0.0384104 -0.322381 -0.940389 0.108352 1 
0.139105 0.165867 0.0381416 -0.299287 -0.950137 0.0875642 1 
0.138784 0.16577 0.0383067 -0.303096 -0.94865 0.090535 1 
0.139629 0.166069 0.0378869 -0.272708 -0.957711 0.0917644 1 
0.139794 0.166004 0.0376251 -0.279423 -0.956735 0.0811229 1 
0.138241 0.16695 0.0382446 -0.293277 -0.94679 0.132577 1 
0.138378 0.166488 0.0374523 -0.271427 -0.958357 0.0887606 1 
0.137524 0.166216 0.0373251 -0.211108 -0.968538 0.131783 1 
0.138403 0.165824 0.0386262 -0.30402 -0.946577 0.107535 1 
0.139765 0.166736 0.0369663 -0.204819 -0.970663 0.125945 1 
0.140026 0.16669 0.0367222 -0.204819 -0.970663 0.125945 1 
0.140066 0.166409 0.0368176 -0.204819 -0.970663 0.125945 1 
0.139906 0.166407 0.0365642 -0.204819 -0.970663 0.125945 1 
0.139713 0.166275 0.0372008 -0.235607 -0.966626 0.100611 1 
0.139849 0.166013 0.0373138 -0.235607 -0.966626 0.100611 1 
0.139918 0.165928 0.0370344 -0.204819 -0.970663 0.125945 1 
0.139863 0.166011 0.0366737 -0.204819 -0.970663 0.125945 1 
0.139685 0.166262 0.0362317 -0.181701 -0.977725 0.105065 1 
0.144677 0.169636 0.0402988 -0.68905 0.182621 -0.701327 1 
0.144396 0.169257 0.0405593 -0.683471 0.165921 -0.710871 1 
0.144244 0.168936 0.0406193 -0.683471 0.165921 -0.710871 1 
0.144477 0.168694 0.0407501 -0.683471 0.165921 -0.710871 1 
0.144 0.16882 0.04038 -0.683471 0.165921 -0.710871 1 
0.144344 0.168997 0.0416992 -0.683471 0.165921 -0.710871 1 
0.144482 0.168827 0.0411403 -0.683471 0.165921 -0.710871 1 
0.144509 0.16864 0.0412039 -0.683471 0.165921 -0.710871 1 
0.144453 0.168338 0.0412817 -0.683471 0.165921 -0.710871 1 
0.144534 0.168067 0.041706 -0.683471 0.165921 -0.710871 1 
0.144267 0.167595 0.0419983 -0.683471 0.165921 -0.710871 1 
0.143598 0.168066 0.0411545 -0.683471 0.165921 -0.710871 1 
0.143539 0.168124 0.0419809 -0.683471 0.165921 -0.710871 1 
0.143841 0.167798 0.0418322 -0.683471 0.165921 -0.710871 1 
0.143915 0.167938 0.0412711 -0.683471 0.165921 -0.710871 1 
0.14417 0.167575 0.0419806 -0.683471 0.165921 -0.710871 1 
0.143565 0.167644 0.041811 -0.683471 0.165921 -0.710871 1 
0.143881 0.167516 0.0419276 -0.683471 0.165921 -0.710871 1 
0.143418 0.167548 0.0415894 -0.683471 0.165921 -0.710871 1 
0.142798 0.167418 0.0411545 0.259126 -0.948319 -0.183152 1 
0.14277 0.167222 0.0415293 0.249535 -0.957212 -0.146552 1 
0.143101 0.167384 0.0412393 0.337174 -0.874212 -0.34938 1 
0.143183 0.167313 0.042569 0.183304 -0.878391 -0.441395 1 
0.143274 0.1672 0.0421965 -0.0177379 -0.530774 -0.847328 1 
0.143609 0.167203 0.0420632 -0.683471 0.165921 -0.710871 1 
0.143742 0.167101 0.0420195 -0.683471 0.165921 -0.710871 1 
0.143701 0.16709 0.0416906 -0.683471 0.165921 -0.710871 1 
0.143067 0.166962 0.0418958 0.274563 -0.894928 -0.351738 1 
0.14242 0.166836 0.0427412 0.134203 -0.922819 -0.361103 1 
0.142177 0.166812 0.04183 0.150197 -0.984089 0.0949243 1 
0.142603 0.166702 0.0413241 0.237871 -0.967846 -0.0818075 1 
0.142272 0.166539 0.0416141 0.164063 -0.983181 0.0802353 1 
0.144477 0.168694 0.0407501 -0.683471 0.165921 -0.710871 1 
0.144544 0.168225 0.0409091 -0.683471 0.165921 -0.710871 1 
0.144022 0.168407 0.0407254 -0.683471 0.165921 -0.710871 1 
0.144186 0.16825 0.0411355 -0.683471 0.165921 -0.710871 1 
0.144076 0.168032 0.0408525 -0.683471 0.165921 -0.710871 1 
0.143667 0.167981 0.040875 -0.683471 0.165921 -0.710871 1 
0.14408 0.167873 0.0410093 -0.683471 0.165921 -0.710871 1 
0.144088 0.167554 0.0413228 -0.683471 0.165921 -0.710871 1 
0.14379 0.167813 0.0409563 -0.683471 0.165921 -0.710871 1 
0.143748 0.167418 0.0410658 -0.683471 0.165921 -0.710871 1 
0.144078 0.167196 0.0412142 -0.683471 0.165921 -0.710871 1 
0.143252 0.167413 0.0409457 0.435076 -0.729538 -0.527716 1 
0.143196 0.167111 0.0410234 0.41308 -0.762483 -0.497981 1 
0.14443 0.166946 0.0412695 -0.683471 0.165921 -0.710871 1 
0.143549 0.166861 0.0410787 0.475007 -0.729889 -0.491558 1 
0.13889 0.174362 0.0450643 0.816879 -0.179683 -0.548109 1 
0.138526 0.173871 0.0453389 0.962818 -0.218763 -0.158505 1 
0.138377 0.173098 0.0453222 0.962818 -0.218763 -0.158505 1 
0.138485 0.172347 0.0455767 0.962818 -0.218763 -0.158505 1 
0.139467 0.175117 0.0439031 0.668188 -0.123518 -0.733668 1 
0.139319 0.175021 0.0436815 0.694986 -0.159679 -0.701069 1 
0.139925 0.175153 0.0447566 0.967893 -0.206947 -0.142677 1 
0.139786 0.174738 0.0448484 0.96268 -0.213492 -0.166341 1 
0.139699 0.174783 0.0447058 0.96268 -0.213492 -0.166341 1 
0.138149 0.175077 0.0443432 0.605064 -0.188412 -0.773562 1 
0.138879 0.174933 0.0439221 0.602547 -0.184578 -0.776446 1 
0.138548 0.17477 0.0442121 0.590543 -0.145019 -0.793869 1 
0.138832 0.174605 0.0445468 0.576712 -0.128322 -0.806807 1 
0.138588 0.174489 0.0443075 0.562212 -0.134282 -0.816019 1 
0.138362 0.17412 0.0442568 0.569902 -0.118668 -0.813099 1 
0.138299 0.174429 0.0442546 0.584654 -0.141329 -0.798878 1 
0.137981 0.174173 0.0445764 0.569902 -0.118668 -0.813099 1 
0.138629 0.174207 0.0444029 0.628406 -0.123304 -0.768051 1 
0.138738 0.173841 0.0442189 0.628406 -0.123304 -0.768051 1 
0.138435 0.173875 0.0441341 0.590255 -0.125744 -0.797363 1 
0.138146 0.173816 0.0440811 0.581206 -0.131622 -0.803041 1 
0.137788 0.173841 0.0443075 0.550942 -0.121295 -0.825682 1 
0.138489 0.1735 0.0442613 0.630805 -0.12974 -0.765018 1 
0.138173 0.173628 0.0441447 0.569902 -0.118668 -0.813099 1 
0.138617 0.173265 0.0438274 0.717046 -0.149447 -0.680816 1 
0.138282 0.173262 0.0439606 0.600188 -0.125965 -0.789878 1 
0.138003 0.17356 0.0440162 0.569902 -0.118668 -0.813099 1 
0.138089 0.173222 0.0439253 0.590255 -0.125744 -0.797363 1 
0.138818 0.173278 0.0444097 0.816879 -0.179683 -0.548109 1 
0.138143 0.173047 0.044958 0.962818 -0.218763 -0.158505 1 
0.138303 0.172757 0.0449779 0.962818 -0.218763 -0.158505 1 
0.138996 0.172827 0.0439462 0.816879 -0.179683 -0.548109 1 
0.13868 0.172955 0.0438296 0.814513 -0.179827 -0.551572 1 
0.138789 0.172589 0.0436456 0.871588 -0.140206 -0.469762 1 
0.139023 0.172639 0.0440098 0.976309 -0.194272 -0.0952799 1 
0.138391 0.172895 0.0437766 0.717046 -0.149447 -0.680816 1 
0.138184 0.17295 0.0437095 0.600188 -0.125965 -0.789878 1 
0.138431 0.172614 0.043872 0.851224 -0.132413 -0.507824 1 
0.138225 0.172668 0.0438049 0.775341 -0.104063 -0.622911 1 
0.137785 0.172964 0.043607 0.569902 -0.118668 -0.813099 1 
0.137593 0.172924 0.0435717 0.604199 -0.0582874 -0.794699 1 
0.137839 0.172589 0.0437342 0.651281 -0.0736481 -0.755255 1 
0.138357 0.172382 0.0451051 0.962818 -0.218763 -0.158505 1 
0.138073 0.172547 0.0447705 0.962818 -0.218763 -0.158505 1 
0.138306 0.172305 0.0449012 0.976309 -0.194272 -0.0952799 1 
0.138168 0.172275 0.0445546 0.976309 -0.194272 -0.0952799 1 
0.138374 0.172128 0.0452937 0.976309 -0.194272 -0.0952799 1 
0.138181 0.171796 0.0450248 0.904405 -0.247722 0.347397 1 
0.138834 0.172148 0.0438977 0.971712 -0.107128 -0.210475 1 
0.138828 0.171923 0.0441795 0.953024 -0.119952 -0.27813 1 
0.13854 0.172247 0.043688 0.931456 -0.0647395 -0.358049 1 
0.138558 0.171994 0.0438765 0.953024 -0.119952 -0.27813 1 
0.138279 0.172293 0.0439321 0.886569 -0.0966403 -0.452388 1 
0.138648 0.171497 0.0439424 0.96711 -0.0872295 -0.238933 1 
0.13829 0.171522 0.0441688 0.959028 -0.0942248 -0.267185 1 
0.138332 0.171733 0.0454032 0.893449 -0.247439 0.374863 1 
0.1388 0.171726 0.0445543 0.944769 -0.121949 -0.304202 1 
0.13862 0.1713 0.0443173 0.965944 -0.0795483 -0.246221 1 
0.138459 0.171298 0.0440638 0.977602 -0.0643639 -0.200378 1 
0.137825 0.172298 0.0441409 0.864761 -0.119426 -0.487777 1 
0.137902 0.172187 0.0444084 0.928748 -0.15965 -0.334572 1 
0.137865 0.172017 0.0442363 0.92616 -0.139824 -0.350252 1 
0.137974 0.17165 0.0440522 0.948937 -0.0958125 -0.300562 1 
0.13767 0.1713 0.0444059 0.986375 -0.131754 -0.0985188 1 
0.138014 0.171369 0.0441476 0.965944 -0.0795483 -0.246221 1 
0.137724 0.170925 0.0445331 0.262787 0.223856 -0.938526 1 
0.138082 0.170899 0.0443066 0.0493352 0.292216 -0.955079 1 
0.136934 0.177799 0.0399976 -0.598083 -0.181099 -0.780704 1 
0.135833 0.177955 0.0390358 -0.263281 -0.268974 -0.926464 1 
0.136025 0.17761 0.0395096 -0.366227 -0.273549 -0.889409 1 
0.135822 0.177212 0.0393658 -0.348263 -0.309065 -0.884981 1 
0.135901 0.177485 0.0391948 -0.311707 -0.323639 -0.893362 1 
0.13568 0.177341 0.0388624 -0.272964 -0.313836 -0.909394 1 
0.137125 0.177454 0.0404714 -0.598083 -0.181099 -0.780704 1 
0.136905 0.17731 0.0401389 -0.598083 -0.181099 -0.780704 1 
0.136312 0.176901 0.0404395 -0.456578 -0.272102 -0.847052 1 
0.136743 0.176923 0.0403239 -0.49485 -0.254362 -0.830917 1 
0.136477 0.176836 0.0401777 -0.49485 -0.254362 -0.830917 1 
0.136368 0.177202 0.0403618 -0.484106 -0.226118 -0.845288 1 
0.136269 0.176706 0.0414546 -0.961894 -0.145266 0.23164 1 
0.136062 0.176467 0.0411539 -0.162305 -0.534565 -0.829395 1 
0.137013 0.176852 0.0406268 0.321513 -0.456392 -0.82966 1 
0.136793 0.176707 0.0402944 -0.27186 -0.330641 -0.903752 1 
0.13671 0.176594 0.0403085 -0.244465 -0.352791 -0.903203 1 
0.136447 0.176254 0.040991 0.368328 -0.490567 -0.789733 1 
0.136824 0.17636 0.0405147 0.327344 -0.479155 -0.814406 1 
0.136584 0.176085 0.0404322 -0.405897 -0.377468 -0.832325 1 
0.135817 0.17728 0.039881 -0.456578 -0.272102 -0.847052 1 
0.136051 0.177038 0.0400117 -0.456578 -0.272102 -0.847052 1 
0.135527 0.176836 0.0402664 -0.512293 -0.297918 -0.805482 1 
0.135421 0.176658 0.0410456 -0.695314 -0.251834 -0.67314 1 
0.135443 0.17663 0.0409525 -0.543366 -0.304349 -0.782384 1 
0.135773 0.176408 0.0411009 -0.482194 -0.429888 -0.763338 1 
0.135488 0.176189 0.0412046 -0.510358 -0.440989 -0.738284 1 
0.135788 0.176699 0.0406942 -0.512293 -0.297918 -0.805482 1 
0.135992 0.176168 0.0418718 -0.894116 -0.416102 0.165577 1 
0.13483 0.175905 0.042847 -0.845472 -0.501298 0.184059 1 
0.13551 0.175977 0.0424554 -0.870092 -0.38857 0.303237 1 
0.135596 0.175639 0.0423645 -0.749019 -0.661891 -0.0295111 1 
0.135289 0.175832 0.042123 0.214733 -0.591673 -0.777054 1 
0.135261 0.175636 0.0424978 -0.694092 -0.706137 -0.140023 1 
0.134985 0.175482 0.0424766 -0.636522 -0.728131 -0.254293 1 
0.134475 0.175279 0.0420912 -0.557942 -0.63211 -0.537715 1 
0.136101 0.175802 0.0416877 -0.7692 -0.62637 -0.126464 1 
0.136527 0.175307 0.0416203 -0.711939 -0.684615 -0.156353 1 
0.136434 0.174927 0.040854 -0.728948 -0.672069 -0.130223 1 
0.134935 0.175498 0.0416007 -0.538552 -0.669415 -0.511708 1 
0.135633 0.175701 0.0409593 -0.400202 -0.571482 -0.716412 1 
0.135288 0.175248 0.041656 -0.848802 -0.114234 0.516222 1 
0.135536 0.175296 0.04138 -0.905834 -0.240681 0.348622 1 
0.136634 0.177382 0.039836 -0.29085 -0.293773 -0.910551 1 
0.136545 0.176751 0.0398983 -0.27186 -0.330641 -0.903752 1 
0.136572 0.176563 0.0399619 -0.244465 -0.352791 -0.903203 1 
0.135665 0.177051 0.0392691 -0.384606 -0.32025 -0.865747 1 
0.137777 0.174812 0.0449763 0.545511 -0.130864 -0.827824 1 
0.139541 0.17555 0.0435755 0.720807 -0.156301 -0.675283 1 
0.134448 0.175266 0.0411221 -0.506517 -0.583924 -0.634408 1 
0.138804 0.183919 0.0478316 0.735317 -0.663138 0.139846 1 
0.137733 0.183343 0.0475287 0.589193 -0.752059 0.295395 1 
0.137879 0.183147 0.0475168 0.589193 -0.752059 0.295395 1 
0.137603 0.182993 0.0474956 0.579964 -0.730264 0.361048 1 
0.138029 0.182699 0.0483337 0.587458 -0.756213 0.288157 1 
0.137491 0.182299 0.0483231 0.552681 -0.748321 0.366824 1 
0.138222 0.182831 0.047697 0.589193 -0.752059 0.295395 1 
0.137904 0.182282 0.0477853 0.596412 -0.698843 0.394855 1 
0.136519 0.182511 0.0471609 0.539476 -0.670564 0.509225 1 
0.135444 0.181911 0.0480451 0.452389 -0.669402 0.589274 1 
0.137758 0.18257 0.0471253 0.646168 -0.675614 0.354983 1 
0.137051 0.182286 0.0456423 0.749928 -0.632896 0.192487 1 
0.137096 0.181845 0.0458944 0.757849 -0.630275 0.16858 1 
0.137246 0.18149 0.0460393 0.757849 -0.630275 0.16858 1 
0.136223 0.181442 0.0460171 0.547774 -0.675085 0.494169 1 
0.136351 0.181206 0.0455832 0.617496 -0.686655 0.383671 1 
0.137039 0.181452 0.0466442 0.574634 -0.671803 0.467414 1 
0.1369 0.181037 0.046736 0.555504 -0.672983 0.488374 1 
0.137177 0.181282 0.0460853 0.681366 -0.661945 0.31236 1 
0.136717 0.181155 0.0459038 0.592802 -0.689111 0.416788 1 
0.137162 0.180992 0.0464919 0.589268 -0.676072 0.442368 1 
0.136002 0.181205 0.0463566 0.527737 -0.67852 0.510984 1 
0.136157 0.180782 0.0459863 0.551676 -0.669054 0.498017 1 
0.136239 0.180604 0.0457387 0.581367 -0.681316 0.444771 1 
0.135949 0.180544 0.0456857 0.568546 -0.685256 0.45517 1 
0.136747 0.180624 0.0474681 0.532177 -0.66648 0.522104 1 
0.136803 0.180633 0.0471568 0.547774 -0.675085 0.494169 1 
0.136867 0.180707 0.0467206 0.555504 -0.672983 0.488374 1 
0.134722 0.181536 0.0478743 0.401577 -0.603192 0.689126 1 
0.134479 0.18142 0.047635 0.394077 -0.598535 0.697466 1 
0.135644 0.181231 0.0465831 0.522528 -0.673742 0.522528 1 
0.135799 0.180808 0.0462128 0.522528 -0.673742 0.522528 1 
0.135505 0.180908 0.046003 0.522528 -0.673742 0.522528 1 
0.135203 0.180942 0.0459182 0.522528 -0.673742 0.522528 1 
0.135546 0.180626 0.0460984 0.522528 -0.673742 0.522528 1 
0.137415 0.182486 0.0451341 0.738844 -0.639295 0.213098 1 
0.137795 0.182432 0.0448145 0.808853 -0.579411 0.100199 1 
0.137685 0.182414 0.045437 0.7379 -0.638058 0.219966 1 
0.137744 0.182264 0.0452826 0.738844 -0.639295 0.213098 1 
0.137533 0.182093 0.0454971 0.749928 -0.632896 0.192487 1 
0.137547 0.182091 0.044857 0.738858 -0.635761 0.223376 1 
0.138475 0.182504 0.044423 0.796262 -0.592395 0.122615 1 
0.137978 0.182114 0.0447413 0.78741 -0.599149 0.144931 1 
0.138239 0.182069 0.0444972 0.801613 -0.587654 0.10991 1 
0.137876 0.181869 0.0450054 0.788879 -0.597997 0.14167 1 
0.137261 0.181872 0.0449607 0.738858 -0.635761 0.223376 1 
0.136917 0.181804 0.045219 0.749928 -0.632896 0.192487 1 
0.136944 0.181616 0.0452826 0.749928 -0.632896 0.192487 1 
0.137324 0.18147 0.0456349 0.749928 -0.632896 0.192487 1 
0.137178 0.181666 0.0456468 0.749928 -0.632896 0.192487 1 
0.136238 0.180311 0.0455052 0.62271 -0.675566 0.394769 1 
0.136541 0.180277 0.04559 0.646916 -0.676396 0.352119 1 
0.136177 0.179877 0.0451926 0.693084 -0.641143 0.329499 1 
0.13687 0.179855 0.0448329 0.748239 -0.605263 0.271654 1 
0.135756 0.180212 0.0454168 0.583998 -0.671013 0.456824 1 
0.135861 0.180005 0.045076 0.636243 -0.701001 0.322169 1 
0.135947 0.179667 0.0449851 0.665248 -0.684577 0.297992 1 
0.135617 0.179889 0.0448367 0.618601 -0.724647 0.303677 1 
0.13619 0.179491 0.0449909 0.67349 -0.67026 0.311711 1 
0.136056 0.179301 0.0448011 0.804363 -0.517878 0.291208 1 
0.135685 0.17942 0.0449957 0.733197 -0.621865 0.275148 1 
0.136258 0.179406 0.0447115 0.786895 -0.550353 0.279119 1 
0.13579 0.179213 0.044655 0.861105 -0.477079 0.175766 1 
0.135424 0.179557 0.0445679 0.673534 -0.713607 0.192658 1 
0.135363 0.179215 0.0435834 0.934019 -0.354641 0.0428688 1 
0.136606 0.179223 0.045282 0.737082 -0.602192 0.306716 1 
0.135739 0.179045 0.045123 0.754668 -0.574449 0.316993 1 
0.136409 0.17905 0.0448563 0.833265 -0.483881 0.267449 1 
0.135256 0.178653 0.0448011 0.321643 -0.719253 0.61581 1 
0.136792 0.18117 0.0415158 -0.746062 0.653735 -0.126577 1 
0.137368 0.180412 0.0409213 -0.970295 0.222753 0.0943867 1 
0.137828 0.180632 0.0404308 0.653916 0.0381333 -0.755605 1 
0.1378 0.180527 0.0401337 0.500145 0.0313443 -0.865374 1 
0.13734 0.180015 0.0403907 0.417216 -0.086748 -0.904657 1 
0.137739 0.180093 0.0398211 0.546613 -0.0663845 -0.83475 1 
0.136094 0.180859 0.0405798 -0.698943 0.265885 -0.663916 1 
0.136871 0.17973 0.0410061 -0.990741 0.122554 -0.0584137 1 
0.13595 0.180312 0.0402814 -0.370105 -0.0298681 -0.92851 1 
0.135853 0.179999 0.0400303 -0.374963 -0.065385 -0.924731 1 
0.13628 0.180089 0.0404298 -0.578126 0.00410019 -0.815937 1 
0.136421 0.17976 0.0400277 -0.323914 -0.111556 -0.939486 1 
0.136939 0.179645 0.0407266 -0.991785 0.122429 -0.0370656 1 
0.136059 0.179945 0.0400974 -0.374963 -0.065385 -0.924731 1 
0.136803 0.179999 0.0399416 -0.0931842 -0.0639939 -0.99359 1 
0.136293 0.179795 0.0395562 -0.2507 -0.0456941 -0.966986 1 
0.136004 0.179736 0.0395032 -0.374963 -0.065385 -0.924731 1 
0.135622 0.179497 0.0395892 -0.369573 -0.105008 -0.923249 1 
0.135727 0.17929 0.0392485 -0.262427 -0.130554 -0.956079 1 
0.134763 0.179 0.0397438 -0.423215 -0.163219 -0.891206 1 
0.134252 0.178704 0.0400302 -0.499443 -0.214047 -0.839489 1 
0.134339 0.178366 0.0399393 -0.484106 -0.226118 -0.845288 1 
0.135313 0.178722 0.0393191 -0.40314 -0.190655 -0.895058 1 
0.134945 0.178682 0.0396705 -0.484106 -0.226118 -0.845288 1 
0.134581 0.17819 0.0399451 -0.484106 -0.226118 -0.845288 1 
0.134912 0.178352 0.0396551 -0.484106 -0.226118 -0.845288 1 
0.136457 0.179438 0.0390609 -0.0767854 -0.106583 -0.991334 1 
0.136145 0.179407 0.0391011 -0.0736744 -0.134485 -0.988173 1 
0.136222 0.179003 0.0391351 -0.0625368 -0.159292 -0.985249 1 
0.135644 0.178884 0.0390291 -0.262136 -0.14504 -0.954069 1 
0.135836 0.178924 0.0390644 -0.262427 -0.130554 -0.956079 1 
0.135588 0.178583 0.0391068 -0.288696 -0.223915 -0.930869 1 
0.135412 0.17829 0.03926 -0.339256 -0.262887 -0.903214 1 
0.133642 0.178656 0.0417198 -0.989088 0.104176 -0.104176 1 
0.133398 0.17854 0.0414805 -0.96208 -0.0258029 -0.271545 1 
0.132682 0.178591 0.0419334 -0.965066 -0.1279 -0.22867 1 
0.132655 0.178486 0.0416363 -0.925909 -0.169493 -0.337586 1 
0.133893 0.178345 0.0406951 -0.57227 -0.255562 -0.779228 1 
0.133049 0.178339 0.0413485 -0.830658 -0.214904 -0.513637 1 
0.126407 0.212949 0.047245 0.321428 -0.78518 0.529317 1 
0.12602 0.212577 0.0469408 0.403761 -0.861253 0.308577 1 
0.122663 0.210241 0.0509045 0.69875 -0.715354 0.00415099 1 
0.122419 0.210125 0.0506652 0.69875 -0.715354 0.00415099 1 
0.124972 0.213502 0.0482275 0.741798 -0.480765 0.467548 1 
0.125237 0.212805 0.0470012 0.438413 -0.894805 0.0843634 1 
0.124686 0.21279 0.0471923 0.537116 -0.843259 0.0205006 1 
0.124726 0.212509 0.0472877 0.425264 -0.899328 -0.101784 1 
0.124397 0.212731 0.0471393 0.478619 -0.875387 -0.0679778 1 
0.125562 0.212742 0.0469929 0.454721 -0.872653 0.178062 1 
0.124286 0.212604 0.0461844 0.545602 -0.838034 0.00406156 1 
0.124574 0.21228 0.0466758 0.428133 -0.899217 -0.0900603 1 
0.124395 0.212238 0.0460003 0.464661 -0.884617 -0.0392862 1 
0.12406 0.212235 0.0461337 0.700104 -0.711604 0.058941 1 
0.123798 0.211988 0.0461442 0.722532 -0.684271 0.0985939 1 
0.123578 0.211844 0.0458118 0.69547 -0.715628 0.0647953 1 
0.124004 0.211733 0.0453059 0.610705 -0.791857 0.00137237 1 
0.123373 0.211278 0.0492612 0.745615 -0.652973 0.132985 1 
0.123093 0.211284 0.0490832 0.750184 -0.644948 0.145827 1 
0.125345 0.212346 0.0474891 0.441897 -0.895957 0.0445951 1 
0.12529 0.212429 0.0471284 0.389326 -0.91913 -0.060205 1 
0.124711 0.212218 0.0476944 0.445479 -0.886688 -0.123823 1 
0.124445 0.21213 0.0475482 0.573695 -0.81776 -0.0462883 1 
0.124035 0.211695 0.0480092 0.811487 -0.545576 0.209367 1 
0.123617 0.211378 0.0472511 0.811487 -0.545576 0.209367 1 
0.123506 0.211376 0.050123 0.379308 0.45613 0.805029 1 
0.12356 0.211093 0.0495782 0.760994 -0.62374 0.178429 1 
0.12333 0.210883 0.0493708 0.750184 -0.644948 0.145827 1 
0.123435 0.210584 0.0497019 0.705444 -0.70826 0.0267534 1 
0.123065 0.211088 0.0494581 0.761545 -0.628313 0.158971 1 
0.122629 0.210932 0.0491835 0.780056 -0.596873 0.187763 1 
0.123151 0.21075 0.0493672 0.767866 -0.615208 0.178609 1 
0.122692 0.210622 0.0491857 0.778701 -0.602621 0.174563 1 
0.122861 0.210306 0.0497526 0.723373 -0.689399 0.0382213 1 
0.12192 0.210372 0.0497164 0.708464 -0.70568 0.00974312 1 
0.121608 0.21034 0.0497565 0.693136 -0.720806 -0.0013835 1 
0.12227 0.210665 0.0491764 0.777049 -0.607401 0.165104 1 
0.122324 0.21029 0.0493036 0.841462 -0.349434 0.412113 1 
0.122199 0.209981 0.0503328 0.69875 -0.715354 0.00415099 1 
0.122387 0.209888 0.0499778 0.693136 -0.720806 -0.0013835 1 
0.121658 0.210124 0.0497269 0.693136 -0.720806 -0.0013835 1 
0.122016 0.210099 0.0495005 0.834187 -0.370574 0.40842 1 
0.121877 0.209684 0.0495924 0.693136 -0.720806 -0.0013835 1 
0.121537 0.209548 0.0493354 0.697373 -0.716707 -0.00138094 1 
0.121187 0.209146 0.0482979 0.67031 0.117416 0.732733 1 
0.124766 0.211827 0.0455722 0.3658 -0.930544 0.0166856 1 
0.1246 0.211599 0.0456005 0.500602 -0.865652 0.00671048 1 
0.123816 0.211735 0.0463328 0.738634 -0.653348 0.166002 1 
0.124003 0.211549 0.0466498 0.770767 -0.612661 0.174829 1 
0.12358 0.2113 0.046407 0.770767 -0.612661 0.174829 1 
0.124147 0.211897 0.0460427 0.700104 -0.711604 0.058941 1 
0.123595 0.21159 0.0460004 0.738634 -0.653348 0.166002 1 
0.12304 0.211443 0.0458012 0.722896 -0.677996 0.133204 1 
0.123443 0.211361 0.0453884 0.663978 -0.742779 0.0860982 1 
0.123575 0.210875 0.0457832 0.722896 -0.677996 0.133204 1 
0.123259 0.211003 0.0456666 0.724974 -0.673729 0.143186 1 
0.123276 0.210842 0.0451832 0.639712 -0.764463 0.0797826 1 
0.122497 0.210214 0.0518382 0.709807 -0.704229 -0.0153396 1 
0.122005 0.209757 0.0516413 0.70826 -0.705444 -0.0267534 1 
0.121739 0.20967 0.0514952 0.70826 -0.705444 -0.0267534 1 
0.120502 0.208958 0.0505486 0.70826 -0.705444 -0.0267534 1 
0.121463 0.209408 0.0498965 0.704328 -0.709863 0.00415124 1 
0.121269 0.209076 0.0496277 0.704328 -0.709863 0.00415124 1 
0.121136 0.208886 0.0494379 0.704328 -0.709863 0.00415124 1 
0.121117 0.208755 0.0496878 0.70826 -0.705444 -0.0267534 1 
0.121409 0.208362 0.0496641 0.70826 -0.705444 -0.0267534 1 
0.120732 0.208968 0.0498506 0.70826 -0.705444 -0.0267534 1 
0.120801 0.208883 0.0495712 0.70826 -0.705444 -0.0267534 1 
0.12058 0.208739 0.0492387 0.70826 -0.705444 -0.0267534 1 
0.120841 0.208601 0.0496666 0.70826 -0.705444 -0.0267534 1 
0.120598 0.208485 0.0494273 0.70826 -0.705444 -0.0267534 1 
0.1205 0.208081 0.049848 0.70826 -0.705444 -0.0267534 1 
0.120707 0.208119 0.0492432 0.711101 -0.702686 -0.0238436 1 
0.120648 0.208361 0.0487258 0.711101 -0.702686 -0.0238436 1 
0.120666 0.208108 0.0489143 0.711101 -0.702686 -0.0238436 1 
0.120378 0.208433 0.0484229 0.7153 -0.698502 -0.0209971 1 
0.120349 0.208236 0.0487977 0.711009 -0.702561 -0.0295667 1 
0.123872 0.218629 0.0518757 0.0295022 -0.639215 0.768462 1 
0.124449 0.218364 0.0524201 0.0295127 -0.642253 0.765925 1 
0.124178 0.218435 0.0521172 0.0295127 -0.642253 0.765925 1 
0.124346 0.219047 0.0516505 0.0295127 -0.642253 0.765925 1 
0.123981 0.218263 0.0516916 0.0352673 -0.641865 0.766006 1 
0.124668 0.218015 0.0516136 0.0352673 -0.641865 0.766006 1 
0.124572 0.217996 0.0515959 0.0352673 -0.641865 0.766006 1 
0.124158 0.217812 0.0512281 0.0352673 -0.641865 0.766006 1 
0.12569 0.217479 0.0511687 0.0497395 -0.640928 0.765988 1 
0.125539 0.217542 0.0507903 0.0468866 -0.637942 0.768656 1 
0.124267 0.217445 0.0510441 0.0352673 -0.641865 0.766006 1 
0.124376 0.217079 0.05086 0.0352673 -0.641865 0.766006 1 
0.12614 0.217632 0.0508032 0.0321331 -0.602146 0.797739 1 
0.126029 0.217122 0.0502867 0.0578458 -0.56576 0.822539 1 
0.125259 0.217548 0.0506124 0.0557706 -0.644937 0.762198 1 
0.125511 0.217437 0.0504932 0.0498115 -0.636164 0.769944 1 
0.125726 0.217156 0.0502019 0.0608958 -0.565057 0.822802 1 
0.125368 0.217181 0.0504284 0.0498115 -0.636164 0.769944 1 
0.124445 0.216994 0.0505806 0.0524695 -0.599854 0.798387 1 
0.125193 0.216981 0.0499096 0.0670868 -0.595217 0.80076 1 
0.124628 0.216768 0.0498354 0.0673165 -0.602984 0.794908 1 
0.125606 0.217073 0.0509493 0.0321153 -0.59902 0.80009 1 
0.127295 0.216993 0.0503147 0.173289 -0.48432 0.857558 1 
0.126941 0.216951 0.0500259 0.112182 -0.56091 0.82024 1 
0.127005 0.216641 0.0500282 0.142701 -0.52814 0.837081 1 
0.126692 0.21661 0.0500683 0.109304 -0.561092 0.820505 1 
0.126785 0.216789 0.0499292 0.1186 -0.557861 0.821417 1 
0.126206 0.21667 0.0498232 0.0935932 -0.55724 0.82506 1 
0.126247 0.216389 0.0499186 0.0909195 -0.575823 0.812503 1 
0.125051 0.216925 0.0507502 0.0733095 -0.602288 0.794905 1 
0.125711 0.216866 0.0506086 0.0549052 -0.564539 0.823579 1 
0.125491 0.216721 0.0502761 0.0549052 -0.564539 0.823579 1 
0.125188 0.216756 0.0501913 0.0640195 -0.587557 0.806646 1 
0.125228 0.216474 0.0502867 0.0463303 -0.568599 0.821309 1 
0.124856 0.216301 0.0502479 0.0733095 -0.602288 0.794905 1 
0.125586 0.216449 0.0500603 0.0638081 -0.571437 0.818162 1 
0.126843 0.216347 0.0495412 0.128265 -0.564662 0.815295 1 
0.126663 0.215921 0.0493042 0.125503 -0.580268 0.804697 1 
0.126251 0.216322 0.0494034 0.112182 -0.56091 0.82024 1 
0.12247 0.217983 0.0511908 0.00690991 -0.631566 0.775292 1 
0.122938 0.217884 0.0510139 0.0265988 -0.64257 0.765765 1 
0.123585 0.217918 0.0508404 0.0352673 -0.641865 0.766006 1 
0.12325 0.217915 0.0509737 0.0352673 -0.641865 0.766006 1 
0.122602 0.217588 0.0509136 0.0181247 -0.639942 0.768209 1 
0.123869 0.217752 0.0511751 0.0352673 -0.641865 0.766006 1 
0.123649 0.217608 0.0508427 0.0352673 -0.641865 0.766006 1 
0.123336 0.217577 0.0508828 0.0352673 -0.641865 0.766006 1 
0.123978 0.217386 0.0509911 0.0352673 -0.641865 0.766006 1 
0.123758 0.217241 0.0506586 0.0352673 -0.641865 0.766006 1 
0.124087 0.217019 0.050807 0.0352673 -0.641865 0.766006 1 
0.123468 0.217182 0.0506056 0.0352673 -0.641865 0.766006 1 
0.123486 0.216929 0.0507942 0.0352673 -0.641865 0.766006 1 
0.122892 0.217648 0.0509667 0.0265988 -0.64257 0.765765 1 
0.123097 0.217301 0.0508003 0.0352673 -0.641865 0.766006 1 
0.122757 0.217165 0.0505433 0.0352673 -0.641865 0.766006 1 
0.121613 0.218162 0.0511404 -0.0294799 -0.633115 0.773496 1 
0.122149 0.217886 0.051356 -0.00689785 -0.633223 0.773939 1 
0.121644 0.217815 0.0513607 -0.023723 -0.632147 0.774485 1 
0.121324 0.218103 0.0510874 -0.0209415 -0.635225 0.772043 1 
0.121694 0.217599 0.0513312 -0.018104 -0.630856 0.775689 1 
0.122244 0.217614 0.0511401 0.00413155 -0.634881 0.772599 1 
0.123275 0.21685 0.0503368 0.0352673 -0.641865 0.766006 1 
0.123031 0.216734 0.0500975 0.0524695 -0.599854 0.798387 1 
0.122765 0.216646 0.0499514 0.0523509 -0.598498 0.799412 1 
0.122311 0.216652 0.0501601 0.0181247 -0.639942 0.768209 1 
0.122558 0.216408 0.0496507 0.0465989 -0.597313 0.800653 1 
0.123825 0.216772 0.0508176 0.0352673 -0.641865 0.766006 1 
0.123865 0.216491 0.050913 0.0524695 -0.599854 0.798387 1 
0.124173 0.216681 0.0507161 0.0524695 -0.599854 0.798387 1 
0.123919 0.216115 0.0510402 0.0524695 -0.599854 0.798387 1 
0.124351 0.21623 0.0502527 0.0524695 -0.599854 0.798387 1 
0.123329 0.216475 0.050464 0.0524695 -0.599854 0.798387 1 
0.12314 0.216368 0.0499135 0.0524695 -0.599854 0.798387 1 
0.122851 0.216308 0.0498604 0.0523509 -0.598498 0.799412 1 
0.128962 0.215906 0.0492294 -0.0873238 -0.831724 0.548279 1 
0.129222 0.215476 0.0494237 -0.0782854 -0.838366 0.539458 1 
0.129071 0.215539 0.0490453 -0.0207526 -0.806583 0.590756 1 
0.128852 0.21598 0.0491799 -0.0873238 -0.831724 0.548279 1 
0.128682 0.215912 0.0490514 -0.0236238 -0.796261 0.604491 1 
0.130167 0.215435 0.0482729 0.00134521 -0.848828 0.528668 1 
0.129649 0.215366 0.0489178 -0.0545475 -0.846185 0.53009 1 
0.129355 0.215466 0.0487081 -0.00135883 -0.822094 0.569351 1 
0.129566 0.215344 0.04826 0.0462287 -0.827914 0.558947 1 
0.129167 0.215359 0.0481575 0.0491999 -0.816718 0.574936 1 
0.129924 0.215319 0.0480335 0.0290312 -0.833609 0.551592 1 
0.129877 0.215083 0.0479864 0.100199 -0.808853 0.579411 1 
0.129345 0.214908 0.0476941 0.113207 -0.795386 0.595437 1 
0.128983 0.215092 0.0477637 0.138648 -0.782691 0.606772 1 
0.129841 0.215314 0.0496251 -0.110434 -0.86196 0.494802 1 
0.129153 0.215561 0.0497032 -0.132279 -0.853274 0.504406 1 
0.129014 0.214854 0.0495615 -0.00411516 -0.802456 0.596698 1 
0.12916 0.214858 0.0504551 -0.164908 -0.87416 0.456781 1 
0.130048 0.215351 0.0490203 -0.0429492 -0.846515 0.53063 1 
0.130097 0.215135 0.0489907 -0.0315986 -0.853161 0.520689 1 
0.130564 0.214744 0.0485802 0.114451 -0.844616 0.522996 1 
0.130198 0.214796 0.0482597 0.0845461 -0.823966 0.560297 1 
0.130872 0.214642 0.0481498 0.312995 -0.799171 0.513185 1 
0.130266 0.214711 0.0479803 0.191948 -0.823715 0.533526 1 
0.129758 0.215 0.0487338 0.0404472 -0.829864 0.556497 1 
0.129083 0.215153 0.0488436 -0.00409371 -0.814648 0.579942 1 
0.129799 0.215102 0.0483907 0.0698244 -0.813669 0.57712 1 
0.129729 0.214803 0.0491086 0.0291394 -0.822841 0.567524 1 
0.129895 0.21483 0.0481749 0.100199 -0.808853 0.579411 1 
0.130102 0.214868 0.0475701 0.226143 -0.810732 0.539975 1 
0.128876 0.214715 0.0476375 0.205497 -0.752459 0.625761 1 
0.128254 0.215529 0.0484183 -0.156641 -0.862259 0.481635 1 
0.13073 0.214863 0.0469745 0.327969 -0.788725 0.519951 1 
0.130487 0.214747 0.0467353 0.327969 -0.788725 0.519951 1 
0.131258 0.214813 0.0475486 0.312995 -0.799171 0.513185 1 
0.130997 0.214951 0.0471207 0.312995 -0.799171 0.513185 1 
0.130335 0.214626 0.0477008 0.267025 -0.807321 0.526242 1 
0.130527 0.214465 0.0468307 0.327969 -0.788725 0.519951 1 
0.130839 0.214496 0.0467905 0.327969 -0.788725 0.519951 1 
0.131174 0.214499 0.0466572 0.30728 -0.788102 0.533362 1 
0.12955 0.214561 0.0475277 0.177502 -0.796484 0.57802 1 
0.130097 0.214735 0.0471798 0.275113 -0.800185 0.532933 1 
0.129977 0.214451 0.0470218 0.275113 -0.800185 0.532933 1 
0.129659 0.214195 0.0473436 0.254921 -0.796041 0.54894 1 
0.12916 0.214641 0.0473003 0.15486 -0.780315 0.60591 1 
0.130238 0.214406 0.0467776 0.327969 -0.788725 0.519951 1 
0.130238 0.214406 0.0467776 0.327969 -0.788725 0.519951 1 
0.13033 0.214293 0.0464051 0.327969 -0.788725 0.519951 1 
0.130398 0.214116 0.0467976 0.327969 -0.788725 0.519951 1 
0.129985 0.214224 0.0466633 0.327969 -0.788725 0.519951 1 
0.129536 0.214162 0.0463569 0.316141 -0.795913 0.516311 1 
0.129241 0.213878 0.0465856 0.299982 -0.792017 0.531715 1 
0.130182 0.214012 0.0475274 0.327969 -0.788725 0.519951 1 
0.13025 0.213928 0.0472479 0.327969 -0.788725 0.519951 1 
0.130291 0.213646 0.0473433 0.327969 -0.788725 0.519951 1 
0.129107 0.213395 0.0461622 0.310159 -0.787328 0.532838 1 
0.131394 0.214151 0.0458507 0.316692 -0.790933 0.523575 1 
0.131348 0.214007 0.0451315 0.346154 -0.780859 0.520036 1 
0.130953 0.213862 0.0451858 0.352667 -0.784241 0.510482 1 
0.131388 0.213726 0.0452269 0.346154 -0.780859 0.520036 1 
0.131168 0.213581 0.0448945 0.339862 -0.774756 0.533148 1 
0.130554 0.214077 0.0459888 0.30728 -0.788102 0.533362 1 
0.130195 0.21381 0.0459817 0.310159 -0.787328 0.532838 1 
0.130576 0.213757 0.0456621 0.31356 -0.787878 0.530027 1 
0.130011 0.213544 0.045588 0.324288 -0.790752 0.519181 1 
0.129906 0.213751 0.0459287 0.313814 -0.785332 0.533643 1 
0.129653 0.213569 0.0458144 0.310938 -0.786114 0.534175 1 
0.130304 0.213444 0.0457977 0.327393 -0.793728 0.512649 1 
0.130731 0.213334 0.0452918 0.352667 -0.784241 0.510482 1 
0.130189 0.213093 0.0451245 0.342437 -0.776512 0.528929 1 
0.129877 0.213061 0.0451646 0.331644 -0.780245 0.53031 1 
0.129625 0.213172 0.0452838 0.320884 -0.78385 0.531613 1 
0.129986 0.212695 0.0449806 0.339278 -0.773425 0.535448 1 
0.129683 0.212729 0.0448957 0.331907 -0.777656 0.533937 1 
0.12886 0.213932 0.0469052 0.279119 -0.786895 0.550353 1 
0.128372 0.213315 0.046865 0.27824 -0.803281 0.526613 1 
0.128666 0.213307 0.0464028 0.295843 -0.792607 0.533151 1 
0.128582 0.212901 0.0461835 0.279169 -0.793345 0.540989 1 
0.12894 0.212876 0.045957 0.32089 -0.790252 0.522045 1 
0.129241 0.212349 0.0449028 0.329049 -0.778481 0.534504 1 
0.128878 0.212149 0.045411 0.31065 -0.782201 0.540053 1 
0.129419 0.211897 0.0444393 0.366586 -0.751094 0.549065 1 
0.140054 0.228679 0.0649313 -0.99709 0.0528188 0.0549747 2 
0.139983 0.228179 0.0647437 -0.993878 0.0661092 0.088519 2 
0.139721 0.228024 0.0640823 -0.98788 0.0906636 0.125987 2 
0.140658 0.228118 0.0639619 -0.98788 0.0906636 0.125987 2 
0.140574 0.227912 0.0646479 -0.993878 0.0661092 0.088519 2 
0.140272 0.227947 0.0645632 -0.993878 0.0661092 0.088519 2 
0.140919 0.227981 0.0643897 -0.993878 0.0661092 0.088519 2 
0.140326 0.227571 0.0646904 -0.993878 0.0661092 0.088519 2 
0.140468 0.227534 0.0645218 -0.993878 0.0661092 0.088519 2 
0.13945 0.227712 0.0642179 -0.98785 0.088096 0.128033 2 
0.139724 0.227481 0.0646775 -0.993878 0.0661092 0.088519 2 
0.141041 0.22752 0.0642375 -0.993878 0.0661092 0.088519 2 
0.140724 0.227264 0.0645593 -0.993878 0.0661092 0.088519 2 
0.139746 0.227068 0.0650228 -0.998487 0.0471479 0.0282887 2 
0.139855 0.226701 0.0648388 -0.998487 0.0471479 0.0282887 2 
0.140259 0.226912 0.0646596 -0.995516 0.0562252 0.0760693 2 
0.139886 0.226354 0.0650591 -0.998306 0.0554034 -0.0177709 2 
0.140662 0.225025 0.0645799 -0.850543 0.0428729 0.524156 2 
0.140322 0.224889 0.064323 -0.998306 0.0554034 -0.0177709 2 
0.139482 0.226436 0.0654719 -0.850543 0.0428729 0.524156 2 
0.139578 0.226164 0.065256 -0.998384 0.0514414 -0.024146 2 
0.139933 0.225261 0.0643291 -0.998306 0.0554034 -0.0177709 2 
0.13998 0.225589 0.0637043 -0.990939 0.0677467 0.115973 2 
0.140056 0.224801 0.0641768 -0.998306 0.0554034 -0.0177709 2 
0.14923 0.227113 0.0488741 0.793492 -0.384675 0.471589 1 
0.149618 0.227669 0.0478344 0.85628 -0.27113 0.439629 1 
0.150329 0.227777 0.0472247 0.866457 -0.149992 0.476187 1 
0.15065 0.22749 0.0474981 0.866457 -0.149992 0.476187 1 
0.150416 0.227439 0.0471338 0.866457 -0.149992 0.476187 1 
0.149778 0.227471 0.0471823 0.832682 -0.142956 0.53498 1 
0.150044 0.227558 0.0473285 0.832682 -0.142956 0.53498 1 
0.150044 0.227266 0.047095 0.801942 -0.0820659 0.591738 1 
0.150153 0.227192 0.0471445 0.832682 -0.142956 0.53498 1 
0.149657 0.227003 0.0483682 0.811014 -0.328532 0.484069 1 
0.149832 0.227296 0.048215 0.837154 -0.369102 0.403656 1 
0.149353 0.226653 0.0487219 0.782597 -0.372742 0.498603 1 
0.149739 0.226824 0.0481206 0.821269 -0.316843 0.474476 1 
0.150346 0.22714 0.0478517 0.865927 -0.278497 0.415463 1 
0.150327 0.227101 0.0474297 0.874967 -0.276544 0.397437 1 
0.149795 0.226925 0.0471374 0.817773 -0.336916 0.466621 1 
0.149794 0.226833 0.0478093 0.334476 0.470803 0.816376 1 
0.150166 0.226806 0.0469427 0.801942 -0.0820659 0.591738 1 
0.149263 0.225838 0.0501281 0.752759 -0.537218 0.380462 1 
0.150135 0.225949 0.0497719 0.782597 -0.372742 0.498603 1 
0.149869 0.225861 0.0496257 0.782597 -0.372742 0.498603 1 
0.149323 0.226072 0.0495352 0.234528 0.570011 0.787454 1 
0.149115 0.225557 0.0512504 0.624564 -0.690135 0.365559 1 
0.14972 0.225272 0.0482651 -0.717549 0.67471 -0.172885 1 
0.150088 0.225404 0.0472418 0.334476 0.470803 0.816376 1 
0.149838 0.224787 0.0493001 0.234528 0.570011 0.787454 1 
0.14924 0.22707 0.0471718 0.265953 0.502356 0.822744 1 
0.148389 0.226963 0.0519336 0.317196 -0.87874 0.356656 1 
0.147627 0.226778 0.0523392 0.351373 -0.855989 0.379236 1 
0.148727 0.226314 0.0508181 0.722279 -0.564332 0.399804 1 
0.148098 0.226119 0.0505081 0.709014 -0.542968 0.449983 1 
0.146606 0.225786 0.0511013 0.407678 -0.810559 0.420468 1 
0.148801 0.226454 0.0502569 0.727217 -0.542527 0.4205 1 
0.14883 0.226743 0.0492101 0.234528 0.570011 0.787454 1 
0.148678 0.226422 0.0492701 0.755073 -0.404562 0.51594 1 
0.148411 0.226334 0.049124 0.234528 0.570011 0.787454 1 
0.148659 0.226291 0.04952 0.745692 -0.452683 0.488898 1 
0.148787 0.226055 0.0490861 0.234528 0.570011 0.787454 1 
0.147576 0.226193 0.0487469 0.754342 -0.358515 0.54994 1 
0.148015 0.225604 0.0487113 0.234528 0.570011 0.787454 1 
0.148593 0.225832 0.0503947 0.721039 -0.573217 0.389262 1 
0.148905 0.225863 0.0503546 0.732213 -0.561855 0.384944 1 
0.148304 0.225772 0.0503417 0.723076 -0.57551 0.382033 1 
0.147724 0.225361 0.0500022 0.708101 -0.565486 0.42287 1 
0.148593 0.225723 0.0488173 0.234528 0.570011 0.787454 1 
0.14884 0.225388 0.0489798 0.234528 0.570011 0.787454 1 
0.147532 0.225413 0.0492949 0.735174 -0.464233 0.493971 1 
0.147279 0.225232 0.0491806 0.717009 -0.514051 0.470797 1 
0.14732 0.22495 0.0492759 0.721693 -0.49606 0.482788 1 
0.148881 0.225507 0.0508862 0.687211 -0.631447 0.359187 1 
0.148592 0.225447 0.0508331 0.640022 -0.669637 0.376774 1 
0.145928 0.224678 0.0509491 0.48497 -0.729937 0.481659 1 
0.146123 0.223974 0.0506741 0.512397 -0.721336 0.465966 1 
0.14926 0.22496 0.0494276 0.234528 0.570011 0.787454 1 
0.147626 0.224756 0.0495175 0.714923 -0.549047 0.432935 1 
0.147034 0.224731 0.0493797 0.636641 -0.626615 0.449492 1 
0.147213 0.224572 0.0491497 0.649443 -0.616052 0.445762 1 
0.146814 0.224587 0.0490473 0.61573 -0.668839 0.416572 1 
0.146951 0.224325 0.0491603 0.605132 -0.684711 0.406185 1 
0.146854 0.224305 0.0491427 0.585848 -0.707968 0.394416 1 
0.146344 0.22401 0.0494292 0.526444 -0.73108 0.434027 1 
0.146633 0.224269 0.0503876 0.524051 -0.732349 0.434781 1 
0.147389 0.223737 0.0491247 0.592297 -0.757442 0.274712 1 
0.146669 0.223655 0.0491873 0.501621 -0.782271 0.369361 1 
0.146 0.223941 0.0496874 0.526667 -0.734693 0.427608 1 
0.149017 0.226357 0.0486217 0.234528 0.570011 0.787454 1 
0.148923 0.225593 0.0482937 0.251845 0.508325 0.823517 1 
0.147891 0.225772 0.0486301 0.234528 0.570011 0.787454 1 
0.148368 0.225738 0.0483281 0.234528 0.570011 0.787454 1 
0.148868 0.225584 0.048605 0.234528 0.570011 0.787454 1 
0.148386 0.225485 0.0485166 0.234528 0.570011 0.787454 1 
0.148092 0.225293 0.0480734 0.251845 0.508325 0.823517 1 
0.149321 0.225286 0.0481627 -0.715676 0.675831 -0.176237 1 
0.149446 0.225503 0.0478055 -0.671443 0.740951 0.0125114 1 
0.147733 0.224934 0.0487383 0.754504 -0.323359 0.571106 1 
0.149219 0.22495 0.0490987 0.234528 0.570011 0.787454 1 
0.149044 0.224657 0.0492519 0.234528 0.570011 0.787454 1 
0.148438 0.224433 0.0488488 0.234528 0.570011 0.787454 1 
0.148837 0.224511 0.0482793 0.292576 0.444282 0.846767 1 
0.143167 0.217945 0.0548913 -0.251135 0.348065 -0.903206 1 
0.143689 0.217563 0.0541696 -0.206923 0.366095 -0.90728 1 
0.141906 0.218299 0.0545817 -0.610415 0.205532 -0.764951 1 
0.142842 0.218008 0.0548997 -0.438838 0.267584 -0.857799 1 
0.140593 0.2181 0.0551785 -0.892578 -0.00131455 -0.45089 1 
0.140812 0.217367 0.0548104 -0.693502 0.114346 -0.711322 1 
0.140454 0.217392 0.0550368 -0.72887 0.086179 -0.679207 1 
0.142535 0.218202 0.0546581 -0.438838 0.267584 -0.857799 1 
0.142905 0.217698 0.0549019 -0.325333 0.340464 -0.882181 1 
0.142246 0.218142 0.0546051 -0.487154 0.247419 -0.837535 1 
0.142318 0.217898 0.0544825 -0.454609 0.234101 -0.859376 1 
0.142084 0.217848 0.0541181 -0.430677 0.222044 -0.874765 1 
0.141464 0.217626 0.0543552 -0.565803 0.150781 -0.810637 1 
0.142505 0.217421 0.054566 -0.330675 0.358104 -0.873164 1 
0.140809 0.21649 0.0541099 -0.858563 -0.497822 -0.122652 1 
0.141594 0.216647 0.053611 -0.160562 0.56572 -0.808814 1 
0.140937 0.216255 0.0536759 -0.77005 -0.548198 -0.326347 1 
0.141253 0.216126 0.0537925 -0.704761 -0.5721 -0.41954 1 
0.141513 0.215404 0.0537533 -0.704761 -0.5721 -0.41954 1 
0.140959 0.215842 0.0540212 -0.823103 -0.484455 -0.296317 1 
0.140606 0.216092 0.053966 -0.833282 -0.461197 -0.304859 1 
0.140819 0.215134 0.0538796 -0.81728 -0.452281 -0.357064 1 
0.140357 0.215751 0.0540084 -0.833282 -0.461197 -0.304859 1 
0.145038 0.217147 0.0523725 -0.475613 0.636951 -0.6067 1 
0.144033 0.217139 0.0527724 -0.270309 0.514056 -0.814052 1 
0.145581 0.217773 0.0521014 -0.381648 0.728898 -0.568377 1 
0.145292 0.217713 0.0520484 -0.434487 0.670874 -0.600957 1 
0.144913 0.217023 0.0520577 -0.475613 0.636951 -0.6067 1 
0.144451 0.217347 0.051953 -0.390105 0.590919 -0.70614 1 
0.144064 0.216791 0.0529927 -0.329941 0.50846 -0.795366 1 
0.143757 0.216985 0.0527512 -0.220712 0.569529 -0.791785 1 
0.144696 0.216427 0.0516485 -0.481119 0.658815 -0.578349 1 
0.143609 0.216597 0.052296 -0.270309 0.514056 -0.814052 1 
0.143594 0.216306 0.0527027 -0.31749 0.524896 -0.789737 1 
0.142673 0.216503 0.0524165 -0.220712 0.569529 -0.791785 1 
0.142025 0.216377 0.0532619 -0.220712 0.569529 -0.791785 1 
0.142244 0.215736 0.0522218 -0.232182 0.584351 -0.777577 1 
0.141716 0.215894 0.0532253 -0.148996 0.621569 -0.76906 1 
0.141789 0.21565 0.0531026 -0.148996 0.621569 -0.76906 1 
0.141315 0.215232 0.0533277 -0.695213 -0.545167 -0.468477 1 
0.14103 0.215105 0.0527595 -0.760612 -0.519561 -0.389264 1 
0.142308 0.215719 0.0524576 -0.220712 0.569529 -0.791785 1 
0.14198 0.215105 0.0526709 -0.369023 0.49794 -0.784779 1 
0.142132 0.215133 0.0523773 -0.372269 0.485078 -0.791274 1 
0.141759 0.21496 0.0523384 -0.369692 0.5053 -0.779744 1 
0.143411 0.216424 0.0518705 -0.353137 0.484165 -0.800549 1 
0.143896 0.215779 0.0516485 -0.470553 0.658105 -0.587773 1 
0.143122 0.216365 0.0518175 -0.273455 0.517221 -0.81099 1 
0.142892 0.216155 0.0516099 -0.339588 0.486264 -0.805126 1 
0.142932 0.215873 0.0517054 -0.393915 0.481451 -0.782966 1 
0.143319 0.216045 0.051104 -0.457686 0.625337 -0.632043 1 
0.143841 0.21577 0.0519598 -0.474681 0.632348 -0.61222 1 
0.143987 0.215666 0.0512759 -0.495489 0.67017 -0.552596 1 
0.141585 0.223174 0.0593566 0.734796 -0.673925 0.076813 1 
0.142027 0.223647 0.0586775 0.731095 -0.679183 0.0648901 1 
0.141984 0.223252 0.0587871 0.730093 -0.681516 0.0500064 1 
0.142053 0.223167 0.0585076 0.733675 -0.675791 0.0709074 1 
0.141787 0.223079 0.0583615 0.728106 -0.681785 0.0709288 1 
0.141308 0.222636 0.0597738 0.747364 -0.660629 0.0708333 1 
0.141707 0.222714 0.0592043 0.738199 -0.672263 0.0559024 1 
0.141667 0.222995 0.0591089 0.738199 -0.672263 0.0559024 1 
0.141758 0.222882 0.0587363 0.743204 -0.664972 0.0738858 1 
0.141814 0.222891 0.0584251 0.737068 -0.669929 0.0890319 1 
0.141816 0.222347 0.0590203 0.747024 -0.659992 0.0797793 1 
0.141799 0.222601 0.0588317 0.744474 -0.663206 0.0769145 1 
0.141868 0.222516 0.0585523 0.742831 -0.664332 0.0828598 1 
0.141267 0.222918 0.0596784 0.738825 -0.669152 0.0798337 1 
0.14385 0.225346 0.0547447 0.169251 0.648032 0.742569 1 
0.144377 0.225205 0.0559907 0.742522 -0.663437 0.092266 1 
0.144648 0.225225 0.0556216 0.29579 0.583586 0.756264 1 
0.143664 0.224912 0.0579442 0.806913 -0.499367 0.315473 1 
0.144233 0.224765 0.0572697 0.832866 -0.301582 0.464092 1 
0.14416 0.224717 0.0571589 0.796463 -0.112942 0.594047 1 
0.143541 0.22488 0.0569575 0.784741 -0.00137433 0.619822 1 
0.143971 0.224718 0.0581858 0.271286 0.528458 0.804448 1 
0.143695 0.224565 0.0581646 0.262647 0.50509 0.822132 1 
0.143475 0.224421 0.0578322 0.812893 -0.219742 0.539368 1 
0.143544 0.224336 0.0575527 0.807502 -0.449323 0.382164 1 
0.14318 0.224136 0.0580608 0.732987 -0.667033 0.133407 1 
0.143249 0.224051 0.0577814 0.269793 0.506837 0.818736 1 
0.143006 0.223935 0.0575421 0.72478 -0.683948 0.0831237 1 
0.143084 0.223916 0.0571377 0.811198 -0.388799 0.436799 1 
0.142536 0.22345 0.057252 0.726958 -0.672999 0.136398 1 
0.142551 0.22374 0.0568454 0.739828 -0.658792 0.13656 1 
0.141668 0.223272 0.0570931 0.716419 -0.68663 0.123623 1 
0.143963 0.224929 0.0562949 0.541998 0.354321 0.762033 1 
0.144138 0.224929 0.0559081 0.66753 0.155908 0.728077 1 
0.143522 0.224548 0.0563019 0.798729 -0.122541 0.589081 1 
0.14359 0.224463 0.0560225 0.811002 -0.144343 0.566957 1 
0.142766 0.223568 0.0581315 0.712079 -0.697517 0.0800906 1 
0.142426 0.223432 0.0578746 0.717648 -0.691446 0.0829735 1 
0.142467 0.223535 0.0575315 0.725515 -0.670988 0.152979 1 
0.141928 0.22275 0.0579594 0.72868 -0.675253 0.114274 1 
0.1422 0.223063 0.0578238 0.712614 -0.68538 0.149785 1 
0.14197 0.222853 0.0576163 0.714909 -0.681516 0.156339 1 
0.142228 0.223259 0.0574489 0.698872 -0.689615 0.18976 1 
0.141958 0.223331 0.057146 0.709431 -0.691433 0.136487 1 
0.141998 0.223049 0.0572414 0.717076 -0.684142 0.133235 1 
0.142053 0.223058 0.0569302 0.711484 -0.690514 0.130314 1 
0.142038 0.222768 0.0573369 0.725571 -0.67809 0.117219 1 
0.14213 0.222655 0.0569643 0.721486 -0.682967 0.114075 1 
0.141969 0.222468 0.0580548 0.72868 -0.675253 0.114274 1 
0.14201 0.222571 0.0577117 0.716204 -0.683033 0.143241 1 
0.141963 0.222243 0.0583364 0.739191 -0.669756 0.0708813 1 
0.141858 0.222342 0.0570998 0.721486 -0.682967 0.114075 1 
0.141954 0.22207 0.056884 0.728948 -0.672069 0.130223 1 
0.143506 0.223857 0.0548976 0.127763 0.556576 0.820914 1 
0.142708 0.223886 0.0546927 0.77361 -0.62901 0.076638 1 
0.141119 0.223842 0.0577512 0.707304 -0.636413 -0.307734 1 
0.141407 0.223409 0.0566652 0.704308 -0.707188 0.061933 1 
0.141538 0.22263 0.0568264 0.72909 -0.67585 0.107959 1 
0.141914 0.222351 0.0567886 0.729436 -0.672752 0.12381 1 
0.141748 0.222324 0.0577223 0.712614 -0.68538 0.149785 1 
0.141527 0.222088 0.0580618 0.72501 -0.680712 0.104839 1 
0.141141 0.222008 0.0579912 0.681343 -0.720277 0.130279 1 
0.141568 0.221898 0.0574852 0.729246 -0.67621 0.104599 1 
0.141444 0.221774 0.0571705 0.752297 -0.644613 0.136101 1 
0.139339 0.222121 0.0575141 -0.202026 -0.429122 0.880363 1 
0.141061 0.222756 0.0564564 0.521909 -0.847923 0.0929426 1 
0.140854 0.222517 0.0561558 0.262784 -0.846748 0.462561 1 
0.141789 0.222227 0.0564738 0.738664 -0.660752 0.133349 1 
0.142036 0.221891 0.0566364 0.757988 -0.626297 0.182223 1 
0.141086 0.221891 0.056725 0.641328 -0.723671 0.254948 1 
0.141127 0.22161 0.0568204 0.705125 -0.657374 0.265815 1 
0.140879 0.221653 0.0564243 0.483399 -0.761969 0.430963 1 
0.14092 0.221371 0.0565197 0.648784 -0.665209 0.369561 1 
0.140755 0.221528 0.0561096 0.323903 -0.746104 0.581735 1 
0.13997 0.221372 0.0566084 -0.0433963 -0.82453 0.564152 1 
0.14026 0.221615 0.0553175 -0.117276 -0.711078 0.693264 1 
0.140313 0.220947 0.0552112 0.136454 -0.682268 0.718256 1 
0.139666 0.220913 0.0553846 -0.0469515 -0.675817 0.735573 1 
0.142203 0.222194 0.0536867 0.777808 -0.551941 0.300625 1 
0.142619 0.221634 0.0537442 0.918499 -0.386665 0.0827599 1 
0.141086 0.221675 0.0535701 0.913466 -0.331511 0.235967 1 
0.1416 0.221719 0.0541123 0.855976 -0.43183 0.284301 1 
0.142351 0.221162 0.0540366 0.886261 -0.378118 0.267522 1 
0.142176 0.220869 0.0541898 0.936117 -0.270061 0.225284 1 
0.141746 0.22123 0.0538669 0.943051 -0.249915 0.219539 1 
0.139722 0.221307 0.0546349 -0.297367 -0.679925 0.67028 1 
0.140315 0.221516 0.0534288 0.996891 -0.00105046 -0.0787849 1 
0.140622 0.221322 0.0536703 0.889774 -0.331602 0.313596 1 
0.140012 0.221366 0.0546879 -0.111012 -0.661634 0.741563 1 
0.140318 0.221172 0.0549295 0.13962 -0.671075 0.728124 1 
0.140148 0.221105 0.054801 -0.00415653 -0.680286 0.732935 1 
0.139831 0.22094 0.0544508 -0.070757 -0.674358 0.735007 1 
0.142657 0.221896 0.0532444 0.768883 -0.488102 0.413009 1 
0.142063 0.221487 0.0535451 0.932001 -0.293798 0.212266 1 
0.141916 0.22139 0.0533235 0.923448 -0.250548 0.290636 1 
0.141814 0.221146 0.0535875 0.972622 -0.15384 0.174182 1 
0.14144 0.222242 0.0594966 0.761966 -0.643406 0.0737386 1 
0.14075 0.221612 0.0588742 0.700592 -0.712007 0.0470866 1 
0.140257 0.221155 0.0586773 0.542789 -0.823903 0.162986 1 
0.141126 0.221718 0.0583978 0.0574717 -0.531263 0.845255 1 
0.141195 0.221633 0.0581184 0.741929 -0.666723 0.0708665 1 
0.140463 0.220901 0.0578389 0.42473 -0.806186 0.411908 1 
0.141273 0.221614 0.057714 0.706655 -0.697729 0.117528 1 
0.141195 0.221433 0.0572129 0.720741 -0.661842 0.206148 1 
0.141043 0.221404 0.0575065 0.666545 -0.719126 0.196406 1 
0.140804 0.221128 0.0574239 0.556177 -0.762527 0.330482 1 
0.140348 0.220549 0.0571657 0.192181 -0.761035 0.61959 1 
0.139811 0.220641 0.0582941 0.0615199 -0.78259 0.619491 1 
0.139995 0.220708 0.0577824 0.094064 -0.80895 0.580303 1 
0.139043 0.220031 0.058076 0.0735501 -0.765786 0.638876 1 
0.140064 0.220623 0.0575029 0.119997 -0.774793 0.620723 1 
0.139759 0.21998 0.0576231 0.04689 -0.751661 0.657881 1 
0.139634 0.219563 0.0570748 0.0209905 -0.726271 0.687088 1 
0.139996 0.220691 0.055533 -0.0181578 -0.688599 0.724915 1 
0.139651 0.220623 0.0557912 -0.136419 -0.724071 0.6761 1 
0.139635 0.219948 0.0566363 0.00415074 -0.751283 0.659967 1 
0.139675 0.219666 0.0567317 0.00138367 -0.715359 0.698755 1 
0.139633 0.219471 0.0577468 0.0558795 -0.743627 0.666255 1 
0.139716 0.219385 0.0568272 -0.0153592 -0.733055 0.679996 1 
0.14111 0.220626 0.0551826 0.914156 -0.323069 0.244837 1 
