0.143636 0.236932 0.00745595 0.308877 0.22632 -0.923783 1 
0.144485 0.23655 0.00729956 -0.0399808 0.51975 -0.853382 1 
0.144609 0.236067 0.00685182 0.0349679 0.356155 -0.933773 1 
0.144622 0.236521 0.00696764 -0.0398296 0.506798 -0.861144 1 
0.143585 0.23352 0.00737628 0.954089 -0.114176 0.276909 1 
0.143482 0.233838 0.00700425 0.954089 -0.114176 0.276909 1 
0.143932 0.233931 0.00736337 0.954089 -0.114176 0.276909 1 
0.143537 0.234165 0.00726884 0.954089 -0.114176 0.276909 1 
0.14385 0.234185 0.00706573 0.954089 -0.114176 0.276909 1 
0.144101 0.234465 0.00723545 0.954089 -0.114176 0.276909 1 
0.14375 0.234365 0.00697799 0.954089 -0.114176 0.276909 1 
0.143549 0.234724 0.0068024 0.954089 -0.114176 0.276909 1 
0.143983 0.234535 0.00705948 0.954089 -0.114176 0.276909 1 
0.143979 0.234847 0.00678903 0.954089 -0.114176 0.276909 1 
0.143684 0.234867 0.00648428 0.954089 -0.114176 0.276909 1 
0.144387 0.235067 0.00699933 0.214813 -0.152322 -0.964704 1 
0.144404 0.235315 0.00680329 0.211955 -0.101588 -0.971985 1 
0.143449 0.234835 0.00611854 0.954089 -0.114176 0.276909 1 
0.144169 0.235283 0.00643749 0.163353 -0.158288 -0.973787 1 
0.143157 0.236123 0.016036 -0.083152 -0.695851 -0.713356 1 
0.143246 0.236773 0.0158947 -0.468285 -0.528278 -0.70826 1 
0.143455 0.237284 0.0153333 -0.468285 -0.528278 -0.70826 1 
0.143291 0.237793 0.0147381 -0.468285 -0.528278 -0.70826 1 
0.143569 0.234681 0.0160338 0.142561 -0.751819 -0.643773 1 
0.143844 0.23469 0.015966 0.107743 -0.727633 -0.677452 1 
0.142625 0.234896 0.0160747 -0.485635 -0.529025 -0.69591 1 
0.142698 0.235264 0.0158315 -0.464292 -0.537513 -0.703926 1 
0.142856 0.235205 0.015872 -0.464292 -0.537513 -0.703926 1 
0.144084 0.235728 0.0167871 0.223454 -0.701615 -0.676613 1 
0.143955 0.235138 0.0161834 0.226899 -0.702604 -0.674437 1 
0.143968 0.235592 0.0162993 0.243847 -0.728395 -0.640296 1 
0.143555 0.235717 0.0161166 0.254458 -0.741247 -0.621131 1 
0.143907 0.235783 0.016076 0.275148 -0.733197 -0.621865 1 
0.144138 0.236092 0.0158733 0.26484 -0.743771 -0.61373 1 
0.14414 0.235953 0.0161576 0.247797 -0.730765 -0.636065 1 
0.144133 0.236471 0.016199 0.26484 -0.743771 -0.61373 1 
0.143845 0.235973 0.0158528 0.19545 -0.74948 -0.632518 1 
0.143963 0.236007 0.0154465 0.19545 -0.74948 -0.632518 1 
0.144216 0.236114 0.0156025 0.24002 -0.742022 -0.625934 1 
0.144449 0.236285 0.015684 0.254641 -0.735455 -0.627904 1 
0.144503 0.236612 0.0159486 0.292596 -0.737085 -0.609174 1 
0.144134 0.236369 0.0153048 0.189274 -0.743247 -0.641685 1 
0.144408 0.236412 0.0155352 0.26484 -0.743771 -0.61373 1 
0.144411 0.236171 0.0149253 0.0769768 -0.733458 -0.675362 1 
0.144525 0.236446 0.0151288 0.23309 -0.743071 -0.627308 1 
0.144623 0.236473 0.0155285 0.26484 -0.743771 -0.61373 1 
0.144681 0.23656 0.0151832 0.24002 -0.742022 -0.625934 1 
0.14384 0.236389 0.0150001 -0.083152 -0.695851 -0.713356 1 
0.143887 0.237234 0.0153061 -0.468285 -0.528278 -0.70826 1 
0.143807 0.237316 0.0149947 -0.468285 -0.528278 -0.70826 1 
0.144136 0.236267 0.0144107 -0.083152 -0.695851 -0.713356 1 
0.144409 0.23631 0.014641 -0.0800906 -0.697517 -0.712079 1 
0.144527 0.236344 0.0142347 -0.185968 -0.705447 -0.68393 1 
0.144094 0.236394 0.0142618 -0.525604 -0.515528 -0.676736 1 
0.144643 0.23648 0.0147225 0.0769768 -0.733458 -0.675362 1 
0.144818 0.23653 0.0148513 0.23309 -0.743071 -0.627308 1 
0.144581 0.236671 0.0144993 -0.13968 -0.719428 -0.680377 1 
0.144757 0.236721 0.0146281 -0.0125123 -0.760471 -0.649251 1 
0.145149 0.236694 0.0150344 0.26484 -0.743771 -0.61373 1 
0.145305 0.236808 0.0150887 0.22489 -0.78634 -0.575408 1 
0.145068 0.236948 0.0147367 0.164716 -0.778245 -0.605973 1 
0.143725 0.23757 0.0146971 -0.468285 -0.528278 -0.70826 1 
0.144139 0.237445 0.0148798 -0.468285 -0.528278 -0.70826 1 
0.143922 0.237523 0.0146022 -0.525604 -0.515528 -0.676736 1 
0.144276 0.237416 0.0145478 -0.525604 -0.515528 -0.676736 1 
0.143604 0.237813 0.0145349 -0.525604 -0.515528 -0.676736 1 
0.143975 0.237954 0.0142845 -0.809282 -0.183034 -0.558177 1 
0.144365 0.236714 0.0139237 -0.450449 -0.627949 -0.634647 1 
0.144184 0.237009 0.0138226 -0.384129 -0.651206 -0.654504 1 
0.144698 0.236705 0.014093 -0.315297 -0.71629 -0.622509 1 
0.144577 0.236948 0.0139308 -0.384129 -0.651206 -0.654504 1 
0.144675 0.236975 0.0143304 -0.21333 -0.727189 -0.652446 1 
0.144534 0.237214 0.0134977 -0.428598 -0.65207 -0.625387 1 
0.144589 0.237541 0.0137624 -0.398594 -0.663221 -0.633451 1 
0.1436 0.238124 0.0142645 -0.823922 -0.159421 -0.543818 1 
0.143944 0.237357 0.0137824 -0.359465 -0.661482 -0.658199 1 
0.144294 0.237561 0.0134576 -0.423963 -0.660052 -0.62015 1 
0.144589 0.237507 0.0134643 -0.464658 -0.64918 -0.602211 1 
0.144807 0.237359 0.0146222 -0.169142 -0.723807 -0.66895 1 
0.144569 0.237534 0.0145683 -0.322341 -0.646302 -0.691657 1 
0.144745 0.23755 0.014399 -0.308784 -0.667684 -0.677385 1 
0.144863 0.237584 0.0139927 -0.366624 -0.675706 -0.639537 1 
0.144835 0.238166 0.0139597 -0.541117 -0.554603 -0.632146 1 
0.144801 0.237775 0.0137695 -0.423963 -0.660052 -0.62015 1 
0.144753 0.23842 0.0136621 0.513298 -0.830111 -0.217809 1 
0.144699 0.238093 0.0133974 0.652717 -0.755552 -0.0557023 1 
0.147799 0.23235 0.018387 0.997501 -0.00734228 -0.0702761 1 
0.149211 0.232337 0.0187933 0.90438 -0.241071 -0.352109 1 
0.148774 0.232698 0.01855 0.943317 -0.156539 -0.29266 1 
0.149065 0.232955 0.0182863 0.933394 -0.144339 -0.328544 1 
0.149109 0.232655 0.0184213 0.917412 -0.164881 -0.362173 1 
0.14952 0.232669 0.0183197 0.903932 -0.201034 -0.377482 1 
0.147362 0.232711 0.0181438 0.997501 -0.00734228 -0.0702761 1 
0.147774 0.232725 0.0180422 0.997501 -0.00734228 -0.0702761 1 
0.147979 0.233477 0.0180907 0.968733 -0.0814588 -0.234351 1 
0.147788 0.233145 0.0178599 0.977876 -0.056671 -0.201363 1 
0.14808 0.233263 0.0178804 0.977876 -0.056671 -0.201363 1 
0.147963 0.233229 0.0182867 0.978996 -0.0916663 -0.18211 1 
0.147263 0.234208 0.0182409 0.457306 0.779536 0.428012 1 
0.147654 0.234285 0.0180649 0.8018 -0.0942442 -0.590114 1 
0.147395 0.233206 0.0177517 0.481788 -0.419727 -0.769227 1 
0.147806 0.23322 0.0176501 0.901446 -0.186058 -0.390867 1 
0.147863 0.23334 0.0176029 0.88731 -0.191495 -0.419535 1 
0.147559 0.234085 0.0176514 0.42681 -0.401233 -0.81046 1 
0.147665 0.233526 0.0174135 0.46836 -0.403535 -0.786002 1 
0.147916 0.233772 0.0172852 0.940205 -0.0398719 -0.338268 1 
0.148669 0.233223 0.0184899 0.968733 -0.0814588 -0.234351 1 
0.148452 0.2333 0.0182123 0.968733 -0.0814588 -0.234351 1 
0.148621 0.233868 0.0183825 0.976676 -0.00820736 -0.214564 1 
0.148122 0.234488 0.0185122 0.987404 0.151641 -0.0451451 1 
0.148182 0.234435 0.0184511 0.980131 0.0270624 -0.196497 1 
0.147887 0.234456 0.0181464 0.94248 0.0720951 -0.326394 1 
0.14802 0.234806 0.0181402 0.942026 0.110905 -0.316681 1 
0.148148 0.234045 0.0182609 0.976676 -0.00820736 -0.214564 1 
0.147194 0.234916 0.0180591 0.501391 0.851335 0.154387 1 
0.147234 0.236313 0.0187046 0.467664 0.881525 0.0648383 1 
0.147086 0.235648 0.0183108 0.377482 0.903932 0.201034 1 
0.147144 0.235734 0.0179655 0.586836 0.79003 -0.177416 1 
0.147498 0.235662 0.0182092 0.528869 -0.249701 -0.811139 1 
0.147258 0.236009 0.0181691 0.640808 0.720313 -0.265546 1 
0.14747 0.236243 0.0181762 0.694746 0.629358 -0.34819 1 
0.148115 0.236427 0.0181562 0.846848 0.36338 -0.388334 1 
0.147312 0.234951 0.0176527 0.668683 0.726302 -0.15921 1 
0.147155 0.234941 0.0170161 0.66425 0.705273 -0.247713 1 
0.147844 0.234758 0.0165349 0.651249 0.726212 -0.220206 1 
0.148163 0.235748 0.0179655 0.819944 0.386886 -0.421913 1 
0.148176 0.234851 0.0175984 0.87297 0.134192 -0.468951 1 
0.147929 0.235716 0.0175997 0.166075 0.86271 0.47765 1 
0.147972 0.235382 0.0174366 0.345104 0.866594 0.360442 1 
0.148167 0.232663 0.0181504 0.914513 -0.201794 -0.350635 1 
0.148259 0.233106 0.0176973 0.901446 -0.186058 -0.390867 1 
0.148218 0.233234 0.0175485 0.88731 -0.191495 -0.419535 1 
0.14926 0.23308 0.0182052 0.943952 -0.105179 -0.312876 1 
0.143878 0.236466 0.0169373 0.296327 -0.732008 -0.613477 1 
0.143713 0.234201 0.0162566 0.0739541 -0.729391 -0.680088 1 
0.148868 0.23588 0.0178844 0.881457 0.246928 -0.402567 1 
0.139874 0.232433 0.0246727 -0.48939 0.0257574 -0.871684 1 
0.140863 0.233201 0.0246535 -0.502432 0.251989 -0.827081 1 
0.140804 0.233219 0.0244165 -0.502432 0.251989 -0.827081 1 
0.141017 0.233453 0.0244236 -0.548532 0.286122 -0.78565 1 
0.140148 0.233864 0.0242075 -0.498446 0.254624 -0.828685 1 
0.140553 0.234396 0.0241474 -0.532156 0.318015 -0.78465 1 
0.140489 0.233303 0.0240373 -0.502432 0.251989 -0.827081 1 
0.140698 0.233848 0.023774 -0.588807 0.274565 -0.760211 1 
0.142027 0.234158 0.0244788 -0.644166 0.362241 -0.67367 1 
0.142124 0.235641 0.024779 -0.647557 0.46015 -0.607398 1 
0.141253 0.233383 0.0238952 -0.595491 0.211902 -0.774912 1 
0.142866 0.233081 0.0235966 -0.54515 0.0317429 -0.837737 1 
0.142704 0.233452 0.0232857 -0.530325 0.012207 -0.847706 1 
0.142544 0.233649 0.0229609 -0.530325 0.012207 -0.847706 1 
0.143222 0.234258 0.0234291 -0.638083 0.3476 -0.687041 1 
0.143499 0.234061 0.0230495 -0.598191 0.249639 -0.761477 1 
0.142223 0.234146 0.0232055 -0.634661 0.314908 -0.705718 1 
0.142297 0.234514 0.0229622 -0.63737 0.343952 -0.689533 1 
0.142581 0.233833 0.0228393 -0.584707 0.160832 -0.795142 1 
0.143029 0.234065 0.0229141 -0.604852 0.288861 -0.742101 1 
0.14232 0.234244 0.0227247 -0.625189 0.297327 -0.72162 1 
0.143137 0.234719 0.0234433 -0.63329 0.376684 -0.676057 1 
0.143373 0.234649 0.0229149 -0.642876 0.348429 -0.682135 1 
0.143532 0.234556 0.0226574 -0.622851 0.307402 -0.719417 1 
0.143765 0.234726 0.022739 -0.619885 0.318844 -0.716995 1 
0.141894 0.235266 0.0229092 -0.652098 0.369577 -0.661953 1 
0.142093 0.235046 0.0228005 -0.638083 0.3476 -0.687041 1 
0.142372 0.23471 0.0227051 -0.63737 0.343952 -0.689533 1 
0.142764 0.236171 0.0247866 -0.700294 0.509761 -0.499732 1 
0.143116 0.236237 0.024746 -0.703063 0.516025 -0.489305 1 
0.143191 0.235046 0.023708 -0.642041 0.381263 -0.665148 1 
0.143428 0.234976 0.0231796 -0.642041 0.381263 -0.665148 1 
0.143761 0.234967 0.0233489 -0.642041 0.381263 -0.665148 1 
0.144015 0.235074 0.0235048 -0.642041 0.381263 -0.665148 1 
0.1437 0.235158 0.0231256 -0.642041 0.381263 -0.665148 1 
0.142992 0.232459 0.0234331 -0.549642 0.0548236 -0.8336 1 
0.142997 0.23208 0.0231074 -0.519522 -0.0896709 -0.849739 1 
0.142599 0.23252 0.0233249 -0.557348 0.0578513 -0.828261 1 
0.142697 0.232479 0.0231284 -0.549642 0.0548236 -0.8336 1 
0.142693 0.232825 0.023156 -0.54515 0.0317429 -0.837737 1 
0.143169 0.232441 0.0229658 -0.559289 0.0577603 -0.826958 1 
0.142849 0.231414 0.0227137 -0.52674 -0.0572848 -0.848094 1 
0.142977 0.232109 0.022735 -0.534766 -0.0345456 -0.844294 1 
0.143 0.231839 0.0224976 -0.519467 -0.0689808 -0.851701 1 
0.142874 0.232461 0.0226611 -0.535962 -0.0373927 -0.843413 1 
0.143301 0.232791 0.0229595 -0.559289 0.0577603 -0.826958 1 
0.143335 0.233182 0.0231498 -0.54515 0.0317429 -0.837737 1 
0.143294 0.233309 0.023001 -0.54515 0.0317429 -0.837737 1 
0.142803 0.233377 0.0227911 -0.54515 0.0317429 -0.837737 1 
0.142862 0.233359 0.0230282 -0.54515 0.0317429 -0.837737 1 
0.143747 0.234583 0.0223527 -0.61239 0.24716 -0.750926 1 
0.143493 0.234476 0.0221968 -0.595491 0.211902 -0.774912 1 
0.144079 0.234679 0.0219397 -0.611399 0.151723 -0.776641 1 
0.143911 0.234077 0.0214715 -0.604802 0.0672003 -0.793535 1 
0.144135 0.234867 0.0224885 -0.633039 0.30766 -0.710357 1 
0.144353 0.234722 0.02217 -0.560553 0.213471 -0.800132 1 
0.144411 0.234808 0.0218247 -0.564205 0.170014 -0.807941 1 
0.144705 0.234788 0.0221295 -0.53071 0.226128 -0.816831 1 
0.144274 0.23477 0.0215605 -0.580154 0.167265 -0.797147 1 
0.144528 0.234843 0.0214184 -0.667354 -0.00414506 -0.744729 1 
0.144603 0.235106 0.0217574 -0.596202 0.0851717 -0.798304 1 
0.144453 0.234613 0.0213774 -0.639942 0.0181247 -0.768209 1 
0.144821 0.234961 0.0214389 -0.622887 -0.129334 -0.771547 1 
0.145076 0.234929 0.021879 -0.48303 0.125444 -0.866571 1 
0.145905 0.234577 0.0213502 -0.585068 -0.317516 -0.746243 1 
0.143822 0.234849 0.0212152 -0.62578 0.0918978 -0.774567 1 
0.144521 0.235361 0.0214598 -0.648328 0.0707529 -0.758067 1 
0.144293 0.234811 0.0210526 -0.672152 -0.0587596 -0.738078 1 
0.145124 0.235672 0.021291 -0.579601 0.576222 -0.576222 1 
0.146301 0.231432 0.0216434 0.484714 -0.00934711 0.874622 1 
0.146481 0.231173 0.0205661 0.520394 0.496968 0.694416 1 
0.14653 0.230493 0.0203755 0.148717 -0.846655 -0.510938 1 
0.146786 0.230394 0.0202196 0.326639 -0.818964 -0.471811 1 
0.146953 0.2311 0.0201055 0.428449 -0.726213 -0.537629 1 
0.147118 0.230489 0.0198065 0.291459 -0.769261 -0.568585 1 
0.147497 0.231462 0.0214741 0.915152 -0.138321 0.378635 1 
0.146824 0.231895 0.0202828 0.662585 0.471358 0.582068 1 
0.147886 0.231678 0.0210139 0.943952 -0.312876 -0.105179 1 
0.148179 0.231762 0.0207363 0.947804 -0.29009 -0.132345 1 
0.147592 0.231698 0.0207092 0.987784 -0.143107 0.0616638 1 
0.147849 0.231564 0.0202551 0.933947 -0.300147 -0.194049 1 
0.147003 0.231738 0.0200996 0.647496 0.486042 0.586951 1 
0.148004 0.231712 0.0206075 0.947804 -0.29009 -0.132345 1 
0.147639 0.231157 0.0202342 0.82031 -0.495311 -0.285936 1 
0.148283 0.231342 0.0202142 0.898778 -0.39801 -0.183808 1 
0.148516 0.231512 0.0202957 0.947804 -0.29009 -0.132345 1 
0.148726 0.231919 0.0203166 0.947876 -0.271788 -0.166318 1 
0.148944 0.231773 0.0199981 0.907794 -0.339512 -0.246255 1 
0.149224 0.232789 0.0203856 0.966413 -0.188094 -0.175122 1 
0.149373 0.233421 0.0204814 0.983096 -0.0852256 -0.162049 1 
0.14943 0.233507 0.0201361 0.978996 -0.0916663 -0.18211 1 
0.14923 0.232376 0.0197619 0.961033 -0.183242 -0.206972 1 
0.149204 0.232818 0.0200132 0.978996 -0.0916663 -0.18211 1 
0.149293 0.233468 0.0198719 0.978996 -0.0916663 -0.18211 1 
0.14928 0.233014 0.0197561 0.978996 -0.0916663 -0.18211 1 
0.1486 0.231155 0.0196991 0.812487 -0.47989 -0.331013 1 
0.148773 0.231378 0.0198417 0.812514 -0.462703 -0.35458 1 
0.148751 0.23158 0.0194831 0.808296 -0.452966 -0.376138 1 
0.149217 0.231921 0.0196461 0.909526 -0.325561 -0.258405 1 
0.149061 0.231808 0.0195917 0.907794 -0.339512 -0.246255 1 
0.149233 0.232169 0.01945 0.918555 -0.25235 -0.304262 1 
0.149267 0.232525 0.0193422 0.935348 -0.184846 -0.301591 1 
0.148491 0.234797 0.0212286 0.69761 0.457859 0.551095 1 
0.148843 0.234863 0.021188 0.823106 0.417104 0.385385 1 
0.148951 0.235517 0.0217173 0.808817 0.498586 0.311814 1 
0.149208 0.235417 0.0215614 0.871454 0.433477 0.229488 1 
0.149146 0.234222 0.0205571 0.989675 0.0168121 -0.142343 1 
0.149192 0.235101 0.0211613 0.947921 0.303703 0.0959753 1 
0.144477 0.22299 0.0544453 -0.505944 0.566455 -0.650499 1 
0.145003 0.223245 0.0542492 -0.379898 0.430763 -0.818609 1 
0.144455 0.228842 0.0551517 -0.356781 0.00126071 -0.934187 1 
0.144807 0.228908 0.0551112 -0.356781 0.00126071 -0.934187 1 
0.144579 0.224092 0.0558963 -0.766034 0.110699 -0.633196 1 
0.145429 0.223609 0.0548457 -0.228002 0.295977 -0.927584 1 
0.145639 0.22405 0.0551647 -0.251817 0.173713 -0.952057 1 
0.145577 0.22424 0.0549415 -0.0796869 0.197378 -0.977083 1 
0.145872 0.22422 0.0552462 -0.142123 0.172308 -0.974736 1 
0.145235 0.22345 0.0546288 -0.313596 0.331602 -0.889774 1 
0.146682 0.223793 0.0549273 -0.242925 0.157967 -0.957097 1 
0.146168 0.224097 0.0546568 -0.0879541 0.2044 -0.974928 1 
0.146799 0.223827 0.054521 -0.153956 0.205706 -0.966428 1 
0.146913 0.224102 0.0547246 -0.400735 0.0275916 -0.915778 1 
0.147105 0.2244 0.0546573 -0.446565 0.0226615 -0.894464 1 
0.147517 0.224414 0.0545557 -0.399389 0.0355891 -0.91609 1 
0.147641 0.22393 0.0541079 -0.288147 0.0925721 -0.953101 1 
0.145109 0.22688 0.0551758 -0.492198 0.0120703 -0.870399 1 
0.145422 0.226934 0.0552707 -0.508101 0.0121297 -0.861212 1 
0.14505 0.22409 0.0545553 -0.197219 0.271693 -0.94196 1 
0.145347 0.223863 0.0545481 -0.0825563 0.252749 -0.964003 1 
0.145317 0.224651 0.054827 -0.0752958 0.163738 -0.983626 1 
0.145609 0.22477 0.0548475 -0.226135 0.0998026 -0.96897 1 
0.145579 0.225524 0.0548284 -0.605428 -0.0465714 -0.794536 1 
0.146462 0.225499 0.0545641 -0.605428 -0.0465714 -0.794536 1 
0.144359 0.227254 0.0554338 -0.912036 -0.003881 0.410093 1 
0.144773 0.227061 0.0550203 -0.541041 0.0149911 -0.840863 1 
0.145105 0.227191 0.0549054 -0.508101 0.0121297 -0.861212 1 
0.144826 0.227493 0.0547027 -0.379975 0.00383813 -0.924989 1 
0.145182 0.227282 0.0552306 -0.528668 0.00134521 -0.848828 1 
0.14569 0.227461 0.0552444 -0.560642 -0.00954864 -0.828004 1 
0.14524 0.227368 0.0548853 -0.545602 0.00406156 -0.838034 1 
0.145688 0.2276 0.0549601 -0.550533 -0.0150269 -0.834678 1 
0.145192 0.228013 0.0547779 -0.403581 -0.0116792 -0.91487 1 
0.145813 0.228502 0.0552934 -0.370724 -0.00636983 -0.928721 1 
0.145986 0.228725 0.0554359 -0.348502 0.00125813 -0.937307 1 
0.145959 0.227816 0.0552043 -0.542985 -0.0122478 -0.839653 1 
0.145877 0.22807 0.0549067 -0.802901 -0.0493876 -0.594062 1 
0.145218 0.228922 0.0550096 -0.356781 0.00126071 -0.934187 1 
0.145379 0.228656 0.0547383 -0.348502 0.00125813 -0.937307 1 
0.146005 0.228799 0.0552261 -0.348502 0.00125813 -0.937307 1 
0.14595 0.228472 0.0549614 -0.794503 -0.0379674 -0.606072 1 
0.146024 0.22884 0.0547182 -0.348502 0.00125813 -0.937307 1 
0.146453 0.228963 0.0547049 -0.35071 -0.00125702 -0.936483 1 
0.147515 0.228782 0.0542575 -0.99919 -0.0216097 -0.033958 1 
0.14694 0.223591 0.0538772 -0.125967 0.321014 -0.93866 1 
0.147054 0.223832 0.0537827 -0.215271 0.199226 -0.956017 1 
0.146984 0.224643 0.0544951 -0.514193 0.0342796 -0.856989 1 
0.146648 0.224825 0.0543396 -0.545602 -0.00406156 -0.838034 1 
0.147135 0.225068 0.054279 -0.545602 -0.00406156 -0.838034 1 
0.146971 0.224189 0.0543792 -0.400735 0.0275916 -0.915778 1 
0.147396 0.224657 0.0543935 -0.514193 0.0342796 -0.856989 1 
0.147921 0.224946 0.0544955 -0.475516 0.0395128 -0.878819 1 
0.147986 0.224514 0.0541088 -0.392326 0.0800942 -0.916332 1 
0.147666 0.224943 0.0537573 -0.475516 0.0395128 -0.878819 1 
0.14794 0.224986 0.0539876 -0.488455 0.0424149 -0.871557 1 
0.148316 0.224782 0.0537096 -0.369573 0.105008 -0.923249 1 
0.143857 0.229503 0.0554778 -0.352823 -0.0269429 -0.935302 1 
0.144381 0.22993 0.0552956 -0.342082 -0.0320302 -0.939124 1 
0.144673 0.230048 0.0553161 -0.342082 -0.0320302 -0.939124 1 
0.146274 0.23061 0.0550866 -0.342082 -0.0320302 -0.939124 1 
0.146094 0.229415 0.0547868 -0.359305 -0.00888741 -0.933178 1 
0.146465 0.229556 0.0545364 -0.359305 -0.00888741 -0.933178 1 
0.146719 0.229629 0.0543943 -0.359305 -0.00888741 -0.933178 1 
0.146559 0.229861 0.0543675 -0.342082 -0.0320302 -0.939124 1 
0.146441 0.229897 0.0538935 -0.342082 -0.0320302 -0.939124 1 
0.146654 0.23006 0.0547809 -0.342082 -0.0320302 -0.939124 1 
0.146833 0.229904 0.0545978 -0.342082 -0.0320302 -0.939124 1 
0.147244 0.229918 0.0544963 -0.342082 -0.0320302 -0.939124 1 
0.146771 0.230095 0.0543747 -0.342082 -0.0320302 -0.939124 1 
0.147123 0.230161 0.0543341 -0.342082 -0.0320302 -0.939124 1 
0.14692 0.230692 0.0541723 -0.342082 -0.0320302 -0.939124 1 
0.147241 0.230195 0.0539278 -0.346003 -0.0321564 -0.937682 1 
0.147639 0.229788 0.0540084 -0.346003 -0.0321564 -0.937682 1 
0.147517 0.230031 0.0538462 -0.346003 -0.0321564 -0.937682 1 
0.148032 0.229727 0.0541167 -0.349887 -0.0374417 -0.936044 1 
0.147791 0.230075 0.0540765 -0.340608 -0.0347035 -0.939565 1 
0.141854 0.223998 0.0616735 -0.518403 0.792758 -0.320612 1 
0.141107 0.224132 0.0613216 -0.515533 0.793251 -0.324004 1 
0.1415 0.22407 0.0614298 -0.515533 0.793251 -0.324004 1 
0.141667 0.223355 0.0617132 -0.515533 0.793251 -0.324004 1 
0.141971 0.224032 0.0612672 -0.519181 0.790752 -0.324288 1 
0.141623 0.223725 0.0606978 -0.519181 0.790752 -0.324288 1 
0.1417 0.223782 0.060725 -0.519181 0.790752 -0.324288 1 
0.142267 0.223909 0.0606778 -0.519181 0.790752 -0.324288 1 
0.141375 0.223171 0.0596201 -0.53031 0.780245 -0.331644 1 
0.14175 0.223001 0.0596402 -0.530098 0.783136 -0.325106 1 
0.142385 0.223944 0.0602714 -0.519181 0.790752 -0.324288 1 
0.142502 0.223978 0.0598651 -0.519181 0.790752 -0.324288 1 
0.141344 0.222607 0.0594161 -0.546786 0.789452 -0.278908 1 
0.141873 0.222655 0.0589082 -0.587663 0.76727 -0.256807 1 
0.142063 0.223055 0.0597351 -0.525116 0.782054 -0.335625 1 
0.142007 0.222901 0.0594842 -0.532395 0.781806 -0.324553 1 
0.142126 0.222762 0.0590641 -0.591142 0.764544 -0.25695 1 
0.142181 0.223089 0.0593287 -0.532395 0.781806 -0.324553 1 
0.14268 0.223821 0.059682 -0.560092 0.775879 -0.29036 1 
0.142711 0.222999 0.0591051 -0.57213 0.766558 -0.291643 1 
0.143157 0.223403 0.0591937 -0.566204 0.767167 -0.301444 1 
0.141648 0.223319 0.0592681 -0.548149 0.78826 -0.279603 1 
0.141058 0.222008 0.0581757 -0.697754 0.675703 -0.237835 1 
0.141508 0.222067 0.0582368 -0.620255 0.731869 -0.282224 1 
0.141506 0.222205 0.0579525 -0.658254 0.705838 -0.261715 1 
0.14168 0.222428 0.0580951 -0.617393 0.735447 -0.279183 1 
0.141703 0.222192 0.0581557 -0.627054 0.725979 -0.282414 1 
0.142169 0.222533 0.0583187 -0.613212 0.743143 -0.267785 1 
0.142107 0.222724 0.0580955 -0.598468 0.748484 -0.285669 1 
0.142173 0.223607 0.0593701 -0.571146 0.763128 -0.302371 1 
0.141866 0.223173 0.0589496 -0.584175 0.769978 -0.256659 1 
0.142277 0.223187 0.058848 -0.584175 0.769978 -0.256659 1 
0.142531 0.223294 0.0590039 -0.576046 0.766475 -0.284056 1 
0.142469 0.223485 0.0587807 -0.578325 0.775802 -0.252332 1 
0.142759 0.223776 0.058815 -0.571146 0.763128 -0.302371 1 
0.142415 0.223158 0.0585161 -0.587895 0.762204 -0.27097 1 
0.142017 0.222178 0.0576544 -0.626285 0.72239 -0.293121 1 
0.142367 0.222383 0.0573297 -0.616005 0.725374 -0.307198 1 
0.142503 0.222456 0.0578919 -0.620255 0.731869 -0.282224 1 
0.143354 0.224773 0.0616543 -0.509962 0.806782 -0.298399 1 
0.143201 0.224453 0.0612881 -0.514758 0.795245 -0.320329 1 
0.142914 0.223955 0.0609419 -0.519181 0.790752 -0.324288 1 
0.143028 0.22423 0.0611455 -0.519181 0.790752 -0.324288 1 
0.143531 0.224755 0.0611869 -0.50954 0.801613 -0.312708 1 
0.1425 0.22408 0.0607593 -0.519181 0.790752 -0.324288 1 
0.142912 0.224094 0.0606577 -0.519181 0.790752 -0.324288 1 
0.143085 0.224317 0.0608003 -0.519181 0.790752 -0.324288 1 
0.142618 0.224114 0.060353 -0.519181 0.790752 -0.324288 1 
0.143029 0.224128 0.0602514 -0.519181 0.790752 -0.324288 1 
0.142735 0.224148 0.0599466 -0.519181 0.790752 -0.324288 1 
0.143262 0.224298 0.0603329 -0.519181 0.790752 -0.324288 1 
0.143141 0.224541 0.0601707 -0.519181 0.790752 -0.324288 1 
0.143297 0.224585 0.0611054 -0.514758 0.795245 -0.320329 1 
0.143337 0.224562 0.0606719 -0.519181 0.790752 -0.324288 1 
0.143767 0.224685 0.0606586 -0.519181 0.790752 -0.324288 1 
0.143918 0.225141 0.062217 -0.484848 0.827827 -0.282178 1 
0.143447 0.225112 0.0617835 -0.497767 0.814956 -0.296776 1 
0.143776 0.225448 0.0619805 -0.488484 0.825585 -0.282478 1 
0.144151 0.225312 0.0622985 -0.486487 0.824369 -0.289389 1 
0.143795 0.225523 0.0617706 -0.492947 0.821578 -0.286379 1 
0.143585 0.225082 0.0614516 -0.505847 0.808409 -0.300987 1 
0.143633 0.224439 0.0600825 -0.519181 0.790752 -0.324288 1 
0.143985 0.224505 0.060042 -0.560092 0.775879 -0.29036 1 
0.144278 0.224624 0.0600624 -0.560092 0.775879 -0.29036 1 
0.14441 0.225008 0.0603543 -0.50954 0.801613 -0.312708 1 
0.144669 0.224701 0.0598865 -0.558352 0.779795 -0.28313 1 
0.142927 0.224446 0.0598793 -0.519181 0.790752 -0.324288 1 
0.142865 0.224637 0.0596561 -0.560092 0.775879 -0.29036 1 
0.142792 0.224235 0.0596014 -0.560092 0.775879 -0.29036 1 
0.142783 0.224891 0.0593585 -0.560092 0.775879 -0.29036 1 
0.143088 0.224112 0.0590119 -0.560092 0.775879 -0.29036 1 
0.143551 0.224694 0.0597849 -0.560092 0.775879 -0.29036 1 
0.144102 0.22454 0.0596356 -0.560092 0.775879 -0.29036 1 
0.144335 0.22471 0.0597171 -0.560092 0.775879 -0.29036 1 
0.140954 0.22101 0.0561423 -0.2504 0.840299 -0.480829 1 
0.140696 0.221215 0.055716 -0.251212 0.833778 -0.491636 1 
0.141071 0.221044 0.0557361 -0.328188 0.813336 -0.480392 1 
0.141052 0.221004 0.056244 -0.2504 0.840299 -0.480829 1 
0.141267 0.221065 0.0562372 -0.340595 0.815843 -0.467328 1 
0.140968 0.220011 0.0548811 -0.290021 0.787653 -0.543591 1 
0.140821 0.220731 0.0552683 -0.25587 0.817233 -0.516392 1 
0.141154 0.220722 0.0554376 -0.323418 0.798189 -0.508228 1 
0.141374 0.220404 0.0551052 -0.344077 0.767309 -0.541155 1 
0.141705 0.220568 0.0552883 -0.356963 0.770459 -0.528176 1 
0.14132 0.220077 0.0548406 -0.328484 0.777145 -0.536791 1 
0.141416 0.220209 0.0546579 -0.398661 0.736621 -0.546314 1 
0.142001 0.220445 0.0546989 -0.420239 0.730063 -0.538895 1 
0.142156 0.220593 0.0550513 -0.445754 0.717514 -0.535236 1 
0.140169 0.221064 0.0553297 -0.190696 0.839363 -0.509023 1 
0.140518 0.221371 0.0558991 -0.183077 0.855849 -0.483741 1 
0.140806 0.221767 0.0553511 -0.346632 0.803483 -0.484006 1 
0.140035 0.222205 0.0555347 -0.129101 0.854385 -0.503348 1 
0.140489 0.220567 0.0550851 -0.260079 0.8145 -0.518602 1 
0.140508 0.220642 0.0548753 -0.263912 0.804229 -0.532509 1 
0.140571 0.220349 0.0542044 -0.361133 0.714095 -0.599709 1 
0.141042 0.220345 0.0543398 -0.373584 0.742273 -0.556297 1 
0.140713 0.219974 0.0538448 -0.487814 0.564925 -0.665505 1 
0.14122 0.220188 0.0541567 -0.420239 0.66607 -0.616239 1 
0.140938 0.220765 0.0548619 -0.340378 0.76948 -0.54041 1 
0.141266 0.221135 0.0553569 -0.329851 0.801522 -0.49876 1 
0.141158 0.220481 0.0548276 -0.376734 0.755099 -0.536561 1 
0.140698 0.221112 0.0548218 -0.343019 0.777832 -0.526607 1 
0.141295 0.220452 0.0544957 -0.398661 0.736621 -0.546314 1 
0.141616 0.219954 0.0542511 -0.446799 0.640914 -0.62418 1 
0.142369 0.220793 0.0547603 -0.508078 0.672407 -0.538261 1 
0.14207 0.221156 0.0559597 -0.153735 0.859449 -0.487558 1 
0.141665 0.219241 0.0537624 -0.499497 0.560042 -0.660951 1 
0.142017 0.219307 0.0537218 -0.499497 0.560042 -0.660951 1 
0.140899 0.2193 0.0536203 -0.487814 0.564925 -0.665505 1 
0.141372 0.219123 0.0537419 -0.487814 0.564925 -0.665505 1 
0.141399 0.220031 0.0539736 -0.463782 0.607773 -0.644607 1 
0.141956 0.219498 0.0534986 -0.499497 0.560042 -0.660951 1 
0.141782 0.219275 0.053356 -0.499497 0.560042 -0.660951 1 
0.141668 0.219 0.0531524 -0.499232 0.579915 -0.64379 1 
0.142041 0.220422 0.0542654 -0.445474 0.685729 -0.575612 1 
0.141932 0.219802 0.0540341 -0.474595 0.605402 -0.638943 1 
0.142165 0.219939 0.0538176 -0.474595 0.605402 -0.638943 1 
0.142158 0.220457 0.0538591 -0.474729 0.622347 -0.622347 1 
0.142452 0.22047 0.0544618 -0.454756 0.704621 -0.544707 1 
0.142189 0.219668 0.0535801 -0.499497 0.560042 -0.660951 1 
0.142189 0.219668 0.0535801 -0.499497 0.560042 -0.660951 1 
0.142427 0.219459 0.053336 -0.499497 0.560042 -0.660951 1 
0.142109 0.21975 0.0532687 -0.499497 0.560042 -0.660951 1 
0.142461 0.21985 0.0535262 -0.499497 0.560042 -0.660951 1 
0.142989 0.219966 0.0536145 -0.488903 0.566187 -0.663631 1 
0.143041 0.220432 0.0535948 -0.489667 0.587263 -0.644475 1 
0.141708 0.220363 0.0534999 -0.499497 0.560042 -0.660951 1 
0.141887 0.220207 0.0533168 -0.499497 0.560042 -0.660951 1 
0.141825 0.220397 0.0530936 -0.499497 0.560042 -0.660951 1 
0.14351 0.220532 0.0531479 -0.500086 0.574173 -0.648259 1 
0.142184 0.218594 0.0525287 -0.499814 0.567129 -0.654638 1 
0.142777 0.218278 0.0522302 -0.513073 0.543353 -0.664472 1 
0.143007 0.218621 0.0523256 -0.511708 0.538552 -0.669415 1 
0.142715 0.218469 0.052007 -0.513073 0.543353 -0.664472 1 
0.143127 0.218483 0.0519054 -0.51972 0.553359 -0.650911 1 
0.142626 0.219205 0.0529293 -0.499232 0.579915 -0.64379 1 
0.142896 0.21956 0.0528891 -0.500086 0.574173 -0.648259 1 
0.142901 0.21918 0.0525635 -0.499955 0.570656 -0.651457 1 
0.143347 0.219585 0.0526521 -0.499497 0.560042 -0.660951 1 
0.143129 0.21973 0.0529707 -0.502605 0.573205 -0.647167 1 
0.143401 0.219912 0.0529167 -0.500086 0.574173 -0.648259 1 
0.143013 0.219594 0.0524828 -0.495679 0.556169 -0.667067 1 
0.143138 0.21911 0.0520351 -0.511708 0.538552 -0.669415 1 
0.143643 0.219462 0.0520627 -0.517082 0.550768 -0.655195 1 
0.143816 0.219685 0.0522052 -0.513818 0.557619 -0.65196 1 
0.143873 0.219839 0.0524561 -0.507051 0.567695 -0.648554 1 
0.143933 0.219719 0.0517989 -0.51972 0.553359 -0.650911 1 
0.144187 0.219826 0.0519548 -0.513818 0.557619 -0.65196 1 
0.143036 0.220811 0.0539205 -0.493552 0.601359 -0.62831 1 
0.143459 0.221418 0.0536505 -0.475419 0.596374 -0.646772 1 
0.143622 0.22098 0.0533654 -0.488699 0.589462 -0.643202 1 
0.143894 0.221127 0.0530134 -0.486351 0.600786 -0.634444 1 
0.14384 0.2208 0.0527488 -0.496027 0.563285 -0.660809 1 
0.144514 0.220301 0.0518675 -0.51645 0.560188 -0.647665 1 
0.144388 0.220923 0.052031 -0.507304 0.57472 -0.642136 1 
0.14481 0.220178 0.0512781 -0.551695 0.53145 -0.642801 1 
0.120303 0.216619 0.0654696 0.590753 0.580597 0.560284 2 
0.120555 0.216831 0.0650431 0.5626 0.589632 0.579495 2 
0.121244 0.216681 0.0648601 0.524468 0.59867 0.605415 2 
0.120723 0.216013 0.0644324 0.524468 0.59867 0.605415 2 
0.120284 0.21658 0.064501 0.5626 0.589632 0.579495 2 
0.120537 0.216687 0.0646569 0.5626 0.589632 0.579495 2 
0.12025 0.21619 0.0643107 0.5626 0.589632 0.579495 2 
0.120455 0.216942 0.0643592 0.5626 0.589632 0.579495 2 
0.120497 0.216781 0.06421 0.5626 0.589632 0.579495 2 
0.121356 0.217094 0.0647794 0.524474 0.602049 0.602049 2 
0.120862 0.217335 0.0645833 0.5626 0.589632 0.579495 2 
0.120347 0.216287 0.06383 0.5626 0.589632 0.579495 2 
0.12034 0.216805 0.0638714 0.5626 0.589632 0.579495 2 
0.12064 0.217757 0.0643334 0.610576 0.573366 0.546305 2 
0.120758 0.217791 0.0639271 0.610576 0.573366 0.546305 2 
0.120607 0.217333 0.0638451 0.576143 0.589659 0.566005 2 
0.120616 0.218098 0.0636905 0.647973 0.536892 0.540258 2 
0.120655 0.218112 0.0620786 0.139111 0.776331 0.614783 2 
0.121085 0.218234 0.0620652 0.647973 0.536892 0.540258 2 
0.120551 0.21853 0.0640772 0.139111 0.776331 0.614783 2 
0.120689 0.2185 0.0637453 0.649151 0.537868 0.537868 2 
0.121281 0.218255 0.0625664 0.647973 0.536892 0.540258 2 
0.121681 0.217676 0.0626332 0.535997 0.607012 0.586722 2 
0.121377 0.218353 0.0620857 0.647973 0.536892 0.540258 2 
0.126791 0.202715 0.0550248 -0.816432 0.0348902 -0.576387 1 
0.127258 0.201566 0.0549892 -0.846837 -0.0839721 -0.525181 1 
0.12725 0.200733 0.0545477 -0.894518 -0.137946 -0.425216 1 
0.126875 0.200869 0.0542296 -0.894518 -0.137946 -0.425216 1 
0.127308 0.200819 0.0542024 -0.894518 -0.137946 -0.425216 1 
0.127675 0.201201 0.054562 -0.920719 -0.0911199 -0.379439 1 
0.127382 0.201082 0.0545414 -0.920719 -0.0911199 -0.379439 1 
0.127598 0.20111 0.0542367 -0.950655 -0.0737242 -0.301364 1 
0.1275 0.201117 0.0541351 -0.920719 -0.0911199 -0.379439 1 
0.126915 0.202232 0.054577 -0.842882 -0.00134861 -0.538096 1 
0.126881 0.201875 0.0546849 -0.794415 -0.0407753 -0.606005 1 
0.126888 0.202813 0.0545441 -0.827914 0.0462287 -0.558947 1 
0.127074 0.202139 0.0543195 -0.845323 -0.0177532 -0.53396 1 
0.126848 0.20145 0.0541966 -0.831854 -0.102716 -0.545407 1 
0.127184 0.201235 0.054054 -0.824748 -0.121588 -0.552274 1 
0.127769 0.201471 0.054095 -0.832618 -0.0123047 -0.553711 1 
0.127273 0.201918 0.0542108 -0.891785 0.0226612 0.451891 1 
0.127694 0.201208 0.0537559 -0.950655 -0.0737242 -0.301364 1 
0.125987 0.204151 0.0543226 -0.701561 0.0860542 -0.707395 1 
0.125684 0.203371 0.0538744 -0.827914 0.0462287 -0.558947 1 
0.125976 0.20349 0.0538949 -0.827914 0.0462287 -0.558947 1 
0.126366 0.203635 0.054315 -0.820301 0.00682447 0.571891 1 
0.125268 0.205054 0.0544866 -0.588371 0.238782 -0.77253 1 
0.127178 0.203106 0.0531019 0.502794 -0.0626751 0.862131 1 
0.1277 0.202216 0.0527348 -0.891785 0.0226612 0.451891 1 
0.126382 0.203919 0.0529406 -0.820301 0.00682447 0.571891 1 
0.12808 0.201732 0.0545018 -0.857575 0.0455716 0.512336 1 
0.125032 0.205088 0.0561934 -0.356391 0.520879 -0.775674 1 
0.125237 0.205875 0.05654 -0.398491 0.499334 -0.769332 1 
0.125745 0.2046 0.0551767 -0.690241 0.133257 -0.711203 1 
0.126408 0.204894 0.0552448 -0.720807 0.156301 -0.675283 1 
0.126957 0.206298 0.0558904 -0.475873 0.465993 -0.745919 1 
0.126104 0.204149 0.0550947 -0.712958 0.130036 -0.689044 1 
0.126841 0.203354 0.055019 -0.820301 0.00682447 0.571891 1 
0.126935 0.203658 0.0548501 -0.820759 0.0908749 -0.564001 1 
0.127228 0.203776 0.0548706 -0.820301 0.00682447 0.571891 1 
0.126775 0.20389 0.0548234 -0.789225 0.106889 -0.604731 1 
0.127052 0.203692 0.0544438 -0.820301 0.00682447 0.571891 1 
0.128066 0.20412 0.0550675 -0.852975 0.0837363 -0.515191 1 
0.127889 0.204174 0.0543565 -0.820301 0.00682447 0.571891 1 
0.126214 0.2047 0.0547298 -0.681343 0.130279 -0.720277 1 
0.126041 0.204478 0.0545873 -0.685658 0.117499 -0.718379 1 
0.126447 0.204871 0.0548114 -0.677056 0.127041 -0.724883 1 
0.127129 0.205239 0.0546696 -0.698444 0.156051 -0.698444 1 
0.127423 0.203833 0.0541934 -0.820301 0.00682447 0.571891 1 
0.127185 0.203974 0.0538414 -0.820301 0.00682447 0.571891 1 
0.127781 0.204906 0.0546082 -0.784821 0.122674 -0.60746 1 
0.128053 0.205087 0.0545543 -0.748532 0.149104 -0.646117 1 
0.127991 0.205278 0.054331 -0.764169 0.142625 -0.62905 1 
0.1257 0.205005 0.0544594 -0.63242 0.165309 -0.756781 1 
0.125933 0.205175 0.0545409 -0.605415 0.222556 -0.764161 1 
0.127651 0.207225 0.0552821 -0.581111 0.40893 -0.703624 1 
0.127825 0.207345 0.0545305 -0.586142 0.382552 -0.714207 1 
0.126633 0.204233 0.0534084 -0.820301 0.00682447 0.571891 1 
0.127637 0.205351 0.0540873 -0.714418 0.146508 -0.68421 1 
0.128124 0.205628 0.0543248 -0.666524 0.244234 -0.704341 1 
0.128204 0.205478 0.0540401 -0.672725 0.227378 -0.704088 1 
0.128535 0.205642 0.0542232 -0.622507 0.264526 -0.736554 1 
0.128396 0.205776 0.0539728 -0.604738 0.274592 -0.74759 1 
0.128474 0.205833 0.054 -0.580443 0.287836 -0.761732 1 
0.128622 0.206464 0.0540957 -0.571468 0.359813 -0.737536 1 
0.127677 0.206714 0.0544348 -0.571468 0.359813 -0.737536 1 
0.128219 0.20583 0.0532617 -0.491295 0.240291 -0.837191 1 
0.128644 0.206333 0.053574 -0.497269 0.365307 -0.78694 1 
0.128656 0.206855 0.054286 -0.564979 0.356572 -0.74408 1 
0.127217 0.203115 0.0544429 -0.820301 0.00682447 0.571891 1 
0.127625 0.203406 0.0537729 -0.849007 0.0543699 0.525576 1 
0.128007 0.204104 0.0545325 -0.820301 0.00682447 0.571891 1 
0.127935 0.203668 0.0541796 -0.820301 0.00682447 0.571891 1 
0.127426 0.203627 0.0538816 -0.820301 0.00682447 0.571891 1 
0.127814 0.203911 0.0540174 -0.820301 0.00682447 0.571891 1 
0.128363 0.203929 0.053882 -0.849007 0.0543699 0.525576 1 
0.127509 0.20327 0.053285 0.501732 -0.0684815 0.862308 1 
0.127672 0.202866 0.0532979 0.322963 -0.0163367 0.94627 1 
0.128136 0.204731 0.0539577 -0.873208 0.0798922 -0.480755 1 
0.12691 0.204069 0.0533269 -0.820301 0.00682447 0.571891 1 
0.126944 0.204426 0.053219 -0.820301 0.00682447 0.571891 1 
0.127666 0.204667 0.0532261 -0.820301 0.00682447 0.571891 1 
0.127832 0.204056 0.0529272 -0.887078 0.0761143 0.455302 1 
0.127309 0.214932 0.0522867 0.798088 -0.582469 0.154227 1 
0.127571 0.214419 0.0515071 0.769522 -0.622518 0.142504 1 
0.128304 0.215285 0.0531203 0.943055 -0.210639 0.257447 1 
0.127502 0.215091 0.0525037 0.897217 -0.396986 0.193403 1 
0.128719 0.216512 0.0537859 0.913393 0.254124 0.318017 1 
0.128953 0.21658 0.0529732 0.967263 -0.0817583 0.240244 1 
0.129007 0.216907 0.0532379 0.969245 -0.0229336 0.245027 1 
0.127857 0.215019 0.0527474 0.897217 -0.396986 0.193403 1 
0.127501 0.21523 0.0522194 0.832768 -0.519539 0.191251 1 
0.12809 0.215189 0.0528289 0.91341 -0.349541 0.208574 1 
0.128168 0.215212 0.052558 0.911397 -0.372261 0.175433 1 
0.1286 0.215162 0.0525308 0.908864 -0.388705 0.151242 1 
0.128846 0.215787 0.0527282 0.956532 -0.233463 0.174764 1 
0.128047 0.215421 0.0520978 0.826321 -0.521967 0.211526 1 
0.129599 0.216662 0.052059 0.707051 0.707051 -0.0125512 1 
0.129454 0.215823 0.0516513 0.642039 -0.70026 0.312125 1 
0.129876 0.216464 0.0516794 0.812652 0.562146 -0.153584 1 
0.129602 0.216421 0.0514491 0.84147 0.487167 -0.233657 1 
0.12956 0.216653 0.0507179 0.84147 0.487167 -0.233657 1 
0.129655 0.216887 0.0514294 0.814786 0.575896 -0.0668324 1 
0.12989 0.216919 0.0517952 0.823527 0.565385 -0.0462971 1 
0.129943 0.217282 0.0508814 0.853363 0.518163 -0.0572633 1 
0.130061 0.21728 0.0516535 0.823527 0.565385 -0.0462971 1 
0.128122 0.212811 0.0499807 0.681656 -0.434993 0.588324 1 
0.128464 0.213635 0.0505915 0.722908 -0.609701 0.325066 1 
0.127898 0.211984 0.050142 0.581376 -0.520711 0.62519 1 
0.128132 0.212154 0.0502235 0.645738 -0.478014 0.595421 1 
0.128456 0.212768 0.0498519 0.681656 -0.434993 0.588324 1 
0.12879 0.212793 0.0503193 0.707278 -0.524218 0.474292 1 
0.128322 0.213942 0.0503549 0.747822 -0.562894 0.352012 1 
0.128677 0.21387 0.0505986 0.666027 -0.659481 0.348559 1 
0.128983 0.212988 0.0493579 0.660886 -0.431157 0.614274 1 
0.129166 0.213906 0.0502261 0.722908 -0.609701 0.325066 1 
0.128906 0.214317 0.0501116 0.732298 -0.575726 0.363702 1 
0.129687 0.214574 0.0506539 0.666027 -0.659481 0.348559 1 
0.129478 0.215519 0.0511158 0.666027 -0.659481 0.348559 1 
0.130208 0.21514 0.0501873 0.662561 -0.649408 0.373204 1 
0.129766 0.215949 0.0508659 0.594789 -0.71604 0.365394 1 
0.129844 0.215971 0.050595 0.594789 -0.71604 0.365394 1 
0.130031 0.216614 0.0505553 0.871454 0.433477 -0.229488 1 
0.13066 0.216517 0.0504332 0.849262 0.504847 -0.154545 1 
0.129991 0.215251 0.0502078 0.666027 -0.659481 0.348559 1 
0.130119 0.215912 0.0499311 0.766417 -0.526608 0.367816 1 
0.130241 0.215635 0.0497952 0.773077 -0.52453 0.35668 1 
0.130531 0.215926 0.0498295 0.761875 -0.527952 0.375252 1 
0.129638 0.213868 0.0500635 0.769112 -0.536927 0.346665 1 
0.129579 0.213818 0.0492304 0.660152 -0.442887 0.606672 1 
0.129871 0.214038 0.0501451 0.721245 -0.607791 0.332259 1 
0.130202 0.214168 0.0500301 0.762773 -0.549906 0.340265 1 
0.130141 0.214359 0.0498069 0.782271 -0.501621 0.369361 1 
0.130327 0.213684 0.0495823 0.691357 -0.454796 0.561415 1 
0.12938 0.214038 0.0493391 0.687186 -0.440931 0.577369 1 
0.129818 0.213609 0.0489862 0.646945 -0.414111 0.640292 1 
0.12426 0.215542 0.0586204 -0.438291 -0.003925 -0.898824 1 
0.12443 0.21462 0.0585919 -0.429874 -0.00653303 -0.902865 1 
0.124425 0.214931 0.0583215 -0.413957 -0.0143644 -0.910183 1 
0.124604 0.214774 0.0581383 -0.437198 -0.00656453 -0.899341 1 
0.124897 0.214892 0.0581588 -0.434129 -0.00130369 -0.90085 1 
0.124191 0.216251 0.0584386 -0.448721 -0.0199728 -0.893448 1 
0.124357 0.21564 0.0581397 -0.426413 -0.0198025 -0.904312 1 
0.124418 0.215449 0.0583629 -0.426413 -0.0198025 -0.904312 1 
0.124657 0.21524 0.0581187 -0.446636 -0.0145786 -0.894597 1 
0.124856 0.21502 0.05801 -0.45089 -0.00131455 -0.892578 1 
0.124474 0.215674 0.0577333 -0.454057 -0.0173101 -0.890804 1 
0.124595 0.215431 0.0578955 -0.447656 -0.0199253 -0.893984 1 
0.124774 0.215274 0.0577124 -0.450893 -0.00925587 -0.89253 1 
0.124253 0.21606 0.0586618 -0.449831 -0.00923407 -0.893066 1 
0.12602 0.210291 0.0579486 -0.752917 -0.0266395 0.657576 1 
0.124757 0.210797 0.0579224 -0.461432 -0.00396647 -0.887167 1 
0.124861 0.210411 0.0576983 -0.837727 -0.0575324 0.543049 1 
0.123772 0.212525 0.0585955 -0.68747 -0.00414972 -0.726201 1 
0.123938 0.21188 0.0579985 -0.844477 -0.0429865 -0.533864 1 
0.124075 0.211885 0.0579646 -0.945268 -0.0475849 -0.322806 1 
0.124603 0.212035 0.0583509 -0.970813 -0.0914443 -0.221721 1 
0.123418 0.212598 0.0583518 -0.852411 0.0231856 0.522358 1 
0.123631 0.212832 0.0583589 -0.858676 0.0483956 0.510228 1 
0.124042 0.212845 0.0582573 -0.899023 -0.0307244 -0.436821 1 
0.124221 0.212689 0.0580742 -0.746223 0.0097273 -0.665625 1 
0.124095 0.213311 0.0582377 -0.485056 0.0229692 -0.874182 1 
0.124274 0.213154 0.0580546 -0.859319 0.0371226 0.510092 1 
0.124626 0.21322 0.0580141 -0.437189 0.00919016 -0.899323 1 
0.124884 0.212948 0.0578443 -0.799835 0.00136724 -0.600218 1 
0.125209 0.213596 0.0577708 -0.480863 0.0395043 -0.875906 1 
0.12547 0.213185 0.0578853 -0.490353 0.0202625 -0.871288 1 
0.125908 0.214107 0.0580154 -0.460291 0.0448071 -0.886637 1 
0.124828 0.211371 0.0579909 -0.969676 -0.0682871 0.234659 1 
0.125009 0.211042 0.057794 -0.99894 -0.0460106 0.00102246 1 
0.125155 0.211846 0.0579036 -0.942718 -0.0504335 -0.329757 1 
0.125333 0.21169 0.0577205 -0.929239 -0.056677 -0.365105 1 
0.124381 0.213913 0.0580016 -0.426389 0.0224415 -0.904262 1 
0.124811 0.214036 0.0579882 -0.431745 0.0198048 -0.901778 1 
0.12503 0.213752 0.0579539 -0.492818 0.0453008 -0.868952 1 
0.125154 0.214759 0.0577048 -0.463655 0.0255346 -0.885648 1 
0.125042 0.214345 0.0577855 -0.482047 0.0566301 -0.874314 1 
0.125373 0.214475 0.0576705 -0.487516 0.0538615 -0.871451 1 
0.125282 0.213998 0.0578256 -0.497359 0.0892696 -0.86294 1 
0.125675 0.213936 0.0579338 -0.464572 0.0534464 -0.883921 1 
0.125613 0.214127 0.0577106 -0.471113 0.0477941 -0.880777 1 
0.125813 0.213907 0.057602 -0.464572 0.0534464 -0.883921 1 
0.125552 0.214318 0.0574874 -0.466869 0.0255634 -0.883957 1 
0.12579 0.214109 0.0572433 -0.458253 0.0309085 -0.888284 1 
0.125092 0.214949 0.0574816 -0.463655 0.0255346 -0.885648 1 
0.125312 0.214665 0.0574473 -0.477631 0.0479 -0.877254 1 
0.124911 0.215244 0.0573805 -0.438211 -0.0118436 -0.898794 1 
0.125902 0.214523 0.0571626 -0.458253 0.0309085 -0.888284 1 
0.12604 0.214493 0.0568307 -0.474392 0.0283824 -0.879856 1 
0.126318 0.211418 0.0569479 -0.77577 0.0949624 0.62383 1 
0.12698 0.211745 0.0573142 -0.471124 -0.053568 -0.880439 1 
0.125687 0.214493 0.0589439 -0.136709 -0.235661 -0.962172 1 
0.126381 0.21393 0.058137 -0.406134 0.0249726 -0.913472 1 
0.126277 0.214387 0.0574807 -0.460443 0.01735 -0.88752 1 
0.126101 0.214302 0.0570539 -0.47539 0.0255875 -0.879403 1 
0.125504 0.214963 0.0573801 -0.482047 0.0566301 -0.874314 1 
0.125419 0.215424 0.0573943 -0.455088 0.0226877 -0.890157 1 
0.12573 0.215651 0.057503 -0.441734 0.0844695 -0.893161 1 
0.125854 0.215168 0.0570552 -0.459354 0.017309 -0.888085 1 
0.126188 0.215125 0.0569265 -0.501454 0.00401163 -0.865175 1 
0.12723 0.216356 0.0583641 -0.479317 0.877641 -0.00132775 1 
0.126846 0.214375 0.0577177 -0.29339 0.228192 -0.928359 1 
0.127237 0.214453 0.0575417 -0.408585 0.593854 -0.693106 1 
0.126435 0.214259 0.0569251 -0.490353 0.0202625 -0.871288 1 
0.126198 0.2144 0.0565732 -0.539109 0.0150132 -0.842102 1 
0.126739 0.215005 0.0570752 -0.510532 0.184151 -0.839908 1 
0.126677 0.215195 0.0568521 -0.568741 0.115503 -0.814367 1 
0.12713 0.215082 0.0568992 -0.53602 0.401605 -0.74256 1 
0.127069 0.215273 0.0566761 -0.608722 0.215299 -0.763613 1 
0.127464 0.215039 0.0567705 -0.553285 0.573589 -0.604045 1 
0.127609 0.215877 0.0571781 -0.289693 0.822102 -0.490129 1 
0.128369 0.214812 0.0568649 -0.35751 0.874759 -0.327084 1 
0.128503 0.215094 0.0562626 -0.54383 0.725658 -0.42151 1 
0.12879 0.215592 0.0566088 -0.439194 0.839314 -0.320408 1 
0.128285 0.212398 0.0558996 -0.655659 0.0324304 -0.75436 1 
0.128048 0.212504 0.0552495 -0.600886 -0.267941 -0.753089 1 
0.129156 0.21327 0.0560024 -0.718221 -0.203212 -0.665479 1 
0.12841 0.213265 0.0559347 -0.708662 -0.0891307 -0.699895 1 
0.12806 0.213097 0.0550811 -0.72175 -0.146158 -0.676546 1 
0.128094 0.213454 0.0549733 -0.736317 -0.258107 -0.625474 1 
0.128567 0.213311 0.055393 -0.737692 -0.282012 -0.613416 1 
0.12927 0.214897 0.056689 -0.230054 0.948803 -0.216442 1 
0.129777 0.213725 0.0562198 -0.578117 -0.625311 -0.524182 1 
0.129423 0.213797 0.0559761 -0.763838 -0.145564 -0.628778 1 
0.129037 0.214726 0.0566074 -0.404976 0.872139 -0.274534 1 
0.128683 0.214799 0.0563637 -0.552271 0.723722 -0.413791 1 
0.128898 0.21486 0.0563571 -0.465545 0.8151 -0.344789 1 
0.129388 0.214931 0.0562826 -0.42533 0.852207 -0.304691 1 
0.128368 0.212041 0.055303 -0.740499 0.0707299 -0.668325 1 
0.128574 0.212793 0.0553515 -0.718317 -0.251016 -0.648854 1 
0.128848 0.212802 0.0552838 -0.777079 -0.224903 -0.58785 1 
0.128745 0.213154 0.0552099 -0.734206 -0.377732 -0.564145 1 
0.124368 0.216232 0.0579712 -0.458234 -0.0364965 -0.888082 1 
0.125363 0.216621 0.0576264 -0.391645 0.0195172 -0.91991 1 
0.125887 0.217049 0.0574441 -0.360053 0.242485 -0.900868 1 
0.125469 0.216063 0.0573885 -0.607381 0.762721 -0.222137 1 
0.125648 0.215906 0.0572053 -0.442421 -0.0118859 -0.896729 1 
0.126423 0.216579 0.0568948 -0.477764 0.451495 -0.753587 1 
0.125906 0.215633 0.0570356 -0.449422 0.0475219 -0.892055 1 
0.12636 0.215486 0.0567848 -0.532552 0.0720429 -0.843325 1 
0.126238 0.215763 0.0569206 -0.482854 0.128281 -0.866254 1 
0.12649 0.216008 0.0567923 -0.507138 0.301755 -0.807313 1 
0.127052 0.216447 0.0564746 -0.493726 0.681175 -0.540588 1 
0.12653 0.217371 0.0571398 -0.408982 0.767452 -0.493711 1 
0.126791 0.216926 0.0569563 -0.395644 0.740397 -0.543395 1 
0.127266 0.218033 0.0569647 -0.430565 0.76454 -0.479679 1 
0.126969 0.21677 0.0567731 -0.444292 0.731678 -0.516964 1 
0.127157 0.217379 0.0564354 -0.430211 0.780874 -0.452939 1 
0.127706 0.217363 0.0560019 -0.439667 0.80042 -0.407457 1 
0.128496 0.215612 0.056304 -0.447255 0.823392 -0.34927 1 
0.128529 0.216003 0.0564942 -0.334093 0.881342 -0.334093 1 
0.127988 0.216888 0.0561908 -0.40551 0.809416 -0.424743 1 
0.127926 0.217079 0.0559676 -0.436799 0.811198 -0.388799 1 
0.12721 0.21781 0.0561178 -0.440486 0.778572 -0.446988 1 
0.127865 0.21727 0.0557444 -0.408741 0.822253 -0.396018 1 
0.128056 0.214794 0.0555916 -0.729579 -0.206017 -0.652129 1 
0.128326 0.215148 0.0555515 -0.776331 -0.139111 -0.614783 1 
0.129475 0.215721 0.0543807 0.909931 0.194061 0.36656 1 
0.129379 0.215521 0.0539672 0.952238 0.0549614 0.30037 1 
0.12937 0.21479 0.0544199 0.930809 0.121291 0.344795 1 
0.129309 0.214981 0.0541967 0.9412 0.0667611 0.331187 1 
0.129836 0.215097 0.0542849 0.953331 0.0735316 0.292836 1 
0.129953 0.215165 0.0541766 0.968919 0.0059736 0.247307 1 
0.129599 0.215237 0.0539329 0.962379 -0.0036225 0.271688 1 
0.129892 0.215356 0.0539534 0.969464 -0.0353641 0.242671 1 
0.130253 0.214731 0.0538576 0.95387 -0.25481 0.158756 1 
0.13051 0.214631 0.0537017 0.94429 -0.302226 0.130293 1 
0.13021 0.215031 0.0537226 0.959733 -0.238288 0.148765 1 
0.127539 0.181266 0.0749248 0.818393 -0.172688 -0.548098 0 
0.127307 0.181061 0.0745452 0.818393 -0.172688 -0.548098 0 
0.127576 0.181416 0.0745051 0.81294 -0.128359 -0.568025 0 
0.127574 0.181554 0.0742209 0.803412 -0.147566 -0.576847 0 
0.127078 0.18197 0.0725622 0.800282 -0.138082 -0.583508 0 
0.126624 0.182222 0.0722307 0.797798 -0.141665 -0.586046 0 
0.127071 0.182488 0.0726037 0.800965 -0.147664 -0.580215 0 
0.126907 0.181609 0.0727039 0.813937 -0.128052 -0.566665 0 
0.127612 0.181634 0.0746816 0.8062 -0.141048 -0.574584 0 
0.128139 0.181855 0.0741875 0.788396 -0.151672 -0.596177 0 
0.127803 0.182002 0.0737339 0.793912 -0.141504 -0.591338 0 
0.128195 0.182079 0.0735579 0.78336 -0.148284 -0.603622 0 
0.128665 0.182109 0.0739914 0.78537 -0.15828 -0.598449 0 
0.128242 0.182924 0.073864 0.760582 -0.195139 -0.619222 0 
0.128542 0.182491 0.073545 0.784863 -0.164836 -0.597343 0 
0.127658 0.182586 0.0729288 0.787934 -0.158189 -0.595093 0 
0.127871 0.18282 0.0729359 0.763988 -0.202187 -0.612734 0 
0.12846 0.182745 0.0732474 0.760582 -0.195139 -0.619222 0 
0.128254 0.183483 0.0733975 0.730842 0.101465 0.674963 0 
0.128399 0.182936 0.0730241 0.762543 -0.201804 -0.614656 0 
0.127307 0.183837 0.0731542 0.738525 0.113961 0.664525 0 
0.12776 0.183724 0.0732014 0.731926 0.107941 0.67278 0 
0.127874 0.183999 0.0734051 0.741563 0.111012 0.661634 0 
0.127421 0.184112 0.0733578 0.741563 0.111012 0.661634 0 
0.127184 0.184253 0.0730059 0.739574 0.120534 0.662194 0 
0.127654 0.184283 0.0734394 0.745992 0.104468 0.657709 0 
0.128328 0.183747 0.0737365 0.730842 0.101465 0.674963 0 
0.128226 0.184065 0.0733645 0.751462 0.104411 0.651463 0 
0.128537 0.184292 0.0734732 0.757356 0.0952188 0.646023 0 
0.128006 0.184349 0.0733988 0.749853 0.110925 0.652239 0 
0.127924 0.184603 0.0731012 0.754452 0.098152 0.648975 0 
0.12853 0.18481 0.0735146 0.77976 0.0824606 0.620625 0 
0.128475 0.184483 0.07325 0.758352 0.101211 0.643939 0 
0.128113 0.182334 0.0732603 0.776657 -0.168049 -0.607094 0 
0.128209 0.182432 0.0727796 0.783302 -0.168175 -0.598461 0 
0.127894 0.182515 0.0724004 0.787934 -0.158189 -0.595093 0 
0.127897 0.190838 0.0711804 0.693337 0.226939 0.683946 0 
0.127949 0.191304 0.0711608 0.738844 0.213098 0.639295 0 
0.128302 0.19137 0.0711202 0.968709 0.105377 0.22472 0 
0.127412 0.184803 0.0734131 0.758352 0.101211 0.643939 0 
