0.154696 0.203035 0.0707926 0.424916 0.838856 0.340246 2 
0.155054 0.20238 0.0706097 0.785614 0.448691 0.426013 2 
0.154856 0.202381 0.0703843 0.717184 0.477568 0.50752 2 
0.154435 0.202342 0.070355 0.39201 0.84493 0.363898 2 
0.144166 0.20812 0.0711357 0.597929 0.493502 -0.631615 2 
0.144269 0.208417 0.0713125 0.550051 0.523137 -0.650978 2 
0.144305 0.208714 0.0714142 0.391107 0.531839 -0.751121 2 
0.144107 0.208714 0.0711887 0.524105 0.547698 -0.652182 2 
0.144071 0.208417 0.0710871 0.571168 0.523992 -0.631823 2 
0.144191 0.20816 0.0707141 0.64487 0.496701 -0.580888 2 
0.143909 0.208715 0.0709633 0.586575 0.532481 -0.610241 2 
0.144226 0.209151 0.0709529 0.496027 0.563285 -0.660809 2 
0.143766 0.208458 0.0702898 0.675381 0.504441 -0.537959 2 
0.143698 0.209152 0.0703517 0.622499 0.544897 -0.561767 2 
0.144113 0.208484 0.0703845 0.653787 0.509248 -0.559669 2 
0.144217 0.2082 0.0702926 0.666924 0.492213 -0.55941 2 
0.144008 0.208881 0.0703447 0.633125 0.528449 -0.565592 2 
0.144251 0.209191 0.0705312 0.563315 0.556548 -0.610681 2 
0.144298 0.209389 0.0706241 0.496027 0.563285 -0.660809 2 
0.1441 0.209389 0.0703987 0.563315 0.556548 -0.610681 2 
0.144019 0.2082 0.0700671 0.692835 0.48248 -0.535904 2 
0.144206 0.207943 0.0697693 0.688093 0.483841 -0.540764 2 
0.134781 0.212891 0.0615561 0.113679 -0.621545 -0.775086 2 
0.134826 0.213201 0.0615173 0.196638 -0.553331 -0.809418 2 
0.13502 0.213538 0.0613476 0.202837 -0.541408 -0.815925 2 
0.134786 0.213242 0.0610205 0.170901 -0.579249 -0.797034 2 
0.134683 0.212945 0.0608438 0.0889478 -0.637217 -0.765535 2 
0.134756 0.213539 0.0610471 0.157254 -0.564617 -0.810234 2 
0.134783 0.213935 0.0611576 0.15044 -0.555584 -0.817737 2 
0.134163 0.213541 0.0603708 0.220952 -0.501332 -0.836569 2 
0.134877 0.213282 0.0606741 0.156644 -0.547508 -0.822008 2 
0.135233 0.212852 0.0602278 0.389264 -0.519561 -0.760612 2 
0.135026 0.213308 0.0605433 0.156644 -0.547508 -0.822008 2 
0.134744 0.213863 0.0607925 0.15044 -0.555584 -0.817737 2 
0.134848 0.213579 0.0607006 0.157254 -0.564617 -0.810234 2 
0.134621 0.213877 0.0605017 0.195659 -0.532374 -0.823587 2 
0.135324 0.213361 0.0602818 0.175742 -0.542248 -0.821634 2 
0.134415 0.213283 0.0601481 0.267699 -0.527571 -0.806229 2 
0.13451 0.213567 0.0604655 0.209181 -0.532878 -0.81993 2 
0.134348 0.213864 0.0603417 0.229583 -0.485014 -0.843833 2 
0.135045 0.21416 0.0611948 0.166431 -0.556271 -0.814164 2 
0.134912 0.214272 0.0609128 0.186686 -0.566128 -0.8029 2 
0.134872 0.2142 0.0605478 0.180631 -0.572252 -0.799938 2 
0.134909 0.214497 0.0606494 0.186686 -0.566128 -0.8029 2 
0.13472 0.214511 0.0602835 0.180631 -0.572252 -0.799938 2 
0.134384 0.214274 0.0603116 0.16955 -0.482113 -0.859546 2 
0.136689 0.201226 0.0598503 -0.402335 0.15212 -0.902766 2 
0.137708 0.204871 0.0608283 0.158777 0.146275 -0.976419 2 
0.139319 0.205014 0.0610107 -0.833209 -0.407942 -0.37329 2 
0.135786 0.202324 0.0601135 0.124734 0.261285 -0.957169 2 
0.135436 0.202636 0.0596238 -0.29833 -0.377078 -0.876819 2 
0.135338 0.203627 0.0597122 -0.353034 -0.934959 0.0349155 2 
0.134987 0.204408 0.0596229 -0.397377 -0.906472 -0.142829 2 
0.137041 0.203009 0.0606105 -0.0253165 0.239904 -0.970466 2 
0.137975 0.203127 0.0603227 -0.539318 -0.00405502 -0.842093 2 
0.137547 0.202493 0.0601652 -0.440945 0.142194 -0.886199 2 
0.137021 0.202739 0.0602278 -0.672407 -0.538261 -0.508078 2 
0.13688 0.203307 0.0604868 0.0784498 0.28422 -0.955544 2 
0.137366 0.203927 0.0608599 0.118758 0.155488 -0.980673 2 
0.137102 0.203928 0.0605594 0.108497 0.233588 -0.966263 2 
0.137118 0.204536 0.060547 0.151594 0.17962 -0.971986 2 
0.137261 0.203386 0.0600194 -0.578388 -0.235408 -0.781057 2 
0.137074 0.203644 0.0603172 0.0398719 0.338268 -0.940205 2 
0.136979 0.203941 0.0602686 -0.0610105 0.0787589 -0.995025 2 
0.137098 0.204265 0.0601643 -0.320242 -0.247789 -0.914355 2 
0.136986 0.204536 0.0603967 0.00538857 0.102383 -0.99473 2 
0.136975 0.204279 0.0598735 -0.335079 -0.18804 -0.923235 2 
0.136871 0.204563 0.0599654 -0.264098 -0.208789 -0.941626 2 
0.136748 0.204577 0.0596746 -0.264098 -0.208789 -0.941626 2 
0.137935 0.203167 0.0598259 -0.611864 -0.168528 -0.772801 2 
0.137696 0.203789 0.0593725 -0.626258 -0.307494 -0.716413 2 
0.137451 0.20406 0.0594547 -0.608035 -0.350476 -0.712362 2 
0.137662 0.204424 0.059004 -0.605677 -0.387832 -0.694796 2 
0.136561 0.202159 0.0594332 -0.597735 -0.80116 -0.0292597 2 
0.13601 0.202364 0.0599174 0.130268 0.223132 -0.966045 2 
0.136531 0.202456 0.0594597 -0.672407 -0.538261 -0.508078 2 
0.136341 0.203051 0.0593624 -0.416209 -0.896781 0.150179 2 
0.136771 0.202635 0.0588508 -0.574226 -0.112507 -0.81093 2 
0.136732 0.202563 0.0584857 -0.633448 -0.22679 -0.739804 2 
0.135561 0.203667 0.0595161 -0.141134 -0.136225 -0.980573 2 
0.136363 0.203429 0.0585458 -0.506028 -0.25224 -0.82481 2 
0.136997 0.204656 0.0590568 -0.597349 -0.424301 -0.680546 2 
0.137461 0.204762 0.0583835 -0.602446 -0.419886 -0.678789 2 
0.13751 0.204872 0.0606028 0.0326119 0.0473399 -0.998346 2 
0.137293 0.205071 0.0603951 0.0326119 0.0473399 -0.998346 2 
0.137059 0.20513 0.0606001 0.151594 0.17962 -0.971986 2 
0.137274 0.205625 0.0609448 0.214508 0.190526 -0.957959 2 
0.137159 0.205652 0.0605135 0.195878 0.233703 -0.952373 2 
0.136569 0.205317 0.0602323 -0.33625 -0.45307 -0.825629 2 
0.13654 0.205614 0.0602588 0.169611 0.307506 -0.936308 2 
0.136963 0.205072 0.0600194 -0.214508 -0.190526 -0.957959 2 
0.137057 0.205355 0.0603367 0.0195123 0.0338898 -0.999235 2 
0.136541 0.205033 0.0599901 0.00538857 0.102383 -0.99473 2 
0.136869 0.205725 0.0605029 0.169611 0.307506 -0.936308 2 
0.136203 0.20502 0.0597549 -0.098447 -0.098447 -0.990261 2 
0.13609 0.205291 0.0599873 -0.145995 -0.277257 -0.949639 2 
0.136042 0.205318 0.0596311 -0.218222 -0.468049 -0.856335 2 
0.136051 0.205688 0.0600227 -0.144905 -0.381255 -0.913043 2 
0.136012 0.205615 0.0596577 -0.338526 -0.812144 -0.475208 2 
0.136369 0.205073 0.0593431 -0.424713 -0.779454 -0.460512 2 
0.136067 0.205358 0.0592096 -0.368641 -0.758394 -0.537534 2 
0.134993 0.204646 0.059219 -0.265738 -0.564497 -0.78149 2 
0.134907 0.204957 0.0590298 -0.391703 -0.552317 0.735877 2 
0.135458 0.205689 0.0593464 -0.43316 -0.858667 -0.273977 2 
0.136196 0.205114 0.058696 -0.439691 -0.769868 -0.462575 2 
0.13568 0.205373 0.0586181 -0.497767 -0.814956 -0.296776 2 
0.136618 0.205153 0.0587253 -0.464894 -0.632726 -0.619299 2 
0.136391 0.205451 0.0585264 -0.410146 -0.672506 -0.616049 2 
0.135064 0.204997 0.0587585 -0.443975 -0.862189 -0.243959 2 
0.115911 0.220025 0.00708002 -0.912283 -0.373142 -0.168836 1 
0.116154 0.219866 0.00686616 -0.914231 -0.376116 -0.150728 1 
0.115481 0.219972 0.00719129 -0.913509 -0.380278 -0.144534 1 
0.115029 0.220343 0.00705682 -0.909 -0.371929 -0.188118 1 
0.115372 0.220706 0.00675642 -0.923464 -0.329506 -0.196572 1 
0.115017 0.220667 0.00680223 -0.91162 -0.355719 -0.205943 1 
0.114864 0.220978 0.006538 -0.923356 -0.320116 -0.211988 1 
0.115444 0.220945 0.00642764 -0.929851 -0.308075 -0.201163 1 
0.115021 0.221018 0.0062667 -0.929851 -0.308075 -0.201163 1 
0.117813 0.219293 0.00833555 -0.941124 -0.30372 0.148455 1 
0.117624 0.219307 0.00796956 -0.934689 -0.35541 -0.00632401 1 
0.117351 0.219294 0.00780952 -0.919439 -0.377946 -0.108574 1 
0.117611 0.219631 0.00771504 -0.911905 -0.365048 -0.187535 1 
0.117536 0.219731 0.00764875 -0.902533 -0.371803 -0.217249 1 
0.117413 0.219632 0.00748962 -0.902533 -0.371803 -0.217249 1 
0.117588 0.220167 0.00733765 -0.906217 -0.366837 -0.210242 1 
0.117228 0.219308 0.0075187 -0.91838 -0.377019 -0.120149 1 
0.117253 0.219348 0.00709714 -0.911805 -0.37411 -0.169274 1 
0.117393 0.219943 0.00737562 -0.907896 -0.368066 -0.200632 1 
0.11729 0.219646 0.00719881 -0.902533 -0.371803 -0.217249 1 
0.117344 0.219969 0.00701941 -0.906217 -0.366837 -0.210242 1 
0.11738 0.220267 0.00712109 -0.892936 -0.361037 -0.268921 1 
0.117175 0.219673 0.00676746 -0.905439 -0.374017 -0.200727 1 
0.117165 0.219772 0.00677628 -0.906217 -0.366837 -0.210242 1 
0.117126 0.220168 0.00681166 -0.908593 -0.359681 -0.212342 1 
0.117594 0.220874 0.00733415 -0.910515 -0.327785 -0.252031 1 
0.117285 0.220564 0.0070725 -0.905014 -0.352356 -0.238316 1 
0.117029 0.22116 0.00690005 -0.929851 -0.308075 -0.201163 1 
0.117058 0.220862 0.00687352 -0.929851 -0.308075 -0.201163 1 
0.117162 0.220578 0.00678159 -0.923356 -0.320116 -0.211988 1 
0.117043 0.219673 0.00661713 -0.905439 -0.374017 -0.200727 1 
0.116546 0.219733 0.00652158 -0.91731 -0.364951 -0.159226 1 
0.11689 0.219516 0.00595248 -0.912647 -0.374963 -0.16272 1 
0.117022 0.219984 0.00650313 -0.908593 -0.359681 -0.212342 1 
0.117059 0.220281 0.0066048 -0.906217 -0.366837 -0.210242 1 
0.116944 0.220308 0.00617347 -0.923464 -0.329506 -0.196572 1 
0.116842 0.220011 0.00599666 -0.912361 -0.362366 -0.190493 1 
0.116812 0.220309 0.00602317 -0.923464 -0.329506 -0.196572 1 
0.116897 0.22116 0.0067498 -0.929851 -0.308075 -0.201163 1 
0.116867 0.221457 0.00677629 -0.934216 -0.297441 -0.196898 1 
0.116574 0.221756 0.00650226 -0.934216 -0.297441 -0.196898 1 
0.117113 0.220605 0.00642542 -0.923356 -0.320116 -0.211988 1 
0.117149 0.220902 0.00652709 -0.929851 -0.308075 -0.201163 1 
0.116886 0.220903 0.00622652 -0.929851 -0.308075 -0.201163 1 
0.116856 0.2212 0.00625304 -0.934216 -0.297441 -0.196898 1 
0.116915 0.220606 0.00619999 -0.929851 -0.308075 -0.201163 1 
0.116866 0.220632 0.00584381 -0.929851 -0.308075 -0.201163 1 
0.116948 0.22124 0.00590656 -0.934216 -0.297441 -0.196898 1 
0.116977 0.220943 0.00588006 -0.929851 -0.308075 -0.201163 1 
0.116827 0.221498 0.00627956 -0.934216 -0.297441 -0.196898 1 
0.116666 0.221795 0.00615579 -0.934216 -0.297441 -0.196898 1 
0.116918 0.221538 0.00593312 -0.934216 -0.297441 -0.196898 1 
0.11675 0.221241 0.00568115 -0.934216 -0.297441 -0.196898 1 
0.116937 0.220983 0.00538333 -0.934216 -0.297441 -0.196898 1 
0.116552 0.221241 0.00545572 -0.934216 -0.297441 -0.196898 1 
0.116721 0.221538 0.00570765 -0.934216 -0.297441 -0.196898 1 
0.116625 0.221836 0.00565903 -0.934216 -0.297441 -0.196898 1 
0.116523 0.221539 0.00548224 -0.934216 -0.297441 -0.196898 1 
0.116493 0.221836 0.00550877 -0.934216 -0.297441 -0.196898 1 
0.116229 0.221837 0.00520818 -0.950321 -0.270176 -0.154578 1 
0.116809 0.222052 0.00682935 -0.934216 -0.297441 -0.196898 1 
0.116834 0.222092 0.00640772 -0.934216 -0.297441 -0.196898 1 
0.116636 0.222093 0.0061823 -0.934216 -0.297441 -0.196898 1 
0.116607 0.22239 0.0062088 -0.934216 -0.297441 -0.196898 1 
0.116884 0.223222 0.00623371 0.040056 -0.347583 -0.936793 1 
0.116707 0.222912 0.00612228 -0.982006 -0.187548 -0.022133 1 
0.116772 0.223025 0.00606573 -0.982006 -0.187548 -0.022133 1 
0.116723 0.22352 0.0061099 -0.987835 -0.155503 0.00111873 1 
0.115616 0.223443 0.00575077 -0.979475 -0.193491 -0.056485 1 
0.116521 0.22212 0.00575095 -0.934216 -0.297441 -0.196898 1 
0.116633 0.22243 0.00578724 -0.934216 -0.297441 -0.196898 1 
0.116435 0.222431 0.00556181 -0.950321 -0.270176 -0.154578 1 
0.116464 0.222134 0.00553531 -0.934216 -0.297441 -0.196898 1 
0.1162 0.222134 0.00523469 -0.950321 -0.270176 -0.154578 1 
0.116171 0.222432 0.00526124 -0.958355 -0.253027 -0.132413 1 
0.116443 0.222913 0.00582169 -0.958355 -0.253027 -0.132413 1 
0.116123 0.223284 0.00583751 -0.969211 -0.226191 -0.0973002 1 
0.116488 0.223224 0.00578282 -0.986179 -0.165678 0.00112706 1 
0.116386 0.222927 0.00560599 -0.957803 -0.253575 -0.135327 1 
0.115466 0.221322 0.00561099 -0.934216 -0.297441 -0.196898 1 
0.115903 0.2215 0.00522754 -0.934216 -0.297441 -0.196898 1 
0.115788 0.221996 0.0051966 -0.950321 -0.270176 -0.154578 1 
0.115131 0.223179 0.00590973 -0.979475 -0.193491 -0.056485 1 
0.114838 0.223477 0.00563566 -0.993236 -0.115237 0.0142675 1 
0.115708 0.223483 0.00540432 -0.983527 -0.176591 -0.0385926 1 
0.116122 0.222927 0.00530547 -0.969211 -0.226191 -0.0973002 1 
0.116496 0.223818 0.00591099 0.0420076 -0.314421 -0.948354 1 
0.1164 0.224116 0.0058624 0.0111326 -0.30058 -0.953692 1 
0.116239 0.224413 0.0057386 0.22003 -0.233697 -0.947086 1 
0.116298 0.223819 0.00568555 0.0187602 -0.31392 -0.949264 1 
0.116202 0.224116 0.00563697 -0.979152 -0.191967 -0.0664037 1 
0.11662 0.224493 0.00527116 0.11626 -0.226133 -0.967134 1 
0.116228 0.224156 0.00521534 0.0332908 -0.267559 -0.962966 1 
0.116808 0.224591 0.00550538 0.141799 -0.225057 -0.963972 1 
0.115548 0.224137 0.00581266 -0.985717 -0.162148 -0.0454946 1 
0.115499 0.224633 0.00585685 0.10055 -0.238011 -0.966044 1 
0.115959 0.223806 0.00545039 -0.991588 -0.12905 -0.00992691 1 
0.115761 0.223807 0.00522494 -0.989614 -0.141374 -0.0260127 1 
0.114657 0.223505 0.0051292 -0.0386222 -0.275339 -0.960571 1 
0.11632 0.224196 0.00486889 -0.010858 -0.256972 -0.966358 1 
0.116591 0.224321 0.00489726 0.0131564 -0.242796 -0.969988 1 
0.116561 0.224619 0.00492382 0.122175 -0.192709 -0.97362 1 
0.116587 0.225128 0.00490263 0.0989187 -0.137056 -0.985612 1 
0.114084 0.228405 0.0140287 0.713011 0.695442 -0.0893094 1 
0.114863 0.22837 0.0141439 0.713011 0.695442 -0.0893094 1 
0.115661 0.228826 0.0133106 0.767961 -0.623687 0.145777 1 
0.114943 0.228153 0.0132741 0.767961 -0.623687 0.145777 1 
0.114475 0.228385 0.0135525 0.687701 -0.708955 0.156365 1 
0.114884 0.228748 0.0133272 0.767961 -0.623687 0.145777 1 
0.115192 0.228233 0.0126564 0.767961 -0.623687 0.145777 1 
0.114197 0.227197 0.0129955 0.708163 -0.690043 0.149484 1 
0.114018 0.226999 0.0127523 0.767961 -0.623687 0.145777 1 
0.114659 0.227415 0.0121904 0.767961 -0.623687 0.145777 1 
0.114065 0.226728 0.0124448 0.767961 -0.623687 0.145777 1 
0.114161 0.227119 0.0115627 0.767961 -0.623687 0.145777 1 
0.114258 0.228115 0.0129443 0.767961 -0.623687 0.145777 1 
0.114369 0.228425 0.0129806 0.767961 -0.623687 0.145777 1 
0.11396 0.227594 0.0128054 0.767961 -0.623687 0.145777 1 
0.114155 0.227818 0.0127675 0.767961 -0.623687 0.145777 1 
0.114089 0.227818 0.0126923 0.767961 -0.623687 0.145777 1 
0.114032 0.227832 0.0124767 0.767961 -0.623687 0.145777 1 
0.113928 0.228116 0.0125686 0.767961 -0.623687 0.145777 1 
0.11462 0.228749 0.0130266 0.767961 -0.623687 0.145777 1 
0.114569 0.228532 0.0120066 0.767961 -0.623687 0.145777 1 
0.114563 0.228762 0.012811 0.767961 -0.623687 0.145777 1 
0.114477 0.228492 0.0123531 0.767961 -0.623687 0.145777 1 
0.113853 0.227634 0.0122335 0.767961 -0.623687 0.145777 1 
0.113953 0.228156 0.012147 0.767961 -0.623687 0.145777 1 
0.114275 0.227673 0.0122628 0.767961 -0.623687 0.145777 1 
0.114404 0.227898 0.0121498 0.767961 -0.623687 0.145777 1 
0.114587 0.227978 0.0114569 0.767961 -0.623687 0.145777 1 
0.114409 0.228249 0.0116141 0.767961 -0.623687 0.145777 1 
0.114007 0.228011 0.0115672 0.767961 -0.623687 0.145777 1 
0.114277 0.228249 0.0114638 0.767961 -0.623687 0.145777 1 
0.114082 0.228493 0.0119022 0.767961 -0.623687 0.145777 1 
0.114013 0.22825 0.0111633 0.767961 -0.623687 0.145777 1 
0.114133 0.228574 0.011059 0.767961 -0.623687 0.145777 1 
0.114926 0.227521 0.0112916 0.767961 -0.623687 0.145777 1 
0.114691 0.227225 0.0109646 0.767961 -0.623687 0.145777 1 
0.114728 0.227522 0.0110662 0.767961 -0.623687 0.145777 1 
0.114961 0.228868 0.0120624 0.767961 -0.623687 0.145777 1 
0.114669 0.228117 0.0111192 0.767961 -0.623687 0.145777 1 
0.115034 0.228057 0.0110645 0.767961 -0.623687 0.145777 1 
0.115145 0.227898 0.0107004 0.767961 -0.623687 0.145777 1 
0.11653 0.228808 0.0110844 -0.14202 -0.987098 -0.0739443 1 
0.116353 0.229186 0.0100423 0.171625 -0.98359 0.0556303 1 
0.114717 0.227265 0.010543 0.767961 -0.623687 0.145777 1 
0.114753 0.227562 0.0106446 0.767961 -0.623687 0.145777 1 
0.114779 0.227602 0.010223 0.767961 -0.623687 0.145777 1 
0.114814 0.227543 0.00979261 0.779604 -0.608361 0.148711 1 
0.114321 0.227266 0.0100921 0.767961 -0.623687 0.145777 1 
0.114616 0.227544 0.00956717 0.779604 -0.608361 0.148711 1 
0.11481 0.227881 0.00939752 0.517193 -0.839134 0.168423 1 
0.114273 0.228118 0.0106684 0.767961 -0.623687 0.145777 1 
0.114233 0.228158 0.0101717 0.767961 -0.623687 0.145777 1 
0.115105 0.227939 0.0102037 0.511649 -0.843851 0.161652 1 
0.115197 0.227979 0.0098572 0.517193 -0.839134 0.168423 1 
0.114676 0.228575 0.00938426 0.779604 -0.608361 0.148711 1 
0.115232 0.22792 0.00942684 0.517193 -0.839134 0.168423 1 
0.115532 0.228216 0.00982905 0.408302 -0.900542 0.149379 1 
0.114966 0.228614 0.00926328 0.516157 -0.840429 0.165111 1 
0.11517 0.228852 0.00908476 0.399773 -0.903401 0.155072 1 
0.120582 0.227952 0.00818899 0.106475 0.934017 0.34099 1 
0.120757 0.228019 0.00763663 0.214976 0.910403 0.353485 1 
0.123686 0.229735 0.00520246 -0.576068 0.449166 -0.682932 1 
0.12507 0.22877 0.00398484 -0.561855 0.384944 -0.732213 1 
0.124235 0.229642 0.00458658 -0.55065 0.454161 -0.700373 1 
0.124019 0.230198 0.00491091 -0.552365 0.43957 -0.708288 1 
0.124712 0.229893 0.00456813 -0.569018 0.385358 -0.726441 1 
0.124712 0.229424 0.00416776 -0.549973 0.414544 -0.72504 1 
0.125455 0.228511 0.00391247 -0.558963 0.381931 -0.735995 1 
0.12548 0.228551 0.00349087 -0.558963 0.381931 -0.735995 1 
0.125491 0.228809 0.00401412 -0.558963 0.381931 -0.735995 1 
0.125715 0.228848 0.00381798 -0.558963 0.381931 -0.735995 1 
0.124886 0.229959 0.0040158 -0.563205 0.385869 -0.730688 1 
0.118838 0.228391 0.00812496 0.199686 0.912233 0.35771 1 
0.11939 0.229011 0.00857328 0.297288 0.882809 0.363687 1 
0.119886 0.228594 0.00813673 0.265033 0.895783 0.356833 1 
0.119865 0.228905 0.00802273 0.309563 0.883389 0.351845 1 
0.120729 0.227735 0.00739445 -0.925874 0.006403 -0.377777 1 
0.120465 0.227736 0.00709387 -0.887846 0.198114 -0.415307 1 
0.120252 0.227953 0.00781328 0.211665 0.911454 0.352774 1 
0.120679 0.227874 0.0069066 -0.817274 0.296478 -0.494129 1 
0.120848 0.228059 0.00729019 0.305907 0.872063 0.382003 1 
0.12079 0.228653 0.00734324 0.149852 0.933479 0.325824 1 
0.121062 0.228197 0.00710289 -0.790287 0.42181 -0.444436 1 
0.12122 0.228237 0.0068316 -0.651548 0.434921 -0.621554 1 
0.12063 0.22837 0.00695079 -0.712657 0.463476 -0.526602 1 
0.120808 0.228099 0.00679353 -0.723227 0.397034 -0.565073 1 
0.121022 0.228238 0.00660617 -0.625446 0.413093 -0.661945 1 
0.120247 0.227466 0.00648571 -0.695237 0.268867 -0.6666 1 
0.120556 0.227776 0.00674742 -0.749799 0.278588 -0.600158 1 
0.120124 0.22748 0.0061949 -0.657321 0.258177 -0.708007 1 
0.120125 0.229242 0.00792824 0.190766 0.922741 0.3349 1 
0.12019 0.228886 0.00747124 0.113734 0.943327 0.311766 1 
0.120655 0.229347 0.00733001 -0.580322 0.702669 -0.411682 1 
0.120504 0.229546 0.00719739 -0.569423 0.58632 -0.576182 1 
0.121424 0.228475 0.00665311 -0.620631 0.427619 -0.657236 1 
0.121394 0.228772 0.00667965 -0.595439 0.527967 -0.60556 1 
0.120974 0.228152 0.00638161 -0.636108 0.354847 -0.685165 1 
0.121226 0.228475 0.00642767 -0.620631 0.427619 -0.657236 1 
0.121449 0.228515 0.00623149 -0.612195 0.432039 -0.662238 1 
0.122188 0.228408 0.00598163 -0.600415 0.358286 -0.714936 1 
0.122225 0.228705 0.00608328 -0.588324 0.434993 -0.681656 1 
0.121645 0.228271 0.00579321 -0.617373 0.328941 -0.714597 1 
0.12074 0.227855 0.0060546 -0.64458 0.308558 -0.699506 1 
0.121177 0.228034 0.00567107 -0.639782 0.293434 -0.710335 1 
0.120908 0.228152 0.00630653 -0.636108 0.354847 -0.685165 1 
0.121132 0.228192 0.00611035 -0.640381 0.325865 -0.695503 1 
0.121421 0.228231 0.00598934 -0.630256 0.32566 -0.704786 1 
0.12052 0.228748 0.00598382 -0.629226 0.43228 -0.645917 1 
0.121868 0.227841 0.00519665 -0.612149 0.27189 -0.742529 1 
0.121559 0.229407 0.0065365 -0.593092 0.525504 -0.60999 1 
0.121233 0.22907 0.00655591 -0.595439 0.527967 -0.60556 1 
0.122279 0.229029 0.00590388 -0.561078 0.530749 -0.635214 1 
0.122137 0.229598 0.00616283 -0.572176 0.521541 -0.632938 1 
0.12108 0.229381 0.00629159 -0.595439 0.527967 -0.60556 1 
0.120149 0.22752 0.00577331 -0.659176 0.265259 -0.703651 1 
0.119522 0.227468 0.00565916 -0.456753 0.483136 -0.746965 1 
0.120857 0.227935 0.00528652 -0.6493 0.272802 -0.709922 1 
0.120555 0.22822 0.00515297 -0.640381 0.325865 -0.695503 1 
0.123521 0.227695 0.00414437 -0.585884 0.242165 -0.773367 1 
0.122273 0.227854 0.00550692 -0.612149 0.27189 -0.742529 1 
0.122721 0.22782 0.00524634 -0.607271 0.271131 -0.7468 1 
0.122682 0.228217 0.00528171 -0.607438 0.299712 -0.735657 1 
0.123018 0.228454 0.00525351 -0.605277 0.35403 -0.712954 1 
0.122765 0.228712 0.00547619 -0.587333 0.427605 -0.687163 1 
0.123102 0.227899 0.00477886 -0.607468 0.254032 -0.752629 1 
0.122924 0.228171 0.00493616 -0.607922 0.260538 -0.750034 1 
0.123239 0.22825 0.00439358 -0.587778 0.314019 -0.745593 1 
0.123033 0.229062 0.00524115 -0.564383 0.527319 -0.635142 1 
0.12351 0.228844 0.00482236 -0.553515 0.506408 -0.66119 1 
0.122894 0.228468 0.00496268 -0.601029 0.343678 -0.721561 1 
0.12237 0.228132 0.00475661 -0.612149 0.27189 -0.742529 1 
0.123221 0.227755 0.00427424 -0.594741 0.249509 -0.764218 1 
0.123024 0.227755 0.00404882 -0.594741 0.249509 -0.764218 1 
0.122969 0.229418 0.00569811 -0.564383 0.527319 -0.635142 1 
0.123611 0.228316 0.0040666 -0.573539 0.364385 -0.733673 1 
0.123704 0.229181 0.00465271 -0.562277 0.462168 -0.685744 1 
0.123976 0.228725 0.00441234 -0.556347 0.472811 -0.683321 1 
0.123631 0.228586 0.00444934 -0.568546 0.45517 -0.685256 1 
0.123358 0.228574 0.00428931 -0.569408 0.45252 -0.686295 1 
0.123993 0.228751 0.0041313 -0.550193 0.45046 -0.703117 1 
0.123937 0.228652 0.0040473 -0.550193 0.45046 -0.703117 1 
0.123796 0.228752 0.00390585 -0.536376 0.476222 -0.696788 1 
0.124602 0.228533 0.00386275 -0.534707 0.461414 -0.707945 1 
0.12418 0.228494 0.00383344 -0.539344 0.44973 -0.711934 1 
0.124414 0.228434 0.00362846 -0.530616 0.457428 -0.713587 1 
0.124631 0.228704 0.00423667 -0.536984 0.450535 -0.713208 1 
0.12421 0.228665 0.00420739 -0.55065 0.454161 -0.700373 1 
0.124188 0.229088 0.00396162 -0.539344 0.44973 -0.711934 1 
0.124045 0.2293 0.0036885 -0.535236 0.445754 -0.717514 1 
0.123516 0.228613 0.00401803 -0.555504 0.488374 -0.672983 1 
0.123578 0.228951 0.0036981 -0.536376 0.476222 -0.696788 1 
0.123334 0.229222 0.00378027 -0.540002 0.476472 -0.69381 1 
0.123982 0.228494 0.00360806 -0.539344 0.44973 -0.711934 1 
0.124216 0.228435 0.00340305 -0.530616 0.457428 -0.713587 1 
0.123798 0.229464 0.00497004 -0.572964 0.452692 -0.683214 1 
0.124327 0.229682 0.00424017 -0.536984 0.450535 -0.713208 1 
0.124173 0.230575 0.0042446 -0.569018 0.385358 -0.726441 1 
0.123006 0.229467 0.0040683 -0.556347 0.472811 -0.683321 1 
0.125108 0.228486 0.00381778 -0.558963 0.381931 -0.735995 1 
0.125351 0.228327 0.00360396 -0.558963 0.381931 -0.735995 1 
0.125153 0.228327 0.00337855 -0.558963 0.381931 -0.735995 1 
0.125348 0.228552 0.00334059 -0.558963 0.381931 -0.735995 1 
0.124693 0.228573 0.00351631 -0.543278 0.417779 -0.728224 1 
0.124505 0.228474 0.00328202 -0.543278 0.417779 -0.728224 1 
0.124729 0.228514 0.00308585 -0.558963 0.381931 -0.735995 1 
0.125074 0.228652 0.00304887 -0.558963 0.381931 -0.735995 1 
0.125542 0.228889 0.00317097 -0.545441 0.366341 -0.753849 1 
0.124258 0.222266 0.00587846 0.579329 0.802721 0.141481 1 
0.123816 0.222538 0.00573515 0.581056 0.804653 0.122095 1 
0.123598 0.222737 0.00552741 0.581056 0.804653 0.122095 1 
0.12342 0.222539 0.0052843 0.581056 0.804653 0.122095 1 
0.123718 0.22306 0.00542315 0.581056 0.804653 0.122095 1 
0.122684 0.222308 0.00592932 0.581056 0.804653 0.122095 1 
0.123131 0.222387 0.00553699 0.581056 0.804653 0.122095 1 
0.122999 0.222388 0.00538672 0.581056 0.804653 0.122095 1 
0.122792 0.222487 0.00517011 0.581056 0.804653 0.122095 1 
0.122314 0.22235 0.00505685 0.581056 0.804653 0.122095 1 
0.121806 0.222622 0.00483846 0.581056 0.804653 0.122095 1 
0.122638 0.22338 0.00517454 0.581056 0.804653 0.122095 1 
0.12192 0.223176 0.00553849 0.581056 0.804653 0.122095 1 
0.121965 0.223017 0.00509926 0.581056 0.804653 0.122095 1 
0.122535 0.223083 0.00499772 0.581056 0.804653 0.122095 1 
0.121796 0.222721 0.00484728 0.581056 0.804653 0.122095 1 
0.121869 0.223315 0.00505056 0.581056 0.804653 0.122095 1 
0.121767 0.223018 0.0048738 0.581056 0.804653 0.122095 1 
0.121999 0.22354 0.00493751 0.581056 0.804653 0.122095 1 
0.12222 0.224273 0.0048784 -0.200545 0.0367864 -0.978994 1 
0.121798 0.224234 0.0048491 -0.236928 0.0376655 -0.970797 1 
0.122183 0.223976 0.00477674 -0.00294404 -0.00294404 -0.999991 1 
0.120989 0.223521 0.00515907 0.0456695 0.167455 -0.984821 1 
0.121287 0.223574 0.00489755 0.524519 0.39053 -0.756549 1 
0.121465 0.223303 0.00474025 0.581056 0.804653 0.122095 1 
0.121483 0.223217 0.00459089 0.581056 0.804653 0.122095 1 
0.121763 0.223356 0.00447871 0.581056 0.804653 0.122095 1 
0.121415 0.223911 0.00465276 -0.0243386 0.0603174 -0.997882 1 
0.120498 0.224289 0.00506001 -0.0491076 0.200024 -0.97856 1 
0.121252 0.22479 0.00479772 -0.477547 0.0650571 -0.876194 1 
0.121729 0.224572 0.00437889 -0.300201 0.0314018 -0.953359 1 
0.121344 0.22483 0.00445127 -0.464503 0.0561788 -0.883788 1 
0.12342 0.222539 0.0052843 0.581056 0.804653 0.122095 1 
0.12309 0.22254 0.00490857 0.581056 0.804653 0.122095 1 
0.123239 0.223035 0.00517824 0.581056 0.804653 0.122095 1 
0.122837 0.222798 0.0051312 0.581056 0.804653 0.122095 1 
0.122975 0.223036 0.00487763 0.581056 0.804653 0.122095 1 
0.122861 0.223419 0.00497837 0.581056 0.804653 0.122095 1 
0.122768 0.223023 0.00479276 0.581056 0.804653 0.122095 1 
0.122356 0.222998 0.00462292 0.581056 0.804653 0.122095 1 
0.122739 0.223321 0.00481925 0.581056 0.804653 0.122095 1 
0.122465 0.22342 0.00452751 0.581056 0.804653 0.122095 1 
0.122297 0.223124 0.00427555 0.581056 0.804653 0.122095 1 
0.122483 0.223916 0.00464688 0.230433 -0.0734894 -0.970309 1 
0.122275 0.224016 0.00443028 0.184815 -0.0536559 -0.981308 1 
0.122203 0.22284 0.00395825 0.581056 0.804653 0.122095 1 
0.122181 0.223732 0.00411293 0.209753 -0.123309 -0.969948 1 
0.121038 0.22509 0.0136371 0.552577 -0.549197 -0.62693 1 
0.12052 0.225461 0.0134275 0.213925 -0.792601 -0.570981 1 
0.120178 0.225786 0.0127972 0.213925 -0.792601 -0.570981 1 
0.11965 0.225788 0.0121961 0.213925 -0.792601 -0.570981 1 
0.122491 0.224724 0.0136904 0.715702 -0.371772 -0.591232 1 
0.122621 0.224949 0.0135773 0.676957 -0.395581 -0.620681 1 
0.121831 0.224038 0.0138696 0.20693 -0.804727 -0.556412 1 
0.121547 0.224237 0.0135868 0.224588 -0.791478 -0.568439 1 
0.121678 0.224349 0.0136054 0.224588 -0.791478 -0.568439 1 
0.121853 0.225822 0.0142542 0.71178 -0.286311 -0.641401 1 
0.122292 0.225306 0.0137337 0.715462 -0.283304 -0.638634 1 
0.121908 0.225564 0.0138061 0.746185 -0.275245 -0.606176 1 
0.12159 0.225241 0.0136849 0.762757 -0.266886 -0.589044 1 
0.12171 0.225565 0.0135807 0.766112 -0.245971 -0.593776 1 
0.121557 0.225876 0.0133164 0.769352 -0.259597 -0.583701 1 
0.12168 0.225862 0.0136072 0.749632 -0.271009 -0.603826 1 
0.12123 0.226121 0.0136044 0.769352 -0.259597 -0.583701 1 
0.121512 0.225566 0.0133552 0.738949 -0.325008 -0.590189 1 
0.121537 0.225606 0.0129337 0.738949 -0.325008 -0.590189 1 
0.121574 0.225903 0.0130353 0.756167 -0.281772 -0.590606 1 
0.121545 0.2262 0.0130619 0.757242 -0.267169 -0.595992 1 
0.121292 0.226458 0.0132845 0.777577 -0.232182 -0.584351 1 
0.12131 0.225904 0.0127347 0.730878 -0.328976 -0.597991 1 
0.121413 0.226201 0.0129116 0.769352 -0.259597 -0.583701 1 
0.121617 0.22597 0.0123327 0.666497 -0.423832 -0.61331 1 
0.121438 0.226241 0.01249 0.752044 -0.289002 -0.592374 1 
0.121468 0.226412 0.0128639 0.769352 -0.259597 -0.583701 1 
0.121419 0.226439 0.0125076 0.756167 -0.281772 -0.590606 1 
0.121141 0.225607 0.0124828 0.552577 -0.549197 -0.62693 1 
0.120438 0.226123 0.0127027 0.213925 -0.792601 -0.570981 1 
0.120324 0.226038 0.0124031 0.213925 -0.792601 -0.570981 1 
0.12139 0.225686 0.0118651 0.552577 -0.549197 -0.62693 1 
0.121493 0.225983 0.0120419 0.554918 -0.548171 -0.625759 1 
0.121519 0.226024 0.0116203 0.510009 -0.634566 -0.580704 1 
0.121258 0.225687 0.0117147 0.175287 -0.828495 -0.531855 1 
0.121464 0.226281 0.0120684 0.666497 -0.423832 -0.61331 1 
0.12151 0.226479 0.0121612 0.752044 -0.289002 -0.592374 1 
0.121266 0.226281 0.011843 0.545344 -0.602749 -0.582489 1 
0.121312 0.226479 0.0119358 0.644249 -0.50968 -0.570236 1 
0.121537 0.226875 0.0122717 0.769352 -0.259597 -0.583701 1 
0.121518 0.227073 0.0122894 0.786763 -0.306758 -0.535634 1 
0.121273 0.226876 0.0119711 0.750171 -0.359626 -0.554899 1 
0.12006 0.226039 0.0121025 0.213925 -0.792601 -0.570981 1 
0.120378 0.226362 0.0122237 0.213925 -0.792601 -0.570981 1 
0.120199 0.226164 0.0119806 0.175287 -0.828495 -0.531855 1 
0.120469 0.226402 0.0118772 0.175287 -0.828495 -0.531855 1 
0.119788 0.226026 0.0119424 0.175287 -0.828495 -0.531855 1 
0.11985 0.226363 0.0116225 -0.255941 -0.881576 -0.396634 1 
0.121114 0.226011 0.0113099 0.311505 -0.811178 -0.494929 1 
0.120767 0.225986 0.0112153 0.363812 -0.77128 -0.522272 1 
0.121291 0.226322 0.0114214 0.454539 -0.738833 -0.497514 1 
0.121019 0.226309 0.0112613 0.363812 -0.77128 -0.522272 1 
0.121048 0.22648 0.0116352 0.515546 -0.663324 -0.542415 1 
0.120764 0.226323 0.0108202 0.342404 -0.804251 -0.485736 1 
0.120511 0.226581 0.0110429 0.366234 -0.78571 -0.49853 1 
0.119514 0.226126 0.0116507 -0.282277 -0.880039 -0.381904 1 
0.120346 0.225947 0.011186 0.383641 -0.755855 -0.530568 1 
0.120342 0.226284 0.0107909 0.352776 -0.802926 -0.480478 1 
0.120538 0.226509 0.010753 0.321513 -0.82966 -0.456392 1 
0.120786 0.226837 0.0118667 0.535556 -0.626787 -0.565966 1 
0.120515 0.226712 0.0118384 0.389995 -0.722396 -0.571006 1 
0.120588 0.226838 0.0116413 0.415006 -0.719234 -0.5572 1 
0.120613 0.226878 0.0112197 0.392043 -0.766192 -0.509168 1 
0.120097 0.227137 0.0111418 0.202886 -0.852121 -0.482418 1 
0.120415 0.226879 0.0109943 0.352776 -0.802926 -0.480478 1 
0.119833 0.227137 0.0108412 0.973713 -0.0178336 -0.227081 1 
0.120086 0.22688 0.0106185 0.980609 0.169323 -0.09867 1 
0.126656 0.227597 0.0154974 0.507342 0.829221 -0.234512 1 
0.127382 0.228864 0.0156619 0.659646 0.582435 -0.475012 1 
0.126848 0.228627 0.0154647 0.6074 0.667308 -0.431004 1 
0.12677 0.228952 0.0151351 0.590884 0.657839 -0.467016 1 
0.127052 0.228865 0.0152862 0.601359 0.62831 -0.493552 1 
0.127246 0.229202 0.0151166 0.624375 0.597448 -0.503202 1 
0.126122 0.22736 0.0153001 0.507342 0.829221 -0.234512 1 
0.126316 0.227697 0.0151304 0.507342 0.829221 -0.234512 1 
0.12577 0.228253 0.0150791 0.55466 0.737911 -0.384499 1 
0.125959 0.227883 0.0149129 0.539707 0.763369 -0.354942 1 
0.126004 0.228193 0.0148741 0.539707 0.763369 -0.354942 1 
0.125978 0.228153 0.0152957 0.569887 0.7507 -0.334183 1 
0.12478 0.228036 0.015283 -0.437564 0.855169 0.277892 1 
0.124908 0.228373 0.0150382 0.478821 0.522199 -0.705719 1 
0.125707 0.227559 0.0148669 0.597942 0.0553913 -0.799623 1 
0.125901 0.227896 0.0146973 0.611799 0.598316 -0.517417 1 
0.125825 0.227995 0.014631 0.607193 0.580131 -0.542922 1 
0.125029 0.228116 0.0146652 0.554361 0.00953446 -0.832222 1 
0.125563 0.227884 0.0144621 0.576258 0.049313 -0.815779 1 
0.125476 0.228195 0.014273 0.504628 0.714473 -0.484643 1 
0.126341 0.228787 0.015378 0.55466 0.737911 -0.384499 1 
0.126163 0.228589 0.0151349 0.55466 0.737911 -0.384499 1 
0.125758 0.229046 0.0152249 0.496172 0.783855 -0.373341 1 
0.124973 0.228954 0.0153821 0.365325 0.903852 -0.222688 1 
0.125047 0.228967 0.0153167 0.468276 0.807098 -0.359598 1 
0.124879 0.228671 0.0150647 0.408882 0.773781 -0.483817 1 
0.124643 0.228955 0.0150064 0.374289 0.795164 -0.477098 1 
0.125366 0.228709 0.0151692 0.496172 0.783855 -0.373341 1 
0.124131 0.228295 0.0150548 -0.482476 0.8759 -0.00398741 1 
0.12295 0.229142 0.0155619 -0.526188 0.845609 -0.0898371 1 
0.123447 0.228613 0.015257 -0.58962 0.805577 0.0582516 1 
0.123398 0.22864 0.0149008 -0.388799 0.856597 -0.339231 1 
0.123641 0.22895 0.0150874 0.472622 0.172264 -0.864265 1 
0.12322 0.228911 0.0150581 -0.301083 0.850751 -0.43078 1 
0.123124 0.229209 0.0150095 -0.197965 0.835684 -0.512291 1 
0.123289 0.229843 0.0148664 0.109135 0.82506 -0.554405 1 
0.124157 0.228335 0.0146332 -0.292193 0.897343 -0.330756 1 
0.12408 0.228078 0.0140348 -0.278497 0.865927 -0.415463 1 
0.12458 0.228481 0.0134631 -0.300466 0.870893 -0.388928 1 
0.123899 0.229512 0.0147295 0.0729236 0.807879 -0.584819 1 
0.124677 0.229009 0.0144442 0.318105 0.718562 -0.618448 1 
0.123805 0.229228 0.0144122 -0.658057 0.658057 0.365952 1 
0.124114 0.229069 0.0142735 -0.573004 0.789232 0.220861 1 
0.126568 0.22802 0.0151765 0.630614 0.610434 -0.479266 1 
0.126227 0.228233 0.0146779 0.611799 0.598316 -0.517417 1 
0.126095 0.228233 0.0145276 0.607193 0.580131 -0.542922 1 
0.126759 0.229163 0.0150122 0.562709 0.689611 -0.455845 1 
0.121112 0.226041 0.0143725 0.775845 -0.225446 -0.589269 1 
0.12298 0.224651 0.0139266 0.660476 -0.427563 -0.617221 1 
0.124138 0.230159 0.014521 0.224431 0.79402 -0.564946 1 
0.122658 0.222096 0.0229858 -0.276992 -0.565064 -0.77716 1 
0.122492 0.223312 0.0227357 -0.479416 -0.456351 -0.749602 1 
0.122444 0.223227 0.0225112 -0.479416 -0.456351 -0.749602 1 
0.122349 0.223524 0.0224625 -0.531092 -0.471157 -0.704238 1 
0.121555 0.222951 0.0223598 -0.477764 -0.451495 -0.753587 1 
0.121298 0.223546 0.0221874 -0.550053 -0.440375 -0.709585 1 
0.12221 0.22293 0.0221841 -0.479416 -0.456351 -0.749602 1 
0.121841 0.223328 0.0218437 -0.541554 -0.504668 -0.672332 1 
0.122249 0.224741 0.0222876 -0.643412 -0.492219 -0.586295 1 
0.121019 0.225615 0.0224384 -0.729538 -0.435076 -0.527716 1 
0.122524 0.223591 0.0219102 -0.491415 -0.545085 -0.67926 1 
0.123592 0.224753 0.021374 -0.310354 -0.603019 -0.73488 1 
0.123188 0.224741 0.0210637 -0.285254 -0.603973 -0.744209 1 
0.122934 0.224642 0.0207543 -0.285254 -0.603973 -0.744209 1 
0.122753 0.225607 0.0210486 -0.628532 -0.497096 -0.5982 1 
0.12306 0.225673 0.0206465 -0.525225 -0.525225 -0.669536 1 
0.122345 0.224663 0.0210052 -0.598119 -0.513877 -0.614967 1 
0.122061 0.224862 0.0207222 -0.62417 -0.499672 -0.600616 1 
0.122792 0.224742 0.0206128 -0.440404 -0.566709 -0.696337 1 
0.122818 0.225251 0.0205916 -0.559669 -0.509248 -0.653787 1 
0.122305 0.224703 0.0205084 -0.578927 -0.518165 -0.629562 1 
0.122312 0.225766 0.021037 -0.650264 -0.478877 -0.589774 1 
0.122487 0.225833 0.0204846 -0.632031 -0.500569 -0.591581 1 
0.122644 0.225873 0.0202133 -0.585412 -0.511181 -0.629275 1 
0.122615 0.22617 0.0202399 -0.595026 -0.500631 -0.628739 1 
0.121209 0.224883 0.0206726 -0.654312 -0.492837 -0.573574 1 
0.121498 0.224922 0.0205516 -0.628532 -0.497096 -0.5982 1 
0.121928 0.224975 0.0204403 -0.62417 -0.499672 -0.600616 1 
0.120883 0.226421 0.0222935 -0.798318 -0.433833 -0.417706 1 
0.121003 0.226745 0.0221892 -0.80496 -0.432204 -0.406497 1 
0.122059 0.226024 0.0212597 -0.658815 -0.481119 -0.578349 1 
0.122234 0.226091 0.0207073 -0.658815 -0.481119 -0.578349 1 
0.122411 0.226401 0.0208188 -0.658815 -0.481119 -0.578349 1 
0.122447 0.226698 0.0209204 -0.658815 -0.481119 -0.578349 1 
0.122213 0.226401 0.0205933 -0.658815 -0.481119 -0.578349 1 
0.124192 0.224521 0.021246 -0.332504 -0.595263 -0.731508 1 
0.124519 0.224276 0.0209579 -0.192679 -0.642776 -0.741427 1 
0.12394 0.224197 0.0211999 -0.339199 -0.598872 -0.725463 1 
0.124023 0.224224 0.0209941 -0.332504 -0.595263 -0.731508 1 
0.123723 0.224396 0.0209922 -0.310354 -0.603019 -0.73488 1 
0.124292 0.224574 0.0207591 -0.339998 -0.600284 -0.72392 1 
0.125017 0.223747 0.0206531 -0.222861 -0.634296 -0.740272 1 
0.12448 0.224204 0.0205929 -0.247639 -0.629351 -0.736609 1 
0.124723 0.224045 0.0203791 -0.209574 -0.634932 -0.7436 1 
0.124124 0.224277 0.0205071 -0.244188 -0.631739 -0.735716 1 
0.124056 0.224859 0.0207006 -0.339998 -0.600284 -0.72392 1 
0.123738 0.225117 0.0208482 -0.310354 -0.603019 -0.73488 1 
0.123606 0.225117 0.0206979 -0.310354 -0.603019 -0.73488 1 
0.123298 0.224695 0.0205679 -0.310354 -0.603019 -0.73488 1 
0.123345 0.22478 0.0207924 -0.310354 -0.603019 -0.73488 1 
0.122726 0.226012 0.0198758 -0.52953 -0.536254 -0.65729 1 
0.122689 0.225714 0.0197741 -0.490296 -0.543844 -0.68106 1 
0.122806 0.226263 0.0194065 -0.445048 -0.588396 -0.675072 1 
0.123238 0.225734 0.0190265 -0.369298 -0.628627 -0.684432 1 
0.122677 0.226507 0.0199199 -0.591494 -0.517346 -0.618456 1 
0.122909 0.22656 0.0195832 -0.473998 -0.520567 -0.710166 1 
0.12286 0.226587 0.0192271 -0.439096 -0.545142 -0.714153 1 
0.123029 0.226884 0.019479 -0.471295 -0.491139 -0.732574 1 
0.122822 0.226402 0.0189937 -0.443708 -0.560036 -0.69963 1 
0.122886 0.226627 0.0188055 -0.339908 -0.707465 -0.619642 1 
0.122699 0.226885 0.0191033 -0.3799 -0.613431 -0.692371 1 
0.123046 0.226442 0.0187975 -0.344858 -0.678276 -0.648857 1 
0.122931 0.226938 0.0187666 -0.20929 -0.73639 -0.643372 1 
0.123091 0.227221 0.0191591 -0.35919 -0.510598 -0.781199 1 
0.123807 0.22765 0.0185317 -0.0265184 -0.794158 -0.607133 1 
0.122523 0.225994 0.0187232 -0.40221 -0.630626 -0.66373 1 
0.122435 0.226886 0.0188027 -0.395027 -0.656175 -0.642952 1 
0.122792 0.226344 0.0184881 -0.29609 -0.737825 -0.606585 1 
0.122468 0.22752 0.0185094 -0.795399 -0.312762 -0.519153 1 
0.126728 0.226482 0.0190248 0.259587 0.571092 0.778761 1 
0.127032 0.226305 0.0179589 -0.160073 0.818317 0.552027 1 
0.127641 0.225973 0.017822 0.800953 -0.390043 -0.454248 1 
0.127855 0.226112 0.0176347 0.868047 -0.216638 -0.446723 1 
0.127327 0.226582 0.017434 0.838431 -0.0963548 -0.536423 1 
0.127936 0.226364 0.0171654 0.806549 -0.239952 -0.540279 1 
0.127302 0.227479 0.0186564 0.582937 0.778804 0.23162 1 
0.126577 0.2269 0.0175611 -0.0693825 0.904693 0.420376 1 
0.127307 0.22783 0.0181208 0.74453 0.625405 -0.233547 1 
0.127378 0.228069 0.017792 0.72542 0.636528 -0.261913 1 
0.127138 0.227534 0.0178688 0.621179 0.778292 -0.0916493 1 
0.127378 0.2276 0.0173916 0.728152 0.605448 -0.321291 1 
0.126801 0.22694 0.0173649 -0.0870935 0.899966 0.427173 1 
0.127332 0.22787 0.0176992 0.72542 0.636528 -0.261913 1 
0.127624 0.227216 0.0174411 0.837302 0.397444 -0.375451 1 
0.127789 0.22785 0.017298 0.793944 0.530881 -0.296342 1 
0.12776 0.228148 0.0173246 0.72542 0.636528 -0.261913 1 
0.127514 0.228531 0.017275 0.711118 0.637277 -0.296968 1 
0.127746 0.228584 0.0169383 0.74786 0.555599 -0.363339 1 
0.127013 0.229398 0.0171848 0.646187 0.694773 -0.315806 1 
0.126543 0.229855 0.0171997 0.565947 0.761544 -0.31584 1 
0.126494 0.229882 0.0168435 0.569887 0.7507 -0.334183 1 
0.127367 0.229081 0.0166068 0.639515 0.685311 -0.34838 1 
0.126974 0.229326 0.0168197 0.569887 0.7507 -0.334183 1 
0.126456 0.229697 0.0166101 0.569887 0.7507 -0.334183 1 
0.126841 0.229439 0.0165378 0.569887 0.7507 -0.334183 1 
0.128104 0.22793 0.0167554 0.820027 0.39011 -0.418771 1 
0.128 0.228214 0.0168474 0.80569 0.392433 -0.44369 1 
0.127811 0.228228 0.0164814 0.794902 0.388583 -0.465977 1 
0.127752 0.228823 0.0165344 0.737059 0.560557 -0.377518 1 
0.127772 0.228625 0.0165167 0.74786 0.555599 -0.363339 1 
0.127544 0.228922 0.0163178 0.676821 0.596999 -0.430704 1 
0.127252 0.229108 0.0161755 0.628317 0.644983 -0.434989 1 
0.124917 0.229929 0.0179621 -0.0380494 0.92237 0.38443 1 
0.125037 0.230253 0.0178578 0.0569114 0.977182 0.204639 1 
0.124531 0.230769 0.0183032 -0.021191 0.991514 0.128261 1 
0.124745 0.230907 0.0181159 0.0658864 0.996938 0.0421241 1 
0.125737 0.230074 0.0172428 0.481926 0.821002 -0.30611 1 
0.125006 0.230663 0.0177527 0.215896 0.972157 -0.0911007 1 
0.133419 0.2269 0.0522751 -0.749632 -0.271009 -0.603826 1 
0.133462 0.227436 0.0519729 -0.570623 -0.262518 -0.778122 1 
0.128358 0.229915 0.0524684 -0.18888 -0.477406 -0.858142 1 
0.128478 0.230239 0.0523641 -0.18888 -0.477406 -0.858142 1 
0.132533 0.227805 0.0535883 -0.487185 -0.713319 -0.503813 1 
0.133368 0.22809 0.0524563 -0.37955 -0.221282 -0.898318 1 
0.133096 0.228546 0.0526967 -0.286003 -0.306536 -0.907875 1 
0.132898 0.228546 0.0524713 -0.220324 -0.152532 -0.963427 1 
0.133066 0.228843 0.0527232 -0.230054 -0.216442 -0.948803 1 
0.133406 0.227806 0.0522893 -0.453332 -0.268926 -0.849805 1 
0.13384 0.229259 0.0523116 -0.2686 -0.306349 -0.913239 1 
0.133315 0.228923 0.0521055 -0.230537 -0.156765 -0.960353 1 
0.133865 0.229299 0.05189 -0.264098 -0.208789 -0.941626 1 
0.133687 0.22957 0.0520473 -0.234399 -0.497907 -0.834952 1 
0.133526 0.229868 0.0519235 -0.254097 -0.534694 -0.805939 1 
0.13372 0.230205 0.0517539 -0.240908 -0.492557 -0.836272 1 
0.134196 0.229986 0.051335 -0.233871 -0.378018 -0.895771 1 
0.130384 0.229502 0.052552 -0.26626 -0.575059 -0.773572 1 
0.130495 0.229812 0.0525882 -0.273903 -0.587388 -0.761546 1 
0.132758 0.227952 0.0521928 -0.342461 -0.210635 -0.915617 1 
0.133104 0.228091 0.0521557 -0.269953 -0.1251 -0.954712 1 
0.13241 0.228508 0.0523668 -0.189895 -0.166642 -0.967559 1 
0.132456 0.228818 0.052328 -0.208884 -0.325404 -0.922215 1 
0.131788 0.229163 0.0522492 -0.273046 -0.685011 -0.67543 1 
0.132251 0.22985 0.0518445 -0.273046 -0.685011 -0.67543 1 
0.129685 0.229099 0.0528983 -0.451735 -0.698439 0.555084 1 
0.130056 0.229278 0.0524396 -0.292596 -0.609174 -0.737085 1 
0.13011 0.229602 0.0522603 -0.273903 -0.587388 -0.761546 1 
0.129707 0.229477 0.0520816 -0.203549 -0.493041 -0.84586 1 
0.130073 0.229773 0.052559 -0.275245 -0.606176 -0.746185 1 
0.130174 0.230295 0.0524724 -0.283231 -0.63527 -0.718479 1 
0.130024 0.2298 0.0522028 -0.285718 -0.617726 -0.732652 1 
0.13005 0.230309 0.0521816 -0.272386 -0.629196 -0.727955 1 
0.129442 0.230059 0.0520497 -0.201252 -0.519019 -0.830733 1 
0.129337 0.230924 0.0524104 -0.189715 -0.491466 -0.849982 1 
0.129233 0.231209 0.0525023 -0.185583 -0.470638 -0.862589 1 
0.130002 0.230692 0.0523575 -0.271664 -0.624352 -0.732382 1 
0.129739 0.230693 0.0520569 -0.36784 -0.816893 -0.444275 1 
0.128672 0.230576 0.0521946 -0.18888 -0.477406 -0.858142 1 
0.12898 0.230529 0.0519241 -0.185583 -0.470638 -0.862589 1 
0.129175 0.231222 0.0522866 -0.185583 -0.470638 -0.862589 1 
0.129428 0.230964 0.0520639 -0.372296 -0.806908 -0.458579 1 
0.129145 0.231163 0.051781 -0.185583 -0.470638 -0.862589 1 
0.129255 0.231586 0.0516857 -0.185323 -0.472945 -0.861382 1 
0.129941 0.232313 0.0510848 -0.484905 -0.864145 0.134615 1 
0.134134 0.22918 0.0512546 -0.34973 -0.124806 -0.9285 1 
0.133982 0.229379 0.0511219 -0.288687 -0.262835 -0.92064 1 
0.133253 0.229855 0.0517635 -0.295624 -0.580062 -0.759035 1 
0.132926 0.229631 0.0516511 -0.279285 -0.620811 -0.732525 1 
0.13296 0.230153 0.0514894 -0.279285 -0.620811 -0.732525 1 
0.133638 0.229597 0.051691 -0.234399 -0.497907 -0.834952 1 
0.133447 0.230192 0.0515938 -0.295624 -0.580062 -0.759035 1 
0.133463 0.2308 0.0515815 -0.282512 -0.547663 -0.787561 1 
0.133865 0.230568 0.051228 -0.276313 -0.464637 -0.841287 1 
0.13333 0.230444 0.0508991 -0.282512 -0.547663 -0.787561 1 
0.133433 0.230741 0.0510759 -0.290158 -0.556533 -0.778511 1 
0.133795 0.230906 0.0507578 -0.28467 -0.435468 -0.854009 1 
0.12749 0.229797 0.0528314 -0.163346 -0.487096 -0.857937 1 
0.127382 0.230419 0.0525282 -0.153396 -0.480639 -0.863398 1 
0.127427 0.230729 0.0524894 -0.153396 -0.480639 -0.863398 1 
0.127745 0.232322 0.0519486 -0.153396 -0.480639 -0.863398 1 
0.128684 0.231521 0.0517871 -0.183077 -0.483741 -0.855849 1 
0.128746 0.231858 0.0514672 -0.183077 -0.483741 -0.855849 1 
0.12881 0.232083 0.051279 -0.183077 -0.483741 -0.855849 1 
0.128529 0.232057 0.0512594 -0.153396 -0.480639 -0.863398 1 
0.128434 0.231886 0.0508104 -0.153396 -0.480639 -0.863398 1 
0.128408 0.232315 0.0516324 -0.153396 -0.480639 -0.863398 1 
0.128632 0.232354 0.0514362 -0.153396 -0.480639 -0.863398 1 
0.128826 0.232691 0.0512666 -0.153396 -0.480639 -0.863398 1 
0.128434 0.232355 0.0512108 -0.153396 -0.480639 -0.863398 1 
0.128553 0.232678 0.0511065 -0.153396 -0.480639 -0.863398 1 
0.12799 0.232739 0.0509358 -0.153396 -0.480639 -0.863398 1 
0.128579 0.232719 0.050685 -0.153954 -0.485321 -0.860675 1 
0.129131 0.23287 0.0507328 -0.153954 -0.485321 -0.860675 1 
0.128859 0.232857 0.0505728 -0.153954 -0.485321 -0.860675 1 
0.129383 0.233193 0.0507789 -0.153901 -0.491017 -0.857448 1 
0.128961 0.233154 0.0507496 -0.150329 -0.483095 -0.862566 1 
0.131299 0.226531 0.0597254 -0.948893 -0.106899 -0.296942 1 
0.130804 0.225898 0.0594928 -0.948145 -0.104468 -0.30018 1 
0.131056 0.226221 0.0595388 -0.948145 -0.104468 -0.30018 1 
0.131761 0.226061 0.059851 -0.948145 -0.104468 -0.30018 1 
0.131324 0.226571 0.0593038 -0.947337 -0.109971 -0.300763 1 
0.131409 0.226017 0.0588292 -0.947337 -0.109971 -0.300763 1 
0.131399 0.226116 0.058838 -0.947337 -0.109971 -0.300763 1 
0.131573 0.226651 0.0586861 -0.947337 -0.109971 -0.300763 1 
0.131753 0.22533 0.0578596 -0.944167 -0.124904 -0.304873 1 
0.132089 0.225567 0.0578315 -0.946857 -0.121529 -0.297813 1 
0.131599 0.226691 0.0582645 -0.947337 -0.109971 -0.300763 1 
0.131625 0.226731 0.0578429 -0.947337 -0.109971 -0.300763 1 
0.132222 0.224986 0.0577131 -0.95974 -0.124048 -0.252013 1 
0.132442 0.225363 0.0571218 -0.961194 -0.166993 -0.219589 1 
0.1322 0.225878 0.0578678 -0.942624 -0.122366 -0.310622 1 
0.132303 0.225706 0.0576442 -0.946268 -0.124474 -0.298469 1 
0.132478 0.22566 0.0572235 -0.960566 -0.169977 -0.220047 1 
0.132226 0.225918 0.0574462 -0.946268 -0.124474 -0.298469 1 
0.131848 0.226771 0.0576467 -0.9552 -0.144406 -0.258341 1 
0.132569 0.226281 0.0571458 -0.952728 -0.159458 -0.258617 1 
0.132444 0.226876 0.0571236 -0.951265 -0.154295 -0.266998 1 
0.131759 0.225568 0.0574558 -0.960055 -0.126701 -0.249484 1 
0.132585 0.224213 0.0565941 -0.936992 -0.302211 -0.175255 1 
0.132761 0.224636 0.0565739 -0.947603 -0.214681 -0.236559 1 
0.132637 0.22465 0.0562831 -0.943599 -0.257596 -0.208005 1 
0.132533 0.224934 0.056375 -0.94931 -0.211109 -0.232901 1 
0.132749 0.224848 0.056451 -0.94594 -0.223786 -0.234769 1 
0.132691 0.225443 0.0565041 -0.953371 -0.200923 -0.225195 1 
0.132493 0.225443 0.0562786 -0.950389 -0.191162 -0.245393 1 
0.131775 0.226176 0.0574434 -0.949263 -0.163387 -0.26871 1 
0.131991 0.225621 0.0571191 -0.961665 -0.161371 -0.221721 1 
0.132185 0.225958 0.0569494 -0.961665 -0.161371 -0.221721 1 
0.132222 0.226256 0.0570511 -0.954983 -0.161162 -0.249068 1 
0.132024 0.226256 0.0568257 -0.963978 -0.152619 -0.217841 1 
0.131919 0.226653 0.0567859 -0.949263 -0.163387 -0.26871 1 
0.132277 0.225998 0.056603 -0.957421 -0.1713 -0.232384 1 
0.132914 0.225013 0.0559075 -0.94164 -0.228151 -0.247509 1 
0.132911 0.225351 0.0555125 -0.939435 -0.220635 -0.262265 1 
0.132922 0.225608 0.0560357 -0.947603 -0.214681 -0.236559 1 
0.131383 0.228184 0.0593896 -0.956353 -0.0892942 -0.278235 1 
0.13158 0.227827 0.059083 -0.948932 -0.101342 -0.298762 1 
0.131862 0.227272 0.0588338 -0.947337 -0.109971 -0.300763 1 
0.131683 0.227543 0.0589911 -0.947337 -0.109971 -0.300763 1 
0.131483 0.228237 0.0589026 -0.952139 -0.0927324 -0.291258 1 
0.131544 0.226948 0.0587126 -0.947337 -0.109971 -0.300763 1 
0.131738 0.227285 0.0585429 -0.947337 -0.109971 -0.300763 1 
0.131634 0.22757 0.0586349 -0.947337 -0.109971 -0.300763 1 
0.13157 0.226988 0.058291 -0.947337 -0.109971 -0.300763 1 
0.131764 0.227325 0.0581214 -0.947337 -0.109971 -0.300763 1 
0.131595 0.227029 0.0578694 -0.947337 -0.109971 -0.300763 1 
0.131735 0.227623 0.0581479 -0.947337 -0.109971 -0.300763 1 
0.131462 0.22761 0.0579878 -0.947337 -0.109971 -0.300763 1 
0.131512 0.227939 0.0588761 -0.948932 -0.101342 -0.298762 1 
0.131548 0.22788 0.0584457 -0.947337 -0.109971 -0.300763 1 
0.131658 0.228303 0.0583503 -0.947337 -0.109971 -0.300763 1 
0.131354 0.22895 0.0598166 -0.962319 -0.0538098 -0.266546 1 
0.131139 0.228455 0.0594718 -0.957945 -0.0729011 -0.277536 1 
0.131015 0.228937 0.0595814 -0.961483 -0.0592263 -0.268409 1 
0.131324 0.229247 0.0598431 -0.959777 -0.0594328 -0.274402 1 
0.130958 0.228951 0.0593657 -0.960991 -0.0644028 -0.268977 1 
0.13123 0.228495 0.0591253 -0.956312 -0.083887 -0.280054 1 
0.131797 0.22796 0.057828 -0.947337 -0.109971 -0.300763 1 
0.131916 0.228284 0.0577237 -0.9552 -0.144406 -0.258341 1 
0.131962 0.228594 0.0576849 -0.9552 -0.144406 -0.258341 1 
0.131699 0.228951 0.0579164 -0.952139 -0.0927324 -0.291258 1 
0.13209 0.228932 0.0574401 -0.957877 -0.138345 -0.251657 1 
0.131434 0.227326 0.0577456 -0.947337 -0.109971 -0.300763 1 
0.131236 0.227327 0.0575202 -0.9552 -0.144406 -0.258341 1 
0.131546 0.227056 0.0575132 -0.9552 -0.144406 -0.258341 1 
0.130972 0.227328 0.0572196 -0.9552 -0.144406 -0.258341 1 
0.131795 0.227135 0.0568955 -0.9552 -0.144406 -0.258341 1 
0.131533 0.227961 0.0575274 -0.9552 -0.144406 -0.258341 1 
