0.126687 0.213515 0.0448838 0.48761 0.310871 0.81584 1 
0.126976 0.213552 0.0448124 0.465921 0.31532 0.826735 1 
0.127081 0.213286 0.0446771 0.468073 0.308396 0.82813 1 
0.126051 0.212565 0.0455925 0.462229 0.332868 0.821915 1 
0.126567 0.212988 0.045382 0.477667 0.320021 0.818182 1 
0.126487 0.213093 0.0451128 0.477667 0.320021 0.818182 1 
0.126872 0.213143 0.0450176 0.461989 0.326388 0.824643 1 
0.127135 0.213216 0.0448565 0.453175 0.31832 0.83265 1 
0.126936 0.21292 0.0455798 0.456054 0.332967 0.825316 1 
0.126952 0.213038 0.0452868 0.457835 0.328823 0.825992 1 
0.127241 0.213075 0.0452155 0.454158 0.32844 0.828171 1 
0.125971 0.21267 0.0453234 0.460063 0.321887 0.827485 1 
0.129312 0.21641 0.0418936 -0.910215 0.411795 0.0439782 1 
0.128489 0.216724 0.0429301 0.444291 0.328116 0.833634 1 
0.128842 0.216994 0.0428196 -0.858978 0.490217 0.147797 1 
0.126884 0.215834 0.0439511 0.19018 0.446701 0.874237 1 
0.127643 0.216305 0.0439096 -0.0290536 0.554785 0.831486 1 
0.127742 0.216225 0.0438486 -0.242935 0.606554 0.757017 1 
0.127679 0.215774 0.0433563 -0.325968 0.64707 0.689235 1 
0.126859 0.215995 0.0443556 -0.873719 0.440568 0.206192 1 
0.126894 0.215681 0.0443338 -0.878722 0.41922 0.228259 1 
0.127192 0.21544 0.0441509 -0.137805 0.573448 0.807569 1 
0.127481 0.215478 0.0440795 0.112266 0.467539 0.876814 1 
0.127088 0.215032 0.0443561 0.411734 0.313041 0.855851 1 
0.127377 0.215069 0.0442847 -0.875126 0.426343 0.228879 1 
0.127578 0.214816 0.0441255 0.459235 0.300449 0.835963 1 
0.127936 0.214901 0.0439407 0.0341595 0.495997 0.867652 1 
0.127964 0.214191 0.0441002 0.411432 0.306648 0.858307 1 
0.128146 0.214369 0.04367 0.406467 0.32301 0.854663 1 
0.127989 0.213356 0.0437655 0.426054 0.290701 0.856721 1 
0.128291 0.21621 0.0431219 -0.686002 0.596307 0.416916 1 
0.128647 0.216387 0.0429742 -0.524421 0.612105 0.59187 1 
0.128386 0.21564 0.0432051 -0.232828 0.601601 0.764112 1 
0.128675 0.215678 0.0431338 -0.201991 0.605972 0.769414 1 
0.127235 0.214392 0.0446187 0.467462 0.284204 0.837083 1 
0.127439 0.214046 0.0444224 0.461758 0.290736 0.838005 1 
0.127675 0.214153 0.0441716 0.395814 0.30412 0.866512 1 
0.127616 0.213278 0.0447376 0.42858 0.307896 0.849423 1 
0.127624 0.213674 0.0445562 0.403191 0.287559 0.868762 1 
0.127852 0.213386 0.0444868 0.394106 0.290634 0.871902 1 
0.127833 0.213817 0.0442157 0.371689 0.270183 0.888171 1 
0.127981 0.213634 0.0438771 0.416203 0.282043 0.864423 1 
0.128061 0.213529 0.0441463 0.418403 0.292729 0.859796 1 
0.128323 0.213601 0.0439852 0.423445 0.282806 0.860648 1 
0.128141 0.213423 0.0444154 0.427859 0.30429 0.851084 1 
0.128526 0.213473 0.0443203 0.431179 0.298271 0.851539 1 
0.127696 0.213173 0.0450068 0.42858 0.307896 0.849423 1 
0.127932 0.21328 0.044756 0.407522 0.291524 0.865413 1 
0.127584 0.213042 0.0453235 0.464202 0.319434 0.826122 1 
0.128518 0.213077 0.0445017 0.431179 0.298271 0.851539 1 
0.128861 0.213044 0.0446098 0.414688 0.30986 0.855582 1 
0.129895 0.215386 0.042879 -0.93585 0.325572 0.13486 1 
0.129864 0.214714 0.042402 0.44746 0.371025 0.813708 1 
0.127024 0.213106 0.0435091 0.749286 0.334994 0.57127 1 
0.128206 0.21322 0.0433134 0.485564 0.274584 0.829958 1 
0.128516 0.212951 0.0440074 0.435888 0.30869 0.845406 1 
0.128781 0.213149 0.0443406 0.422391 0.307896 0.852517 1 
0.127994 0.212932 0.0448239 0.403191 0.287559 0.868762 1 
0.12779 0.212603 0.04509 0.438077 0.301855 0.846742 1 
0.127802 0.212232 0.0449413 0.429617 0.242696 0.869786 1 
0.128371 0.212585 0.0449101 0.439545 0.30908 0.843368 1 
0.128666 0.212437 0.0447644 0.402409 0.340261 0.849876 1 
0.127719 0.210738 0.0438232 -0.539172 -0.439633 0.718343 1 
0.128643 0.212618 0.0435047 0.490735 0.0453621 0.870127 1 
0.128967 0.212342 0.0434115 0.131271 -0.205191 0.969879 1 
0.129075 0.213001 0.0441949 0.410532 0.32068 0.853597 1 
0.129176 0.213046 0.0446282 0.355271 0.352195 0.865876 1 
0.128886 0.212209 0.0442751 0.320049 0.198797 0.926309 1 
0.128966 0.212103 0.0445443 0.292462 0.286642 0.912306 1 
0.12921 0.211933 0.0441819 0.160377 0.0334598 0.986489 1 
0.12929 0.211827 0.044451 0.197703 0.227291 0.953547 1 
0.129505 0.211784 0.0440361 -0.00540805 -0.109243 0.994 1 
0.129 0.21099 0.0440979 -0.0365755 -0.470062 0.881875 1 
0.129993 0.211443 0.0433113 -0.220022 -0.487083 0.845187 1 
0.130445 0.211177 0.0437412 -0.195014 -0.252291 0.947797 1 
0.130173 0.210583 0.0435894 -0.253919 -0.410177 0.875945 1 
0.131465 0.213526 0.0427976 0.225739 0.396887 0.889676 1 
0.13181 0.213618 0.0434 0.347726 0.612194 0.710145 1 
0.131579 0.212307 0.0426205 0.191894 0.624807 0.756831 1 
0.13123 0.212744 0.0431183 0.191429 0.52304 0.830533 1 
0.131759 0.213139 0.0437846 0.183813 0.578782 0.794496 1 
0.131748 0.212836 0.0440032 0.172528 0.676372 0.716069 1 
0.131722 0.212653 0.043382 0.169263 0.690778 0.702977 1 
0.13059 0.210868 0.0429083 -0.254641 -0.627904 0.735455 1 
0.131602 0.211565 0.042323 0.292461 0.877383 0.380351 1 
0.131577 0.211725 0.0427275 0.122542 0.600897 0.789877 1 
0.130582 0.211147 0.0430198 -0.283543 -0.460176 0.841333 1 
0.130557 0.211307 0.0434244 -0.209583 -0.245198 0.946548 1 
0.130659 0.211134 0.0433262 -0.240955 -0.376954 0.894341 1 
0.13096 0.2108 0.0431061 -0.2595 -0.4325 0.863483 1 
0.132088 0.213809 0.0429459 0.0981327 0.413263 0.905309 1 
0.131923 0.213074 0.0431531 0.196335 0.660119 0.725049 1 
0.132121 0.212913 0.0430311 0.104563 0.670084 0.734884 1 
0.132011 0.21269 0.0433107 0.161784 0.766583 0.621431 1 
0.126516 0.212509 0.0457666 0.452792 0.35429 0.818204 1 
0.1272 0.211643 0.0455583 0.49833 0.26857 0.82434 1 
0.127489 0.211006 0.0455568 0.427984 0.0697355 0.901092 1 
0.12762 0.212054 0.0453715 -0.396634 -0.255941 0.881576 1 
0.127909 0.212091 0.0453002 0.464464 0.325912 0.82344 1 
0.128356 0.211118 0.0453427 0.185057 -0.0412547 0.981862 1 
0.128267 0.212176 0.0451153 0.436417 0.277163 0.855991 1 
0.128754 0.212053 0.044922 0.347048 0.301976 0.887901 1 
0.128495 0.211888 0.0450459 0.370516 0.226996 0.900661 1 
0.128653 0.211552 0.04509 0.258557 0.0990491 0.960905 1 
0.129066 0.210892 0.0451544 -0.0605397 -0.235981 0.96987 1 
0.127972 0.210394 0.0455077 -0.0789219 -0.359831 0.929674 1 
0.128397 0.210619 0.0452465 -0.0267804 -0.340494 0.939865 1 
0.128297 0.209443 0.0454843 -0.101047 -0.343561 0.933678 1 
0.128686 0.210656 0.0451751 -0.0712137 -0.306866 0.949085 1 
0.128858 0.210074 0.0455647 -0.131149 -0.360315 0.923565 1 
0.129497 0.2098 0.0454899 -0.172036 -0.373929 0.911362 1 
0.130244 0.210756 0.0439701 -0.231867 -0.391367 0.890545 1 
0.129991 0.210405 0.0440196 -0.200669 -0.508461 0.837376 1 
0.129653 0.210013 0.0449699 -0.142829 -0.397377 0.906472 1 
0.129733 0.209908 0.0452391 -0.192048 -0.385541 0.902483 1 
0.128997 0.209713 0.045939 -0.139466 -0.349356 0.926553 1 
0.129813 0.209803 0.0455083 -0.171338 -0.407467 0.897003 1 
0.130821 0.211723 0.044289 0.178572 0.630345 0.755498 1 
0.130886 0.211281 0.0443197 0.0977392 0.602482 0.792125 1 
0.132238 0.210232 0.0446206 0.140023 -0.706137 -0.694092 1 
0.132571 0.210477 0.0448403 0.264728 -0.610301 -0.746627 1 
0.132446 0.211049 0.0442103 0.199263 -0.656487 -0.727543 1 
0.132526 0.210944 0.0444795 0.229413 -0.619573 -0.750666 1 
0.132706 0.21054 0.0441562 0.265235 -0.627352 -0.732175 1 
0.132832 0.210425 0.044185 0.328184 -0.580384 -0.745285 1 
0.132807 0.210585 0.0445895 0.309484 -0.569259 -0.761685 1 
0.132912 0.210319 0.0444541 0.34778 -0.54189 -0.765117 1 
0.13338 0.210627 0.0439897 0.473101 -0.352038 -0.807617 1 
0.133672 0.210572 0.0438812 0.505099 -0.30876 -0.805942 1 
0.133367 0.210417 0.0442455 0.477014 -0.367799 -0.798236 1 
0.126116 0.238086 0.0163428 0.924404 -0.292895 -0.244317 0 
0.126351 0.238412 0.0166235 0.924404 -0.292895 -0.244317 0 
0.126416 0.237971 0.0166542 0.924027 -0.322203 -0.205813 0 
0.126592 0.237878 0.0168996 0.930758 -0.30183 -0.206367 0 
0.127484 0.237934 0.0184394 0.930751 -0.307443 -0.197943 0 
0.127417 0.238012 0.0190472 0.933663 -0.302847 -0.191199 0 
0.127284 0.237513 0.0186684 0.932814 -0.297885 -0.202786 0 
0.127396 0.238318 0.0182818 0.922759 -0.325596 -0.206163 0 
0.126229 0.23776 0.0166274 0.926797 -0.312705 -0.207999 0 
0.126829 0.237311 0.0167186 0.939273 -0.288264 -0.186199 0 
0.126954 0.237413 0.0172788 0.935989 -0.29813 -0.187198 0 
0.127278 0.237137 0.0171856 0.941322 -0.287206 -0.177271 0 
0.127185 0.236814 0.0166407 0.940587 -0.282314 -0.188668 0 
0.126797 0.2364 0.0173743 0.955252 -0.236475 -0.17769 0 
0.127345 0.236603 0.0171791 0.943365 -0.27326 -0.188124 0 
0.127317 0.237074 0.0181523 0.939773 -0.282898 -0.191819 0 
0.127352 0.236761 0.0181304 0.955525 -0.231197 -0.183087 0 
0.127452 0.236462 0.017538 0.955252 -0.236475 -0.17769 0 
0.126989 0.235969 0.017928 -0.162986 -0.551761 -0.817922 0 
0.127532 0.236357 0.0178072 0.954928 -0.229022 -0.188843 0 
0.126555 0.23624 0.0188323 -0.156873 -0.56325 -0.811259 0 
0.126799 0.236069 0.0184699 -0.163115 -0.555188 -0.815573 0 
0.126615 0.235766 0.0184059 -0.150305 -0.56104 -0.814029 0 
0.126371 0.235936 0.0187683 -0.150305 -0.56104 -0.814029 0 
0.126472 0.235981 0.0192015 -0.157369 -0.568026 -0.807825 0 
0.126379 0.235658 0.0186567 -0.14378 -0.558817 -0.816732 0 
0.126682 0.235688 0.0177981 -0.162986 -0.551761 -0.817922 0 
0.126816 0.235512 0.0182467 -0.137633 -0.55793 -0.818396 0 
0.126827 0.235141 0.018098 -0.124774 -0.55341 -0.82351 0 
0.12658 0.235405 0.0184975 -0.137509 -0.563341 -0.814701 0 
0.126687 0.235264 0.0188565 -0.127763 -0.556576 -0.820914 0 
0.126627 0.23472 0.0183269 -0.0935203 -0.553928 -0.827295 0 
0.126907 0.235036 0.0183671 -0.127861 -0.559944 -0.818605 0 
0.127385 0.236997 0.0175445 0.945907 -0.268894 -0.181538 0 
0.12778 0.236893 0.017832 0.942569 -0.273827 -0.191266 0 
0.127879 0.237031 0.0183025 0.939773 -0.282898 -0.191819 0 
0.126191 0.23032 0.0230855 -0.233547 -0.625405 -0.74453 0 
0.126086 0.229912 0.0232907 -0.168762 -0.640079 -0.749546 0 
0.126288 0.229658 0.0231315 0.312337 -0.65866 -0.684553 0 
0.126103 0.235375 0.0190735 -0.127861 -0.559944 -0.818605 0 
0.126245 0.235595 0.0193408 -0.127861 -0.559944 -0.818605 0 
0.125966 0.235405 0.0197948 -0.124872 -0.556783 -0.821218 0 
0.126351 0.235455 0.0196997 -0.137738 -0.561318 -0.816058 0 
0.126317 0.235094 0.0197914 -0.0813156 -0.549237 -0.831701 0 
0.126424 0.234953 0.0201503 -0.0810442 -0.536029 -0.8403 0 
0.126251 0.234735 0.0193362 -0.0753392 -0.541589 -0.83726 0 
0.126499 0.234815 0.0199624 -0.0752105 -0.534988 -0.841506 0 
0.126439 0.234271 0.0194329 -0.0606135 -0.545521 -0.835902 0 
0.126197 0.234567 0.0202895 -0.0663184 -0.53478 -0.842385 0 
0.126582 0.234617 0.0201944 -0.0809017 -0.529409 -0.8445 0 
0.126449 0.234118 0.0198156 -0.0964378 -0.539764 -0.836274 0 
0.126527 0.233887 0.0195905 -0.0723467 -0.548984 -0.832696 0 
0.126359 0.233702 0.0192335 -0.0206302 -0.554265 -0.832085 0 
0.126472 0.233376 0.019518 -0.0040832 -0.559398 -0.828889 0 
0.126228 0.233546 0.0198804 0.00954161 -0.557503 -0.83012 0 
0.126607 0.233782 0.0198596 -0.0040832 -0.559398 -0.828889 0 
0.126698 0.234893 0.0187077 -0.099694 -0.556264 -0.825004 0 
0.126543 0.23468 0.0192277 -0.0753392 -0.541589 -0.83726 0 
0.126647 0.234414 0.0190923 -0.063262 -0.535618 -0.842087 0 
0.126715 0.234336 0.0184845 -0.075402 -0.544886 -0.835113 0 
0.12656 0.234123 0.0190045 -0.0576679 -0.544329 -0.836888 0 
0.126631 0.234296 0.0193853 -0.0842703 -0.538473 -0.838418 0 
0.12664 0.234018 0.0192737 -0.0722879 -0.545703 -0.834855 0 
0.126568 0.233845 0.018893 -0.0606135 -0.545521 -0.835902 0 
0.126808 0.233528 0.0197005 -0.00135801 -0.558142 -0.829744 0 
0.12609 0.233576 0.0206017 0.173096 -0.558424 -0.811295 0 
0.126197 0.233436 0.0209606 0.247621 -0.543519 -0.802042 0 
0.126125 0.233937 0.02051 0.0460864 -0.554433 -0.830951 0 
0.126574 0.234221 0.0203758 -0.0751602 -0.540303 -0.838107 0 
0.12677 0.233696 0.0208923 0.216632 -0.545422 -0.809682 0 
0.126374 0.233799 0.0206047 0.0433644 -0.560939 -0.826721 0 
0.126334 0.233406 0.0202393 0.176445 -0.559495 -0.809835 0 
0.126618 0.233629 0.0202423 0.0178259 -0.558088 -0.82959 0 
0.126728 0.233177 0.0200326 0.219734 -0.548567 -0.806716 0 
0.126454 0.233694 0.0208739 0.216632 -0.545422 -0.809682 0 
0.126479 0.233533 0.0204694 0.196638 -0.553331 -0.809418 0 
0.126808 0.233072 0.0203018 0.305464 -0.517548 -0.799272 0 
0.126251 0.233365 0.0211401 0.271746 -0.535637 -0.799529 0 
0.126534 0.233588 0.0211431 0.247621 -0.543519 -0.802042 0 
0.126829 0.23344 0.0209974 0.281137 -0.52615 -0.802576 0 
0.126599 0.232929 0.0206423 0.302614 -0.527595 -0.793769 0 
0.126614 0.233483 0.0214123 0.271746 -0.535637 -0.799529 0 
0.12651 0.233074 0.0216175 0.357886 -0.495904 -0.7912 0 
0.126746 0.233182 0.0213666 0.312485 -0.515521 -0.797867 0 
0.127632 0.233101 0.0202909 0.437236 -0.473263 -0.764753 0 
0.126175 0.233399 0.0191695 0.0122856 -0.547392 -0.836786 0 
0.12632 0.233308 0.0188681 0.015072 -0.563145 -0.82622 0 
0.1264 0.233203 0.0191373 0.029052 -0.563056 -0.825908 0 
0.12663 0.233039 0.0195621 0.186284 -0.546737 -0.816319 0 
0.126831 0.232786 0.019403 0.236241 -0.535788 -0.81063 0 
0.126854 0.232605 0.0206626 0.481948 -0.45563 -0.748417 0 
0.126889 0.232292 0.0206408 -0.53744 -0.530701 -0.655374 0 
0.126976 0.231783 0.0203041 -0.47737 -0.554419 -0.681717 0 
0.126978 0.231908 0.0207984 -0.292626 -0.593246 -0.749953 0 
0.126959 0.231665 0.0205971 -0.368279 -0.577789 -0.728375 0 
0.126767 0.230965 0.0207145 -0.281242 -0.592674 -0.754745 0 
0.126999 0.232971 0.0197599 0.219742 -0.539368 -0.812893 0 
0.126983 0.232853 0.0200529 0.305464 -0.517548 -0.799272 0 
0.127221 0.232868 0.0197649 0.253459 -0.533353 -0.807027 0 
0.127283 0.23252 0.0198328 0.483732 -0.441098 -0.755934 0 
0.12709 0.232713 0.0204118 0.489365 -0.456411 -0.743109 0 
0.126991 0.232575 0.0199413 0.483732 -0.441098 -0.755934 0 
0.127197 0.232354 0.0202393 0.749248 -0.295546 -0.592689 0 
0.127092 0.23262 0.0203746 0.476152 -0.459676 -0.749651 0 
0.12716 0.232086 0.0203681 -0.477161 -0.550828 -0.684767 0 
0.126502 0.232678 0.0217989 0.607142 -0.383372 -0.695992 0 
0.126436 0.232319 0.0213437 0.556634 -0.411282 -0.721807 0 
0.126262 0.231863 0.0216624 -0.390185 -0.574577 -0.719456 0 
0.126115 0.232046 0.022001 0.671839 -0.34491 -0.655492 0 
0.125854 0.231081 0.0217004 0.776114 -0.259754 -0.574608 0 
0.126857 0.231381 0.0212965 -0.171707 -0.606294 -0.776482 0 
0.126839 0.231138 0.0210952 -0.188412 -0.605064 -0.773562 0 
0.127058 0.231802 0.0210676 -0.188211 -0.598297 -0.778857 0 
0.126847 0.231534 0.0209138 -0.243023 -0.594231 -0.7667 0 
0.126911 0.231311 0.021476 -0.188412 -0.605064 -0.773562 0 
0.126919 0.231032 0.0213644 -0.17102 -0.594787 -0.785481 0 
0.125949 0.231312 0.0222081 -0.292345 -0.602262 -0.742843 0 
0.126151 0.231058 0.022049 -0.185026 -0.619302 -0.763041 0 
0.126729 0.231133 0.0219063 -0.178105 -0.610428 -0.771788 0 
0.126309 0.230722 0.0220931 -0.17514 -0.625935 -0.759955 0 
0.1266 0.230885 0.022516 -0.198865 -0.633593 -0.747671 0 
0.126833 0.230867 0.0217709 -0.11638 -0.59663 -0.794033 0 
0.125876 0.230339 0.0214029 -0.480682 -0.567774 -0.668265 0 
0.126847 0.23086 0.0209837 -0.201991 -0.605972 -0.769414 0 
0.126928 0.230754 0.0212528 -0.144763 -0.592485 -0.792468 0 
0.126258 0.230699 0.0218764 -0.178353 -0.620425 -0.763717 0 
0.127034 0.230613 0.0216118 -0.154789 -0.590602 -0.791978 0 
0.127046 0.230242 0.021463 -0.498237 -0.704864 -0.504903 0 
0.126916 0.230669 0.0220029 -0.100435 -0.580775 -0.807845 0 
0.127088 0.230543 0.0217912 -0.47111 -0.714156 -0.517722 0 
0.127195 0.230403 0.0221501 -0.340305 -0.692007 -0.636647 0 
0.126933 0.230112 0.0217797 -0.419776 -0.681928 -0.598968 0 
0.127629 0.231263 0.0205748 -0.161125 -0.594807 -0.787555 0 
0.126452 0.231068 0.0228546 -0.212609 -0.637827 -0.740252 0 
0.126744 0.231012 0.022746 -0.113913 -0.637617 -0.761885 0 
0.126576 0.23037 0.0229903 -0.332595 -0.618139 -0.712239 0 
0.126697 0.230222 0.022562 -0.322169 -0.636243 -0.701001 0 
0.126777 0.230117 0.0228312 -0.237144 -0.629766 -0.739701 0 
0.127259 0.229961 0.0221808 -0.2341 -0.652023 -0.721154 0 
0.127374 0.230217 0.0223583 -0.199896 -0.677166 -0.708158 0 
0.127436 0.229868 0.0224262 -0.110492 -0.63496 -0.764603 0 
0.12781 0.229614 0.0225496 -0.0765587 -0.637026 -0.767031 0 
0.127316 0.22958 0.0217916 -0.247713 -0.66425 -0.705273 0 
0.127589 0.229499 0.0220132 -0.107556 -0.652701 -0.749943 0 
0.126432 0.229786 0.0233616 0.27597 -0.668389 -0.690722 0 
0.126569 0.229081 0.0227101 -0.203176 -0.662262 -0.721199 0 
0.128225 0.230211 0.0224372 -0.149714 -0.672956 -0.724373 0 
0.127958 0.229431 0.022211 -0.0647781 -0.654979 -0.752866 0 
0.128256 0.22919 0.0220281 -0.05277 -0.657486 -0.751616 0 
0.126598 0.228715 0.0238954 -0.0955078 -0.712635 -0.695003 0 
0.126392 0.228023 0.0248 0.763852 -0.453077 -0.45962 0 
0.126311 0.22789 0.0256636 0.233172 -0.630659 -0.740203 0 
0.126379 0.227812 0.0250558 0.0353632 -0.6719 -0.739797 0 
0.126552 0.227812 0.0253384 0.0678565 -0.668459 -0.740647 0 
0.126536 0.227694 0.0256313 0.301261 -0.639575 -0.707238 0 
0.126102 0.227747 0.0260041 0.291453 -0.581314 -0.75969 0 
0.126111 0.227468 0.0258925 0.269797 -0.56326 -0.780991 0 
0.126108 0.227561 0.0259297 0.269797 -0.56326 -0.780991 0 
0.127473 0.227854 0.0253038 0.01537 -0.705625 -0.708419 0 
0.125555 0.226651 0.0257377 0.935385 0.30348 0.181534 0 
0.125862 0.227389 0.0252664 0.296638 -0.623741 -0.723155 0 
0.126328 0.227333 0.0254404 0.289321 -0.618603 -0.730495 0 
0.125902 0.22609 0.0247457 0.935385 0.30348 0.181534 0 
0.126254 0.226578 0.0251667 0.318435 -0.54886 -0.772885 0 
0.126826 0.227513 0.0250285 0.104747 -0.665366 -0.739132 0 
0.127054 0.227225 0.0249591 0.993047 -0.071174 0.0937689 0 
0.126923 0.226851 0.0250745 0.286899 -0.639513 -0.713241 0 
0.126931 0.226573 0.024963 0.357449 -0.599012 -0.71653 0 
0.126146 0.227155 0.0258707 0.272608 -0.549943 -0.78946 0 
0.126076 0.227107 0.0259842 0.935385 0.30348 0.181534 0 
0.126459 0.22725 0.0259262 0.261982 -0.560046 -0.785947 0 
0.126422 0.226764 0.0255236 0.935385 0.30348 0.181534 0 
0.126226 0.227049 0.0261399 0.935385 0.30348 0.181534 0 
0.126565 0.227109 0.0262852 0.935385 0.30348 0.181534 0 
0.126711 0.226801 0.0254523 0.318435 -0.54886 -0.772885 0 
0.126668 0.226718 0.0256555 0.935385 0.30348 0.181534 0 
0.126766 0.226856 0.026126 0.93918 0.293752 0.177906 0 
0.126912 0.226548 0.0252931 0.336097 -0.541936 -0.770289 0 
0.127017 0.226282 0.0251578 0.93918 0.293752 0.177906 0 
0.126703 0.226405 0.0256337 0.93918 0.293752 0.177906 0 
0.126783 0.226299 0.0259029 0.941863 0.281871 0.182873 0 
0.127001 0.226164 0.0254507 0.939796 0.290332 0.180254 0 
0.126888 0.226033 0.0257675 0.987489 0.157685 0.00111833 0 
0.12607 0.226836 0.0266599 0.942099 0.288509 0.170918 0 
0.126648 0.226911 0.0265172 0.940259 0.290475 0.177589 0 
0.126186 0.226417 0.0269072 0.243256 -0.528346 -0.813436 0 
0.126809 0.2267 0.0270555 0.415719 -0.454541 -0.787763 0 
0.126638 0.226608 0.0267357 0.93945 0.283634 0.192317 0 
0.126943 0.226763 0.0263714 0.940259 0.290475 0.177589 0 
0.12705 0.226622 0.0267303 0.93945 0.283634 0.192317 0 
0.127169 0.225674 0.0258775 0.303897 -0.489699 -0.817215 0 
0.126968 0.225928 0.0260367 0.303897 -0.489699 -0.817215 0 
0.126979 0.225775 0.0264194 0.257656 -0.535611 -0.804198 0 
0.127103 0.226552 0.0269098 0.303897 -0.489699 -0.817215 0 
0.127175 0.226725 0.0272905 0.256339 -0.523553 -0.812516 0 
0.127255 0.226619 0.0275597 0.226691 -0.550536 -0.803443 0 
0.127137 0.225439 0.0264635 0.19305 -0.55787 -0.807163 0 
0.127057 0.225544 0.0261943 0.233122 -0.532629 -0.81361 0 
0.126996 0.225218 0.0261962 0.17352 -0.55979 -0.810263 0 
0.127076 0.225113 0.0264654 0.146809 -0.553131 -0.820057 0 
0.127121 0.225321 0.0267564 0.187141 -0.56751 -0.801817 0 
0.127181 0.224847 0.0263301 0.118496 -0.56322 -0.817766 0 
0.127156 0.225007 0.0267346 0.125034 -0.572215 -0.810516 0 
0.127236 0.224902 0.0270038 0.112584 -0.577543 -0.80856 0 
0.127261 0.224741 0.0265992 0.119035 -0.574601 -0.809731 0 
0.127352 0.224265 0.0267196 0.100435 -0.580775 -0.807845 0 
0.126671 0.224124 0.0280933 -0.0151769 -0.58638 -0.809894 0 
0.12715 0.224736 0.0274103 0.0973867 -0.582867 -0.806711 0 
0.127159 0.224458 0.0272987 0.100435 -0.580775 -0.807845 0 
0.127265 0.224317 0.0276576 0.0730456 -0.582932 -0.809231 0 
0.12714 0.224215 0.0270974 0.100435 -0.580775 -0.807845 0 
0.127223 0.224016 0.0273294 0.0882858 -0.589055 -0.803256 0 
0.127291 0.223482 0.0273229 -0.0792521 -0.595111 -0.799726 0 
0.127298 0.224553 0.0270717 0.0973867 -0.582867 -0.806711 0 
0.12733 0.223876 0.0276883 0.0235845 -0.595161 -0.80326 0 
0.127371 0.223377 0.027592 -0.116039 -0.591944 -0.797582 0 
0.127148 0.223698 0.0281186 -0.069961 -0.586815 -0.806693 0 
0.127215 0.223163 0.0281121 -0.134478 -0.568947 -0.811304 0 
0.12717 0.222955 0.027821 0.962146 -0.177688 -0.206644 0 
0.127648 0.227417 0.0245234 -0.0955144 -0.700929 -0.706807 0 
0.127078 0.227064 0.0245546 0.523273 -0.664608 -0.533369 0 
0.127149 0.226437 0.0245109 0.995522 -0.0843292 0.0427122 0 
0.124829 0.219722 0.0292571 0.905518 -0.228931 -0.35725 0 
0.126082 0.222833 0.0296571 0.905333 -0.301778 -0.298834 0 
0.126189 0.222692 0.0300161 0.905286 -0.29293 -0.30765 0 
0.127039 0.223361 0.0300251 0.944151 -0.227423 -0.23845 0 
0.126652 0.223186 0.029626 0.933868 -0.245755 -0.259798 0 
0.126615 0.2227 0.0292234 0.909743 -0.287672 -0.299354 0 
0.127033 0.222985 0.0285423 0.943427 -0.22174 -0.246531 0 
0.127113 0.22288 0.0288115 0.943051 -0.219539 -0.249915 0 
0.126874 0.222522 0.0280738 0.922584 -0.262571 -0.282658 0 
0.126999 0.222624 0.028634 0.918387 -0.272489 -0.286906 0 
0.126886 0.222494 0.0289507 0.903966 -0.296406 -0.308204 0 
0.126718 0.222309 0.0285938 0.905318 -0.295884 -0.304717 0 
0.127087 0.222241 0.0287916 0.905286 -0.29293 -0.30765 0 
0.126628 0.221436 0.028613 0.910504 -0.284989 -0.299604 0 
0.127021 0.221882 0.0283365 0.925344 -0.263773 -0.272328 0 
0.126812 0.221739 0.028677 0.920124 -0.26063 -0.292309 0 
0.126837 0.221579 0.0282724 0.924207 -0.264263 -0.275691 0 
0.12687 0.222376 0.0292437 0.901153 -0.294465 -0.318141 0 
0.127167 0.222135 0.0290608 0.903871 -0.290477 -0.314069 0 
0.126784 0.22221 0.0296502 0.897999 -0.286469 -0.333966 0 
0.127082 0.22197 0.0294673 0.899455 -0.285988 -0.330442 0 
0.1267 0.221609 0.0289937 0.906464 -0.283546 -0.312929 0 
0.127096 0.221506 0.0292813 0.907457 -0.26157 -0.328789 0 
0.126962 0.222813 0.0281616 0.935438 -0.237015 -0.262259 0 
0.126479 0.222055 0.0300145 0.903047 -0.269588 -0.334407 0 
0.126165 0.220704 0.0301358 0.904169 -0.213343 -0.370085 0 
0.127039 0.221887 0.0296705 0.899186 -0.279977 -0.336269 0 
0.126953 0.221721 0.030077 0.908465 -0.255187 -0.331014 0 
0.127149 0.221435 0.0294607 0.906853 -0.252634 -0.337332 0 
0.127256 0.221295 0.0298197 0.898059 -0.255114 -0.358339 0 
0.127007 0.220976 0.0303263 0.902659 -0.213673 -0.373564 0 
0.126962 0.220768 0.0300352 0.898882 -0.220701 -0.378553 0 
0.127087 0.220871 0.0305954 0.912233 -0.199686 -0.35771 0 
0.127192 0.220605 0.0304601 0.912803 -0.193451 -0.359676 0 
0.127176 0.220487 0.030753 0.913336 -0.178108 -0.366189 0 
0.12603 0.22008 0.0292627 0.898318 -0.221282 -0.37955 0 
0.127001 0.220705 0.0310019 0.911397 -0.175433 -0.372261 0 
0.127167 0.220309 0.0314659 0.91613 -0.174164 -0.361071 0 
0.127063 0.220357 0.0310698 0.918844 -0.167961 -0.357093 0 
0.127358 0.220208 0.0309241 0.916021 -0.165138 -0.365561 0 
0.127223 0.220146 0.0316082 0.920223 -0.182348 -0.346321 0 
0.12733 0.220005 0.0319671 0.928841 -0.171801 -0.328237 0 
0.127152 0.219973 0.0312274 0.921828 -0.158068 -0.353904 0 
0.127338 0.219727 0.0318555 0.929623 -0.165359 -0.329328 0 
0.127232 0.219867 0.0314966 0.925031 -0.169332 -0.340064 0 
0.12724 0.219589 0.031385 0.925031 -0.169332 -0.340064 0 
0.127392 0.219656 0.032035 0.926688 -0.180851 -0.329458 0 
0.127636 0.219486 0.0316726 0.927987 -0.171643 -0.330726 0 
0.127703 0.218951 0.0316661 0.922215 -0.208884 -0.325404 0 
0.127455 0.220108 0.0325273 0.980491 -0.00114946 -0.196558 0 
0.127314 0.219887 0.03226 0.927177 -0.169213 -0.334231 0 
0.127544 0.219724 0.0326849 0.991672 0.0166574 -0.127707 0 
0.127471 0.220444 0.0327658 0.990998 0.0911395 -0.0980615 0 
0.127535 0.220002 0.0327965 0.992292 0.0485422 -0.114018 0 
0.127624 0.219618 0.0329541 0.98787 -0.0497988 -0.14708 0 
0.127382 0.219914 0.0338107 0.996391 -0.035779 -0.076979 0 
0.127678 0.220566 0.0340894 0.996975 0.0737313 -0.0245771 0 
0.127759 0.220242 0.0338272 0.998549 0.0429596 -0.0324816 0 
0.127499 0.219516 0.0323939 0.913773 -0.211535 -0.346802 0 
0.12762 0.219368 0.0319655 0.922179 -0.196901 -0.332891 0 
0.1277 0.219262 0.0322347 0.912335 -0.224108 -0.342668 0 
0.127579 0.21941 0.0326631 0.978996 -0.0916663 -0.18211 0 
0.12778 0.219157 0.0325039 0.978996 -0.0916663 -0.18211 0 
0.127788 0.218878 0.0323923 0.915272 -0.24147 -0.322442 0 
0.12781 0.218811 0.032025 0.913711 -0.238926 -0.328704 0 
0.128091 0.218452 0.032135 0.912715 -0.256837 -0.317782 0 
0.127887 0.219016 0.0328628 0.97791 -0.127986 -0.165263 0 
0.128096 0.218702 0.0331236 0.985904 -0.118308 -0.118308 0 
0.128291 0.218635 0.0330388 0.985904 -0.118308 -0.118308 0 
0.12797 0.2186 0.0325633 0.970749 -0.146697 -0.190068 0 
0.128295 0.218324 0.0324701 0.975341 -0.144355 -0.16695 0 
0.128153 0.218103 0.0322029 0.93431 -0.234631 -0.268351 0 
0.128112 0.218146 0.0329004 0.969554 -0.191342 -0.152817 0 
0.128067 0.217938 0.0326094 0.964985 -0.199248 -0.170598 0 
0.128148 0.217832 0.0328786 0.969574 -0.201087 -0.139608 0 
0.124386 0.218122 0.0299881 0.888905 -0.181855 -0.420448 0 
0.124726 0.217964 0.0296019 0.883239 -0.188952 -0.429169 0 
0.124846 0.216179 0.0375599 0.755481 0.165689 0.633874 0 
0.123938 0.216109 0.0384715 -0.143601 0.98962 0.00556592 0 
0.124283 0.215984 0.0385424 0.673964 0.127022 0.727762 0 
0.124427 0.216568 0.0381711 0.0384839 0.995083 0.0912618 0 
0.124383 0.215685 0.0379499 0.643253 0.449441 0.619862 0 
0.124736 0.215956 0.0378394 0.696503 0.300799 0.651463 0 
0.124816 0.21585 0.0381086 0.668099 0.387663 0.635107 0 
0.123962 0.215036 0.0392695 0.615006 0.362444 0.700287 0 
0.124096 0.21486 0.0397181 0.584409 0.415543 0.696986 0 
0.124052 0.215347 0.037693 0.656617 0.376855 0.653326 0 
0.124212 0.215136 0.0382314 0.620631 0.427619 0.657236 0 
0.124825 0.214897 0.0380669 0.590787 0.577244 0.563702 0 
0.123559 0.214743 0.0391633 0.662906 0.25472 0.704041 0 
0.123184 0.21454 0.0396412 0.702102 0.220482 0.677083 0 
0.123837 0.214933 0.0387093 0.631313 0.340942 0.696565 0 
0.124188 0.214622 0.0387058 0.582186 0.484875 0.652652 0 
0.121631 0.214473 0.0413032 0.331621 -0.938927 0.0918949 0 
0.121524 0.214157 0.0415456 0.606087 -0.68866 0.398003 0 
0.12163 0.214016 0.0419045 0.606087 -0.68866 0.398003 0 
0.121609 0.214084 0.0422719 -0.357154 -0.820661 -0.446046 0 
0.121762 0.214172 0.0412576 0.331621 -0.938927 0.0918949 0 
0.12218 0.214458 0.0405765 0.684433 0.283711 0.67161 0 
0.121725 0.213904 0.0413865 0.56972 -0.753709 0.32763 0 
0.122102 0.213557 0.0414727 0.573606 -0.739351 0.352613 0 
0.122115 0.213986 0.0417484 0.623931 -0.660535 0.417618 0 
0.122182 0.213452 0.0417419 0.582018 -0.723014 0.372164 0 
0.122322 0.213329 0.0409834 0.444884 -0.893849 0.0557806 0 
0.122429 0.213188 0.0413423 0.693317 -0.631326 0.347474 0 
0.121772 0.213562 0.0422416 -0.364878 -0.811017 -0.457292 0 
0.127398 0.207079 0.0427083 0.979126 -0.119767 -0.164217 0 
0.127408 0.206926 0.043091 0.954319 -0.1812 -0.237573 0 
0.127486 0.206696 0.0428659 0.969324 -0.160484 -0.186162 0 
0.127318 0.218768 0.0350524 0.357521 0.582808 0.729735 0 
0.127312 0.217261 0.0342407 0.284987 0.597041 0.749883 0 
0.127142 0.217512 0.0349467 0.936775 0.0165238 0.349543 0 
0.12736 0.217376 0.0344945 0.284987 0.597041 0.749883 0 
0.127106 0.217025 0.0345441 0.284846 0.593562 0.752693 0 
0.127152 0.218033 0.0352595 0.96093 -0.0698166 0.267842 0 
0.127196 0.217441 0.0351261 0.898045 0.0841487 0.431779 0 
0.127303 0.217301 0.035485 0.932691 -0.00126552 0.360674 0 
0.12748 0.220052 0.0342812 0.998713 -0.0406999 -0.030264 0 
0.127619 0.220365 0.0345857 0.999235 0.0338898 0.0195123 0 
0.127368 0.219922 0.034598 0.995081 -0.0892597 -0.0429769 0 
0.127896 0.217607 0.0334223 0.29207 0.595313 0.74853 0 
0.12769 0.217371 0.0337257 0.316407 0.576599 0.753273 0 
0.128002 0.218141 0.0337114 0.260652 0.611348 0.747204 0 
0.127962 0.217965 0.0338775 0.281772 0.590606 0.756167 0 
0.128363 0.218807 0.0334195 0.991883 -0.101585 -0.0764743 0 
0.128184 0.218319 0.0332812 0.974071 -0.187273 -0.126943 0 
0.128385 0.218065 0.033122 0.975752 -0.185679 -0.115894 0 
0.128013 0.21777 0.0335627 0.270748 0.596911 0.755243 0 
0.127587 0.217762 0.0343553 0.353646 0.578545 0.734997 0 
0.127419 0.217577 0.0339983 0.349763 0.574262 0.740196 0 
0.125102 0.216437 0.0374732 0.779912 0.0703788 0.621919 0 
0.12568 0.216512 0.0373305 0.752118 0.229857 0.617644 0 
0.125916 0.216619 0.0370796 0.584647 0.474083 0.658356 0 
0.127332 0.216611 0.0339804 0.24244 0.592805 0.767988 0 
0.127377 0.216819 0.0342714 0.270609 0.593441 0.758022 0 
0.127412 0.216506 0.0342496 0.256471 0.593188 0.763119 0 
0.126777 0.216356 0.0353828 0.730383 0.282884 0.621705 0 
0.126957 0.215952 0.0350595 0.70715 0.32202 0.629477 0 
0.127168 0.216677 0.0346119 0.277787 0.595257 0.753992 0 
0.127254 0.216386 0.0348067 0.250237 0.599624 0.760153 0 
0.12723 0.216328 0.0346798 0.250108 0.596169 0.762908 0 
0.126928 0.215862 0.0344755 0.905726 0.0694617 0.418132 0 
0.127056 0.215872 0.0349985 0.729816 0.299947 0.614329 0 
0.126871 0.215786 0.035466 0.771373 -0.593724 -0.229075 0 
0.126662 0.215644 0.0358065 0.573421 -0.712231 -0.404865 0 
0.126707 0.215852 0.0360975 0.512288 -0.739605 -0.436515 0 
0.126847 0.215729 0.0353391 0.771373 -0.593724 -0.229075 0 
0.127081 0.215255 0.0351953 0.865466 -0.47033 -0.172504 0 
0.126644 0.2154 0.0356052 0.573421 -0.712231 -0.404865 0 
0.126971 0.215031 0.0354748 0.854283 -0.458359 -0.245169 0 
0.127038 0.214954 0.034867 0.59366 0.449843 0.66724 0 
0.126953 0.214788 0.0352735 0.977864 -0.0200044 0.208282 0 
0.126936 0.21467 0.0355665 0.641331 0.463834 0.61119 0 
0.127741 0.217175 0.0334109 0.309103 0.574964 0.757543 0 
0.127725 0.217057 0.0337038 0.309854 0.576361 0.756173 0 
0.125786 0.215571 0.0372649 0.675012 0.431674 0.598344 0 
0.125791 0.215386 0.0371905 0.65985 0.452707 0.599712 0 
0.12595 0.215506 0.0366333 0.706561 0.38375 0.594565 0 
0.126314 0.215405 0.0363741 0.63771 0.460289 0.617624 0 
0.126012 0.215157 0.0367012 0.663658 0.459713 0.590104 0 
0.126194 0.214879 0.0368722 0.618295 0.513842 0.594709 0 
0.125296 0.215113 0.0375652 0.61665 0.52542 0.58624 0 
0.125829 0.214979 0.0371315 0.610122 0.528998 0.589841 0 
0.126751 0.21526 0.0359641 0.632726 0.464894 0.619299 0 
0.126545 0.215024 0.0362675 0.630614 0.479266 0.610434 0 
0.126813 0.214911 0.036032 0.635053 0.467493 0.614946 0 
0.126799 0.2147 0.0362878 0.630343 0.492508 0.600086 0 
0.126687 0.21457 0.0366045 0.442961 0.610116 0.65692 0 
0.127043 0.21453 0.0359254 0.628739 0.500631 0.595026 0 
0.126931 0.214399 0.0362422 0.419988 0.605912 0.675633 0 
0.127185 0.214076 0.0362625 0.62519 0.520711 0.581376 0 
0.127037 0.214259 0.0366011 0.477605 0.581506 0.658593 0 
0.127265 0.21397 0.0365316 0.55609 0.549329 0.6237 0 
0.127144 0.214118 0.03696 0.466514 0.576872 0.67051 0 
0.127153 0.21384 0.0368484 0.535172 0.55543 0.636466 0 
0.127161 0.213561 0.0367368 0.563315 0.556548 0.610681 0 
0.1271 0.212779 0.03734 0.604045 0.553285 0.573589 0 
0.127171 0.212952 0.0377208 0.575853 0.552211 0.602873 0 
0.127017 0.21252 0.0377093 0.59407 0.556835 0.58053 0 
0.126965 0.212716 0.0380241 0.593948 0.549952 0.587179 0 
0.127097 0.212415 0.0379785 0.587421 0.563721 0.58065 0 
0.127259 0.213699 0.0372073 0.524749 0.56187 0.639485 0 
0.127215 0.213491 0.0369163 0.544897 0.561767 0.622499 0 
0.127038 0.213127 0.0372722 0.545003 0.565251 0.619245 0 
0.127557 0.212327 0.0376955 0.644724 0.553823 0.526889 0 
0.127664 0.212186 0.0380544 0.663077 0.552285 0.505282 0 
0.127214 0.212796 0.0386503 0.576143 0.566005 0.589659 0 
0.127367 0.212427 0.0382373 0.63635 0.562081 0.528322 0 
0.127214 0.212121 0.0387201 0.623678 0.559451 0.54593 0 
0.127673 0.212469 0.0395 0.893872 0.447604 0.0253865 0 
0.127505 0.212959 0.0390732 0.590807 0.567107 0.573879 0 
0.127558 0.212888 0.0392527 0.742716 0.559893 0.367277 0 
0.127682 0.212191 0.0393884 0.864284 0.476897 0.159944 0 
0.127458 0.211951 0.0383577 0.664201 0.553221 0.502775 0 
0.127592 0.211775 0.0388064 0.644833 0.543815 0.53708 0 
0.127036 0.210958 0.0386515 0.626916 0.545805 0.555944 0 
0.126678 0.210198 0.0389062 0.596322 0.562536 0.572672 0 
0.127431 0.211529 0.0388693 0.636524 0.541974 0.548727 0 
0.127383 0.211632 0.0391469 0.623678 0.54593 0.559451 0 
0.127568 0.211261 0.0392807 0.616045 0.551909 0.562036 0 
0.127248 0.210551 0.0388751 0.600716 0.553336 0.577026 0 
0.127582 0.210797 0.0390948 0.606223 0.555563 0.569072 0 
0.127783 0.210543 0.0389356 0.602942 0.55903 0.569163 0 
0.127919 0.211863 0.0380747 0.705013 0.538343 0.461675 0 
0.127833 0.211697 0.0384812 0.679374 0.541822 0.494853 0 
0.128234 0.211626 0.0392258 0.626916 0.545805 0.555944 0 
0.128336 0.211453 0.0391276 0.625702 0.541375 0.561614 0 
0.127641 0.210997 0.0385986 0.626844 0.538984 0.562639 0 
0.127645 0.211248 0.0395871 0.828927 0.462256 0.314961 0 
0.127753 0.210433 0.0400158 0.887196 0.390842 0.245205 0 
0.127761 0.210154 0.0399043 0.709601 0.533447 0.460327 0 
0.12785 0.209771 0.0400619 0.762263 0.501102 0.409696 0 
0.127686 0.209836 0.0406934 0.99805 0.05982 -0.0178411 0 
0.12779 0.20957 0.0405581 0.962642 0.230565 0.141986 0 
0.127894 0.209979 0.0403529 0.981678 0.185467 0.0437089 0 
0.127855 0.210716 0.0393164 0.606243 0.565715 0.55896 0 
0.12789 0.210403 0.0392945 0.599646 0.569241 0.562485 0 
0.127935 0.210611 0.0395856 0.660809 0.563285 0.496027 0 
0.127943 0.210332 0.039474 0.587462 0.573918 0.570532 0 
0.127503 0.209658 0.0411237 0.999235 -0.0359437 -0.0154044 0 
0.127854 0.209346 0.0411202 0.990918 -0.124292 -0.0513134 0 
0.127991 0.209316 0.0403989 0.908659 0.328167 0.258158 0 
0.127409 0.208296 0.0412871 0.777972 0.39467 0.488872 0 
0.127464 0.208808 0.0413596 0.964622 -0.263299 0.013347 0 
0.127544 0.208702 0.0416288 0.954234 -0.29812 0.0236999 0 
0.127675 0.209076 0.0415133 0.9729 -0.231079 -0.00829513 0 
0.127489 0.208191 0.0415563 0.884897 0.233494 0.403037 0 
0.127519 0.208863 0.0420333 0.952799 -0.291673 -0.0842612 0 
0.127555 0.208549 0.0420115 0.93792 -0.337334 -0.0806955 0 
0.127569 0.208085 0.0418255 0.906091 -0.410854 -0.100984 0 
0.127421 0.208268 0.0421641 0.944606 -0.295949 -0.141894 0 
0.127649 0.20798 0.0420947 0.951906 -0.291187 -0.0953211 0 
0.1276 0.208757 0.0423025 0.949453 -0.290812 -0.118184 0 
0.127782 0.207804 0.0425433 0.941044 -0.27694 -0.194271 0 
0.127706 0.208616 0.0426614 0.951195 -0.256971 -0.170865 0 
0.127715 0.208338 0.0425498 0.929828 -0.315553 -0.189332 0 
0.127438 0.207711 0.0419409 0.956961 -0.259314 -0.130315 0 
0.127711 0.207631 0.0421626 0.952774 -0.272411 -0.134212 0 
0.127526 0.207328 0.0420985 -0.0440653 -0.660979 -0.74911 0 
0.128049 0.208583 0.0427695 0.957027 -0.273251 -0.0971272 0 
0.127502 0.207488 0.0425031 0.942648 -0.233247 -0.238767 0 
0.127582 0.207383 0.0427723 0.934439 -0.214346 -0.284394 0 
0.12751 0.20721 0.0423915 0.988177 -0.116325 -0.0998752 0 
0.1275 0.20645 0.0432114 0.947143 -0.200909 -0.250111 0 
0.12758 0.206344 0.0434806 0.946351 -0.19801 -0.255365 0 
0.127567 0.205915 0.0432049 0.941044 -0.194271 -0.27694 0 
0.127402 0.205181 0.043412 0.875359 -0.27062 -0.400639 0 
0.127463 0.205507 0.0434101 0.872862 -0.273809 -0.403907 0 
0.12766 0.206239 0.0437498 0.94207 -0.193915 -0.273682 0 
0.127674 0.205775 0.0435638 0.940505 -0.191968 -0.280356 0 
0.127754 0.205669 0.043833 0.937861 -0.187018 -0.292302 0 
0.127834 0.205564 0.0441022 0.938873 -0.175091 -0.296414 0 
0.127455 0.20511 0.0435915 0.876063 -0.269906 -0.399581 0 
0.12773 0.205612 0.0437061 0.937861 -0.187018 -0.292302 0 
0.127369 0.204945 0.0439979 0.598857 -0.445389 -0.665582 0 
0.12765 0.205261 0.0440382 0.813974 -0.314526 -0.488385 0 
0.127338 0.204491 0.0440524 -0.0676594 -0.637726 -0.767286 0 
0.127204 0.204667 0.0436038 0.837556 -0.30414 -0.453871 0 
0.12649 0.203491 0.0451389 -0.29442 -0.683761 -0.667673 0 
0.12773 0.205155 0.0443073 0.455246 -0.504909 -0.73336 0 
0.127738 0.204877 0.0441958 0.269797 -0.56326 -0.780991 0 
0.127767 0.204967 0.0447798 -0.132671 -0.630558 -0.764719 0 
0.128011 0.204796 0.0444174 -0.132671 -0.630558 -0.764719 0 
0.127418 0.204386 0.0443216 -0.219848 -0.659545 -0.718795 0 
0.12769 0.203848 0.0451445 -0.247812 -0.680299 -0.68977 0 
0.127463 0.203462 0.0452837 -0.143207 -0.676841 -0.722065 0 
0.127963 0.204224 0.0447648 -0.227324 -0.666296 -0.710193 0 
0.127224 0.203209 0.0467045 -0.47111 -0.714156 -0.517722 0 
0.127053 0.203573 0.0457834 -0.251813 -0.698426 -0.669919 0 
0.127543 0.203357 0.0455529 -0.0985172 -0.669034 -0.736673 0 
0.127624 0.203251 0.0458221 -0.0892237 -0.671372 -0.73573 0 
0.12729 0.203006 0.0456024 -0.098553 -0.675161 -0.731057 0 
0.127466 0.202913 0.0458478 -0.0830728 -0.67187 -0.735996 0 
0.127993 0.203183 0.0460199 -0.0830728 -0.67187 -0.735996 0 
0.127695 0.203424 0.0462028 -0.0892237 -0.671372 -0.73573 0 
0.128362 0.204485 0.0444139 -0.219848 -0.659545 -0.718795 0 
0.128073 0.203078 0.0462891 -0.402133 -0.73697 -0.54329 0 
0.127271 0.202306 0.0460024 -0.426864 -0.733414 -0.529047 0 
0.127835 0.202845 0.0460456 -0.466284 -0.718509 -0.516065 0 
0.12809 0.202521 0.046066 -0.343955 -0.760577 -0.550651 0 
0.127697 0.202075 0.0463425 -0.390822 -0.753845 -0.528182 0 
0.128397 0.202802 0.0461959 -0.375808 -0.756496 -0.535241 0 
0.128748 0.20249 0.0461924 -0.318517 -0.779485 -0.539397 0 
0.126739 0.203001 0.0479933 -0.342969 -0.771279 -0.536192 0 
0.127173 0.20273 0.0470891 -0.3867 -0.752189 -0.533549 0 
0.126993 0.202677 0.0480136 -0.332991 -0.773761 -0.538898 0 
0.128641 0.202175 0.0464348 -0.31749 -0.789737 -0.524896 0 
0.128836 0.202107 0.04635 -0.313299 -0.790405 -0.526406 0 
0.128482 0.202272 0.0475234 -0.299476 -0.797017 -0.524479 0 
0.129197 0.202317 0.0466594 -0.264771 -0.794313 -0.546776 0 
0.129662 0.202261 0.0468335 -0.257641 -0.797905 -0.544949 0 
0.129826 0.202196 0.0462019 -0.261648 -0.797477 -0.543663 0 
0.130458 0.202201 0.0462386 -0.253882 -0.802143 -0.540473 0 
0.129888 0.201847 0.0462698 -0.253673 -0.804594 -0.536915 0 
0.130739 0.201842 0.0463487 -0.236216 -0.816721 -0.526468 0 
0.129604 0.201386 0.0473995 -0.276063 -0.864793 -0.419432 0 
0.130337 0.201674 0.0467368 -0.267255 -0.838839 -0.474261 0 
0.130801 0.201493 0.0464166 -0.285474 -0.828343 -0.48203 0 
0.13117 0.201425 0.0466144 -0.213053 -0.713805 -0.667151 0 
0.130836 0.201179 0.0463947 -0.256339 -0.812516 -0.523553 0 
0.131976 0.201211 0.0464022 -0.237693 -0.65956 -0.71308 0 
0.132037 0.200862 0.0464701 -0.30731 -0.738508 -0.600139 0 
0.131918 0.20181 0.0473229 -0.18471 -0.59382 -0.783109 0 
0.129891 0.200841 0.0474352 -0.298301 -0.90666 -0.298301 0 
0.132132 0.201767 0.046908 -0.237693 -0.65956 -0.71308 0 
0.132501 0.201699 0.0471058 -0.301192 -0.710298 -0.636208 0 
0.131933 0.200454 0.0466753 -0.364101 -0.768658 -0.525924 0 
0.132407 0.200794 0.046668 -0.421933 -0.793752 -0.438099 0 
0.132495 0.20041 0.0468256 -0.454873 -0.809195 -0.371879 0 
0.133231 0.201842 0.047613 -0.417129 -0.763918 -0.492375 0 
0.132793 0.201644 0.0469972 -0.335712 -0.737918 -0.585469 0 
0.132919 0.201072 0.0476273 -0.502685 -0.811545 -0.297829 0 
0.134173 0.19921 0.0475275 -0.158288 0.163353 0.973787 0 
0.134002 0.199117 0.0472077 -0.158288 0.163353 0.973787 0 
0.134217 0.198618 0.0473941 0.649505 0.760295 0.00969411 0 
0.134559 0.198585 0.0475022 0.655442 0.755214 0.00692856 0 
0.134925 0.19861 0.0477372 0.645634 0.763276 0.0238086 0 
0.135418 0.198301 0.0474695 0.633892 0.773209 0.0181112 0 
0.135006 0.198504 0.0480064 0.638256 0.769539 0.0209493 0 
0.135595 0.198208 0.0477149 -0.28692 0.192666 0.93838 0 
0.135699 0.19816 0.048111 0.573161 0.819387 0.00957548 0 
0.135311 0.197985 0.0477119 0.564428 0.818202 0.109385 0 
0.136162 0.197979 0.0477908 0.51075 0.855044 0.0896303 0 
0.135867 0.197671 0.0485378 0.505878 0.85376 0.123208 0 
0.136531 0.197911 0.0479886 0.508885 0.850086 0.135606 0 
0.136703 0.197329 0.0483782 0.506793 0.840645 0.190987 0 
0.137168 0.197273 0.0485522 0.507782 0.839271 0.194373 0 
0.137466 0.197032 0.0483693 0.507782 0.839271 0.194373 0 
0.137738 0.196952 0.0485909 0.488782 0.845911 0.213369 0 
0.137485 0.196601 0.0486404 0.483518 0.847294 0.219781 0 
0.137626 0.196822 0.0489077 0.483518 0.847294 0.219781 0 
0.137714 0.196438 0.0490653 0.484913 0.847464 0.21602 0 
0.137987 0.196357 0.0492869 0.487845 0.847309 0.209939 0 
0.13833 0.196324 0.049395 0.469258 0.855529 0.218786 0 
0.138436 0.196184 0.0497539 0.447458 0.863278 0.233522 0 
0.138734 0.195943 0.049571 0.46716 0.854193 0.228289 0 
0.138507 0.197249 0.0505963 0.451033 0.861337 0.233813 0 
0.138621 0.195812 0.0498877 0.464792 0.855398 0.228611 0 
0.138728 0.195672 0.0502466 0.468921 0.851343 0.235219 0 
0.138628 0.195513 0.0514404 0.46024 0.855166 0.238474 0 
0.138712 0.195554 0.0505396 0.46263 0.853969 0.238141 0 
0.138925 0.195272 0.0512574 0.46024 0.855166 0.238474 0 
0.139079 0.19536 0.0502432 0.472501 0.849286 0.235491 0 
0.138658 0.195167 0.0509614 0.46024 0.855166 0.238474 0 
0.138859 0.194914 0.0508023 0.46024 0.855166 0.238474 0 
0.139039 0.194728 0.0510105 0.496833 0.840209 0.217269 0 
0.139208 0.195609 0.0496334 0.468921 0.851343 0.235219 0 
0.139218 0.195456 0.0500161 0.46263 0.853969 0.238141 0 
0.139403 0.195084 0.05015 0.46024 0.855166 0.238474 0 
0.139676 0.195004 0.0503716 0.495567 0.841099 0.216716 0 
0.139268 0.19524 0.0513655 0.496833 0.840209 0.217269 0 
0.139828 0.195071 0.0510215 0.487845 0.847309 0.209939 0 
0.139967 0.194492 0.0508643 0.468049 0.856335 0.218222 0 
0.140748 0.195113 0.0509869 0.449623 0.86466 0.22406 0 
0.140735 0.194684 0.0507112 0.448755 0.865993 0.220625 0 
0.140828 0.195007 0.0512561 0.451444 0.865392 0.217473 0 
0.140842 0.194544 0.0510701 0.451444 0.865392 0.217473 0 
0.140607 0.194218 0.0507894 0.451444 0.865392 0.217473 0 
0.140976 0.19415 0.0509873 0.424413 0.87432 0.235452 0 
0.140986 0.194671 0.0513002 0.424413 0.87432 0.235452 0 
0.141093 0.194531 0.0516591 0.420544 0.87551 0.237959 0 
0.141382 0.194568 0.0515877 0.435362 0.87222 0.222917 0 
0.14162 0.194801 0.0518312 0.437782 0.871082 0.222626 0 
0.141345 0.194082 0.0511851 0.435362 0.87222 0.222917 0 
0.141188 0.193287 0.0518121 0.395581 0.879904 0.263219 0 
0.141364 0.193194 0.0520575 0.395266 0.879204 0.266016 0 
0.142263 0.192846 0.0529915 0.44915 0.860492 0.240454 0 
0.143108 0.193026 0.0531448 0.529444 0.836197 0.143053 0 
0.14281 0.193267 0.0533277 0.519707 0.839527 0.158429 0 
0.143547 0.193006 0.0532291 0.56091 0.82024 0.112182 0 
0.144196 0.193253 0.0534672 0.535873 0.829787 0.155863 0 
0.14233 0.192769 0.0523837 0.44915 0.860492 0.240454 0 
0.142431 0.192814 0.052817 0.44915 0.860492 0.240454 0 
0.143133 0.192866 0.0527403 0.529444 0.836197 0.143053 0 
0.143266 0.19269 0.0531889 0.56091 0.82024 0.112182 0 
0.143703 0.192544 0.0527789 0.545299 0.827502 0.133753 0 
0.14359 0.192414 0.0530957 0.545511 0.827824 0.130864 0 
0.143959 0.192346 0.0532935 0.535873 0.829787 0.155863 0 
0.144232 0.192265 0.0535151 0.525943 0.831619 0.178311 0 
0.144027 0.191812 0.053287 0.503657 0.839428 0.204185 0 
0.144423 0.191708 0.0535746 0.630757 0.240663 -0.737718 0 
0.144669 0.191663 0.0537064 0.588902 0.0911568 -0.803048 0 
0.144784 0.191244 0.0539538 0.488915 0.850742 0.192875 0 
0.145295 0.190722 0.0544887 0.488915 0.850742 0.192875 0 
0.145931 0.190302 0.0555838 0.441986 0.864362 0.239849 0 
0.147997 0.188221 0.0649641 -0.25432 0.19176 -0.947919 0 
0.148139 0.188224 0.0646999 -0.676058 -0.217026 -0.704162 0 
0.147945 0.187617 0.0648545 -0.256863 0.153053 -0.954252 0 
0.148321 0.187945 0.0648709 -0.721882 -0.335797 -0.605084 0 
0.14694 0.18821 0.0657201 -0.231589 0.570424 -0.788025 0 
0.147475 0.188202 0.0657806 -0.218773 0.52169 -0.824607 0 
0.147801 0.188507 0.0655804 -0.218773 0.52169 -0.824607 0 
0.148352 0.188835 0.0658794 -0.218773 0.52169 -0.824607 0 
0.14809 0.188545 0.065509 -0.243578 0.240794 -0.939515 0 
0.147161 0.187307 0.0653006 -0.25432 0.19176 -0.947919 0 
0.147543 0.187449 0.0652426 -0.256863 0.153053 -0.954252 0 
0.148455 0.18777 0.0653196 -0.256863 0.153053 -0.954252 0 
0.146789 0.184434 0.060608 0.324199 -0.315235 -0.89192 0 
0.147201 0.184231 0.0600711 0.37959 -0.376466 -0.845095 0 
0.146838 0.184113 0.0597989 0.324199 -0.315235 -0.89192 0 
0.147014 0.18402 0.0600443 0.324199 -0.315235 -0.89192 0 
0.147568 0.184256 0.0603061 0.447987 -0.368274 -0.814667 0 
0.147843 0.184757 0.0604207 0.48701 -0.38346 -0.784717 0 
0.147576 0.183977 0.0601946 0.334107 -0.352415 -0.874172 0 
0.147678 0.189824 0.0561024 0.790286 0.141923 -0.596076 0 
0.148403 0.18902 0.0573551 0.804697 -0.125503 -0.580268 0 
0.148315 0.18873 0.0572673 0.797798 -0.141665 -0.586046 0 
0.148387 0.188902 0.0576481 0.775906 -0.145576 -0.613822 0 
0.148563 0.188809 0.0578935 0.748323 -0.152688 -0.645523 0 
0.148176 0.188634 0.0574944 0.776003 -0.161856 -0.609608 0 
0.148282 0.188494 0.0578533 0.750483 -0.198793 -0.630283 0 
0.148652 0.188426 0.0580511 0.712712 -0.230261 -0.662587 0 
0.148815 0.189492 0.0567484 0.821942 -0.130864 -0.554333 0 
0.149548 0.190664 0.0603328 0.748959 -0.0527838 -0.660511 0 
0.150468 0.190924 0.0608297 0.684194 0.117248 -0.719814 0 
0.148408 0.188596 0.0584135 0.69403 -0.258871 -0.671795 0 
0.149428 0.189576 0.0592738 0.708588 -0.172938 -0.684102 0 
0.149623 0.189508 0.059189 0.708588 -0.172938 -0.684102 0 
0.149653 0.189162 0.0587101 0.708588 -0.172938 -0.684102 0 
0.149547 0.189864 0.0599084 0.713431 -0.156016 -0.683137 0 
0.149775 0.189575 0.059839 0.694202 -0.166303 -0.700305 0 
0.149508 0.18947 0.059543 0.708588 -0.172938 -0.684102 0 
0.149484 0.189413 0.0594161 0.701931 -0.189753 -0.686504 0 
0.149494 0.18926 0.0597988 0.670232 -0.223411 -0.707727 0 
0.149605 0.188808 0.059589 0.603619 -0.307443 -0.73561 0 
0.149787 0.188986 0.0591587 0.670232 -0.223411 -0.707727 0 
0.148768 0.188807 0.0587229 0.683103 -0.258343 -0.683103 0 
0.148723 0.188599 0.0584318 0.672209 -0.273035 -0.688176 0 
0.149041 0.188726 0.0589445 0.641241 -0.294103 -0.70874 0 
0.149004 0.18824 0.0585419 0.616829 -0.31083 -0.723123 0 
0.148732 0.18832 0.0583203 0.646274 -0.30138 -0.70107 0 
0.14949 0.188552 0.0594115 0.582341 -0.321013 -0.74688 0 
0.149146 0.187785 0.0588789 0.59439 -0.302803 -0.74499 0 
0.149516 0.187717 0.0590768 0.594965 -0.299888 -0.745711 0 
0.148698 0.187846 0.060039 0.588591 -0.317678 -0.743398 0 
0.148653 0.187638 0.0597479 0.545817 -0.315325 -0.776308 0 
0.148926 0.187557 0.0599695 0.588591 -0.317678 -0.743398 0 
0.149823 0.189234 0.0606941 0.842198 -0.126986 -0.524002 0 
0.14973 0.188911 0.0601492 0.659194 -0.272935 -0.700693 0 
0.149944 0.189086 0.0602658 0.670407 -0.265933 -0.692701 0 
0.149951 0.189482 0.0600844 0.722351 -0.169516 -0.670428 0 
0.150031 0.189377 0.0603536 0.718256 -0.179181 -0.672312 0 
0.150502 0.18981 0.0603834 0.747364 -0.0708333 -0.660629 0 
0.149378 0.188422 0.0597283 0.579321 -0.31293 -0.752636 0 
0.149397 0.187991 0.0599994 0.639636 -0.279143 -0.716201 0 
0.149309 0.187482 0.0593801 0.545817 -0.315325 -0.776308 0 
0.150119 0.188193 0.0600867 0.66336 -0.276533 -0.695329 0 
0.149979 0.187641 0.060915 0.887023 -0.157212 -0.434136 0 
0.150477 0.187822 0.0605031 0.712527 -0.258668 -0.652224 0 
0.15056 0.187623 0.0607351 0.73749 -0.251094 -0.626945 0 
0.150213 0.187624 0.0601699 0.67743 -0.286667 -0.67743 0 
0.150224 0.187253 0.0600212 0.590189 -0.325008 -0.738949 0 
0.150232 0.186974 0.0599096 0.535448 -0.339278 -0.773425 0 
0.150566 0.18722 0.0601293 0.594998 -0.32088 -0.736895 0 
0.150611 0.187428 0.0604203 0.64953 -0.287076 -0.704058 0 
0.150505 0.186894 0.0601312 0.574832 -0.335184 -0.746472 0 
0.150968 0.186931 0.0603424 0.623741 -0.296638 -0.723155 0 
0.151187 0.187595 0.0603148 0.623433 -0.268092 -0.734478 0 
0.151812 0.187785 0.0604259 0.588118 -0.263313 -0.764711 0 
0.149131 0.188439 0.0650461 -0.721882 -0.335797 -0.605084 0 
0.151049 0.187625 0.0610361 0.679345 -0.244312 -0.691955 0 
0.150689 0.187415 0.0607267 0.70244 -0.255288 -0.664384 0 
