0.129217 0.220049 0.0530312 -0.539598 -0.657267 -0.52615 1 
0.129018 0.220242 0.0526526 -0.553108 -0.653979 -0.516122 1 
0.129338 0.22019 0.0523789 -0.516485 -0.664532 -0.540038 1 
0.1297 0.220778 0.0513772 -0.508502 -0.67968 -0.52864 1 
0.129109 0.220598 0.0515967 -0.524965 -0.672558 -0.52161 1 
0.129755 0.220992 0.0507437 -0.474819 -0.711395 -0.518135 1 
0.137321 0.199697 0.0681764 -0.635308 0.588123 0.500495 2 
0.137059 0.199849 0.0677314 -0.639485 0.56187 0.524749 2 
0.137102 0.200514 0.0674386 -0.641546 0.527044 0.557354 2 
0.137818 0.200026 0.0670519 -0.641546 0.527044 0.557354 2 
0.137321 0.199532 0.067221 -0.639485 0.56187 0.524749 2 
0.137186 0.19979 0.0673438 -0.639485 0.56187 0.524749 2 
0.137704 0.199521 0.0670136 -0.639485 0.56187 0.524749 2 
0.136934 0.199629 0.0670784 -0.639485 0.56187 0.524749 2 
0.137081 0.199668 0.0669148 -0.639485 0.56187 0.524749 2 
0.136674 0.200556 0.0673685 -0.64275 0.528033 0.555026 2 
0.136497 0.20001 0.0672638 -0.639485 0.56187 0.524749 2 
0.137574 0.199527 0.066531 -0.639485 0.56187 0.524749 2 
0.137064 0.199458 0.0666057 -0.639485 0.56187 0.524749 2 
0.1361 0.199698 0.0670769 -0.629859 0.606344 0.485411 2 
0.136033 0.199745 0.0666607 -0.629859 0.606344 0.485411 2 
0.136504 0.199646 0.0665732 -0.641037 0.573737 0.509801 2 
0.135739 0.199529 0.0664677 -0.599484 0.646502 0.471863 2 
0.135652 0.199313 0.0648721 -0.762334 0.129791 0.634035 2 
0.13547 0.199715 0.0648026 -0.599484 0.646502 0.471863 2 
0.135338 0.199469 0.0668863 -0.762334 0.129791 0.634035 2 
0.135334 0.199555 0.0665364 -0.601271 0.648167 0.467283 2 
0.135443 0.199983 0.0652693 -0.599484 0.646502 0.471863 2 
0.135962 0.200462 0.065239 -0.651095 0.536691 0.536691 2 
0.135313 0.199989 0.0647867 -0.599484 0.646502 0.471863 2 
0.149721 0.206257 0.056023 0.0559165 -0.8933 -0.445968 1 
0.150791 0.206861 0.0558455 0.180539 -0.899805 -0.397185 1 
0.151598 0.206894 0.0553584 0.244317 -0.924404 -0.292895 1 
0.151502 0.20646 0.0551089 0.244317 -0.924404 -0.292895 1 
0.15149 0.206885 0.0550145 0.244317 -0.924404 -0.292895 1 
0.151076 0.20725 0.0553387 0.203278 -0.948178 -0.244207 1 
0.151233 0.206976 0.0553545 0.203278 -0.948178 -0.244207 1 
0.151163 0.207136 0.0550235 0.192066 -0.968064 -0.161129 1 
0.151165 0.207023 0.0549383 0.203278 -0.948178 -0.244207 1 
0.150163 0.206373 0.055532 0.0979734 -0.909358 -0.404313 1 
0.150525 0.206403 0.055621 0.125444 -0.866571 -0.48303 1 
0.149591 0.206263 0.0555404 0.0469355 -0.905185 -0.422419 1 
0.150222 0.206499 0.0552484 0.115746 -0.907842 -0.403021 1 
0.15093 0.20635 0.0551172 0.194814 -0.886184 -0.420388 1 
0.15109 0.206686 0.0549128 0.212406 -0.877846 -0.429268 1 
0.150775 0.207234 0.0548809 0.104667 -0.900133 -0.422853 1 
0.150407 0.206707 0.0550975 0.122304 -0.806028 0.579103 1 
0.151032 0.207142 0.0545408 0.192066 -0.968064 -0.161129 1 
0.148385 0.205169 0.0555408 -0.0179757 -0.808904 -0.587665 1 
0.14918 0.204906 0.0550944 0.0469355 -0.905185 -0.422419 1 
0.149022 0.20518 0.0550785 0.0469355 -0.905185 -0.422419 1 
0.148841 0.205608 0.0554441 0.133247 -0.714146 0.687197 1 
0.147599 0.204372 0.0558669 -0.186173 -0.727769 -0.66007 1 
0.149199 0.206283 0.0540925 0.026627 0.634843 0.772182 1 
0.149991 0.206855 0.0535961 0.122304 -0.806028 0.579103 1 
0.1485 0.205371 0.0541034 0.133247 -0.714146 0.687197 1 
0.15049 0.207566 0.0552526 0.0980174 -0.765121 0.636382 1 
0.147671 0.204403 0.0575884 -0.498281 -0.538546 -0.679474 1 
0.146879 0.204554 0.0579496 -0.470174 -0.57726 -0.667613 1 
0.14801 0.205007 0.056448 -0.064059 -0.804296 -0.590766 1 
0.14763 0.205627 0.056435 -0.081443 -0.833004 -0.547239 1 
0.146191 0.20608 0.0570789 -0.424127 -0.643676 -0.637023 1 
0.148403 0.205406 0.056285 -0.0578458 -0.822539 -0.56576 1 
0.149082 0.20622 0.0560501 0.133247 -0.714146 0.687197 1 
0.148761 0.206245 0.0558888 0.00130356 -0.903365 -0.42887 1 
0.148604 0.206519 0.0558728 0.133247 -0.714146 0.687197 1 
0.148553 0.206054 0.0559009 -0.0201078 -0.880723 -0.473204 1 
0.148694 0.206292 0.0554725 0.133247 -0.714146 0.687197 1 
0.148154 0.207325 0.0559638 0.0141327 -0.926332 -0.376443 1 
0.148095 0.207033 0.0552921 0.133247 -0.714146 0.687197 1 
0.147826 0.205383 0.0559434 -0.0641714 -0.797152 -0.600359 1 
0.148065 0.20522 0.0558145 -0.0495282 -0.799527 -0.598584 1 
0.147628 0.205601 0.0559999 -0.0613973 -0.792454 -0.606834 1 
0.147162 0.206197 0.0557818 -0.0849905 -0.813892 -0.574766 1 
0.148491 0.206597 0.055179 0.133247 -0.714146 0.687197 1 
0.148371 0.206291 0.054876 0.133247 -0.714146 0.687197 1 
0.147398 0.20687 0.0556028 -0.0367037 -0.879528 -0.474429 1 
0.147177 0.207104 0.0555205 -0.0687506 -0.854472 -0.514928 1 
0.146988 0.206983 0.0553215 -0.062612 -0.864046 -0.499505 1 
0.147586 0.204797 0.0557724 -0.107455 -0.758072 -0.643257 1 
0.147388 0.205015 0.0558289 -0.169251 -0.742569 -0.648032 1 
0.14515 0.20654 0.056434 -0.353823 -0.732103 -0.582095 1 
0.144975 0.206578 0.0556738 -0.325161 -0.736062 -0.593703 1 
0.148174 0.205648 0.0545475 0.133247 -0.714146 0.687197 1 
0.146956 0.206589 0.0551384 -0.0726874 -0.825216 -0.560121 1 
0.146623 0.207065 0.0553177 -0.177191 -0.795087 -0.580035 1 
0.146748 0.20712 0.0550153 -0.16101 -0.799029 -0.579334 1 
0.146547 0.207451 0.055157 -0.205721 -0.759466 -0.617163 1 
0.146424 0.207258 0.0549391 -0.216347 -0.745543 -0.630365 1 
0.146358 0.20733 0.0549579 -0.237496 -0.72507 -0.646429 1 
0.145716 0.207407 0.0550703 -0.307303 -0.722404 -0.619433 1 
0.145617 0.206502 0.0555615 -0.307303 -0.722404 -0.619433 1 
0.146365 0.206966 0.0542673 -0.205851 -0.642317 -0.738278 1 
0.145821 0.207363 0.0545439 -0.322477 -0.659538 -0.678984 1 
0.145333 0.207418 0.0552777 -0.304575 -0.71712 -0.626876 1 
0.149241 0.20653 0.0554105 0.133247 -0.714146 0.687197 1 
0.148868 0.206785 0.0547069 0.089041 -0.757579 0.646642 1 
0.148156 0.207186 0.0554436 0.133247 -0.714146 0.687197 1 
0.148583 0.207118 0.0550786 0.133247 -0.714146 0.687197 1 
0.148682 0.206578 0.0548578 0.133247 -0.714146 0.687197 1 
0.148352 0.206942 0.054952 0.133247 -0.714146 0.687197 1 
0.148251 0.207456 0.0547377 0.089041 -0.757579 0.646642 1 
0.148998 0.206614 0.0542342 0.0322972 0.636114 0.770919 1 
0.149376 0.206829 0.0541971 0.0119963 0.467854 0.883724 1 
0.147493 0.207139 0.0548969 0.0242315 -0.939926 -0.340516 1 
0.148294 0.205928 0.0544154 0.133247 -0.714146 0.687197 1 
0.147932 0.205897 0.0543264 0.133247 -0.714146 0.687197 1 
0.147592 0.206573 0.054241 0.133247 -0.714146 0.687197 1 
0.14816 0.206769 0.0538827 0.0671185 -0.806851 0.58693 1 
0.137449 0.204716 0.0540165 0.469829 0.882749 -0.00397038 1 
0.137887 0.204918 0.0531756 0.51128 0.859328 -0.0121412 1 
0.136995 0.205774 0.0547129 0.0861464 0.991258 0.0999299 1 
0.137273 0.204918 0.0542117 0.277027 0.960277 0.0335414 1 
0.135751 0.206121 0.0553855 -0.36656 0.909931 0.194061 1 
0.135617 0.206214 0.054553 -0.0473846 0.995076 0.0870554 1 
0.135296 0.206265 0.0548267 -0.103315 0.990194 0.0940278 1 
0.137305 0.205313 0.0543948 0.277027 0.960277 0.0335414 1 
0.137125 0.204854 0.0539403 0.404816 0.913804 0.0329655 1 
0.137108 0.205531 0.0544513 0.225317 0.973127 0.0474993 1 
0.137063 0.205562 0.0541738 0.24844 0.968557 0.0132021 1 
0.13705 0.205987 0.0540794 0.262692 0.964818 -0.0108951 1 
0.136406 0.206176 0.0542769 0.10348 0.994497 0.0163389 1 
0.136854 0.205344 0.0537508 0.408191 0.911403 0.0521949 1 
0.135406 0.206693 0.0535597 -0.799744 0.595859 -0.0732261 1 
0.136238 0.206598 0.053126 0.615195 0.770133 0.168609 1 
0.135546 0.206931 0.0531312 -0.677409 0.69627 -0.237329 1 
0.135618 0.206632 0.0529421 -0.609701 0.722908 -0.325066 1 
0.135364 0.206446 0.0522415 -0.609701 0.722908 -0.325066 1 
0.135149 0.206619 0.0529443 -0.68698 0.711137 -0.149475 1 
0.1351 0.206902 0.0532722 -0.676373 0.724364 -0.133475 1 
0.134694 0.206763 0.0523855 -0.635807 0.756626 -0.152533 1 
0.134713 0.207 0.0531297 -0.676373 0.724364 -0.133475 1 
0.139335 0.205433 0.0514854 0.36128 0.816462 0.450407 1 
0.138497 0.205753 0.0520893 0.514477 0.839567 0.174475 1 
0.140192 0.205348 0.0516257 0.460879 0.735093 0.497221 1 
0.139994 0.205567 0.0516822 0.40643 0.788572 0.461485 1 
0.139326 0.205745 0.0513058 0.36128 0.816462 0.450407 1 
0.139274 0.206141 0.051719 0.437623 0.836032 0.330962 1 
0.138204 0.205537 0.0518964 0.46471 0.862179 0.201723 1 
0.138236 0.205931 0.0520795 0.572758 0.793876 0.204227 1 
0.139012 0.206154 0.0507537 0.360184 0.798807 0.481846 1 
0.138115 0.206348 0.0516412 0.514477 0.839567 0.174475 1 
0.137741 0.20602 0.0515931 0.481671 0.850097 0.212902 1 
0.137399 0.206835 0.052028 0.572758 0.793876 0.204227 1 
0.136514 0.206578 0.0525748 0.572758 0.793876 0.204227 1 
0.136747 0.207198 0.0515256 0.565939 0.792315 0.227926 1 
0.136038 0.206764 0.0523123 0.638636 0.735447 0.226411 1 
0.135993 0.206795 0.0520348 0.638636 0.735447 0.226411 1 
0.135329 0.206887 0.0520084 -0.562573 0.759232 -0.327227 1 
0.135332 0.207496 0.051788 -0.625978 0.739506 -0.247553 1 
0.136668 0.206974 0.0515853 0.572758 0.793876 0.204227 1 
0.135984 0.206968 0.0513349 0.428995 0.877288 0.21524 1 
0.136236 0.207103 0.0511652 0.422933 0.882706 0.204835 1 
0.135909 0.207354 0.0511741 0.431802 0.874063 0.222624 1 
0.13808 0.206789 0.0514081 0.437058 0.878531 0.192777 1 
0.138103 0.206608 0.0505915 0.370187 0.799668 0.47275 1 
0.137882 0.207007 0.0514646 0.513021 0.839081 0.180978 1 
0.137703 0.207296 0.0513099 0.449306 0.873569 0.187088 1 
0.137513 0.207176 0.0511108 0.401574 0.889934 0.216232 1 
0.138145 0.207412 0.0508189 0.376229 0.823894 0.423853 1 
0.137918 0.206401 0.0507423 0.363185 0.819942 0.442483 1 
0.138266 0.206831 0.0503018 0.345253 0.788461 0.509047 1 
0.137541 0.202642 0.0607596 0.0263247 -0.569445 -0.821608 1 
0.138429 0.202925 0.0606478 0.0262679 -0.559921 -0.82813 1 
0.13811 0.202838 0.0604013 0.0318165 -0.546413 -0.836911 1 
0.138232 0.203005 0.060184 0.0291394 -0.567524 -0.822841 1 
0.138075 0.203279 0.0601681 0.0234317 -0.563738 -0.825621 1 
0.136842 0.202452 0.0606353 0.0463947 -0.575013 -0.816828 1 
0.137411 0.202648 0.060277 0.0404472 -0.556497 -0.829864 1 
0.1376 0.202768 0.060476 0.0404472 -0.556497 -0.829864 1 
0.137763 0.202991 0.0601864 0.0405292 -0.574397 -0.817573 1 
0.137948 0.203198 0.0600354 0.0263358 -0.580774 -0.813639 1 
0.137344 0.202695 0.0598607 0.0435468 -0.580155 -0.813341 1 
0.137574 0.202871 0.0599873 0.0434184 -0.575644 -0.816547 1 
0.137696 0.203038 0.0597701 0.0349134 -0.579562 -0.81418 1 
0.137032 0.202572 0.0608343 0.0319777 -0.576989 -0.816126 1 
0.14246 0.204955 0.0595023 0.159033 -0.63159 0.758817 1 
0.142136 0.203648 0.0596966 0.0320591 -0.589608 -0.807053 1 
0.142494 0.203765 0.0594356 0.196294 -0.727987 0.656889 1 
0.140593 0.20256 0.060617 0.070437 -0.786307 -0.613808 1 
0.141183 0.202715 0.0599623 0.136622 -0.905649 -0.401415 1 
0.141157 0.202843 0.0599088 0.16863 -0.969303 -0.178928 1 
0.140951 0.2034 0.0602208 0.216924 -0.97306 -0.0780927 1 
0.140561 0.202166 0.0604339 0.1201 -0.754702 0.644981 1 
0.1403 0.202344 0.060424 0.0951184 -0.765338 0.636562 1 
0.140224 0.202729 0.0602633 0.139132 -0.944206 -0.298526 1 
0.140346 0.202896 0.060046 0.0693029 -0.835878 -0.544523 1 
0.139755 0.202716 0.0602655 0.00687996 -0.615069 -0.788444 1 
0.139877 0.202883 0.0600483 0.104429 -0.766307 0.633931 1 
0.139761 0.203212 0.05996 0.0150933 -0.56943 -0.821901 1 
0.139987 0.203475 0.0597367 0.0855922 -0.87697 -0.472862 1 
0.139297 0.203695 0.0596566 -0.00687663 -0.61202 -0.790812 1 
0.139672 0.204023 0.0597048 0.0124642 -0.619057 -0.785247 1 
0.138703 0.20435 0.0598262 -0.0179675 -0.595693 -0.803011 1 
0.14156 0.203651 0.0597901 0.213343 -0.904169 0.370085 1 
0.141852 0.203842 0.059548 0.187143 -0.971362 0.146404 1 
0.141041 0.203895 0.0596852 0.170002 -0.966803 -0.190765 1 
0.141163 0.204062 0.059468 0.173309 -0.959153 -0.223582 1 
0.139109 0.202879 0.060028 -0.001359 -0.561268 -0.827633 1 
0.138927 0.203281 0.0599584 0.00408908 -0.565656 -0.824631 1 
0.139175 0.203528 0.0598739 -0.00968238 -0.623822 -0.781506 1 
0.138152 0.203477 0.0596734 0.00411516 -0.596698 -0.802456 1 
0.13858 0.203434 0.0597435 -0.0265582 -0.61643 -0.786962 1 
0.1384 0.203724 0.0595888 -0.0237342 -0.621279 -0.78323 1 
0.138892 0.203722 0.0597253 -0.0557105 -0.635671 -0.769947 1 
0.138901 0.204132 0.0597696 -0.02649 -0.600904 -0.798882 1 
0.138712 0.204011 0.0595706 -0.0152292 -0.605013 -0.79607 1 
0.138897 0.204218 0.0594198 -0.0264311 -0.599568 -0.799887 1 
0.138522 0.203891 0.0593716 0.00136648 -0.597153 -0.802126 1 
0.138685 0.204114 0.0590819 -0.00136793 -0.592312 -0.805708 1 
0.137962 0.203356 0.0594743 0.00411516 -0.596698 -0.802456 1 
0.138211 0.203604 0.0593898 -0.0180158 -0.611151 -0.791309 1 
0.137692 0.203125 0.0594201 0.0348425 -0.570023 -0.820889 1 
0.138257 0.204156 0.0590118 -0.00136793 -0.592312 -0.805708 1 
0.138253 0.204243 0.0586618 0.00137168 -0.607653 -0.794201 1 
0.141261 0.204941 0.0585416 0.0411844 -0.674572 0.737059 1 
0.140859 0.205603 0.058825 0.0820659 -0.591738 -0.801942 1 
0.138392 0.204228 0.0607997 0.21024 -0.254212 -0.944021 1 
0.138817 0.204855 0.0598644 -0.00406755 -0.543696 -0.839272 1 
0.138352 0.20459 0.0592612 0.0096118 -0.591812 -0.806018 1 
0.138442 0.204363 0.0588609 0.00411287 -0.604591 -0.796525 1 
0.137887 0.203741 0.0593136 -0.0265582 -0.61643 -0.786962 1 
0.137443 0.2036 0.0593694 0.00410793 -0.587434 -0.809262 1 
0.137179 0.203891 0.0594448 -0.061006 -0.583104 -0.810103 1 
0.137621 0.204006 0.0589538 0.00962743 -0.590024 -0.807328 1 
0.137611 0.204319 0.0587742 0.0294557 -0.626986 -0.778473 1 
0.136307 0.2054 0.0601154 -0.799824 -0.586932 0.125666 1 
0.138293 0.205186 0.0594096 -0.224572 -0.462709 -0.857594 1 
0.138154 0.205531 0.0591825 -0.559189 -0.58622 -0.58622 1 
0.138433 0.204675 0.0586813 0.0124372 -0.617713 -0.786305 1 
0.138312 0.204369 0.0583783 0.0237991 -0.662175 -0.748971 1 
0.137659 0.204897 0.0588313 -0.145954 -0.654537 -0.741808 1 
0.13747 0.204777 0.0586323 -0.0679416 -0.698208 -0.712664 1 
0.13752 0.205242 0.0586042 -0.351058 -0.693953 -0.62864 1 
0.137331 0.205122 0.0584052 -0.158991 -0.743473 -0.649592 1 
0.13751 0.205555 0.0584246 -0.514872 -0.71149 -0.478214 1 
0.136678 0.20565 0.0588582 -0.79251 -0.469695 -0.388992 1 
0.137611 0.206486 0.0583685 -0.829357 -0.515875 -0.214568 1 
0.137288 0.206485 0.0577721 -0.658827 -0.694093 -0.290141 1 
0.13677 0.206754 0.0581023 -0.781739 -0.591296 -0.198123 1 
0.139971 0.206572 0.0572758 0.0266077 -0.763222 -0.645588 1 
0.139871 0.206225 0.0566764 0.319598 -0.670021 -0.670021 1 
0.138989 0.207325 0.0573027 0.276803 -0.779795 -0.561516 1 
0.139096 0.206585 0.0573466 0.15772 -0.791606 -0.590325 1 
0.139276 0.206131 0.056546 0.21724 -0.793466 -0.568523 1 
0.138914 0.2061 0.056457 0.331934 -0.784134 -0.52436 1 
0.139006 0.206648 0.0567916 0.355792 -0.78081 -0.513564 1 
0.137393 0.207329 0.0580659 -0.915872 -0.383807 -0.117775 1 
0.138461 0.207907 0.0574533 0.680055 -0.563093 -0.469522 1 
0.138429 0.207512 0.0572702 0.224733 -0.827079 -0.515204 1 
0.137591 0.207111 0.0580094 -0.815997 -0.55643 -0.156636 1 
0.137559 0.206716 0.0578263 -0.654398 -0.702398 -0.279999 1 
0.137468 0.206918 0.0577915 -0.754947 -0.617967 -0.21948 1 
0.137326 0.207376 0.0576495 -0.795893 -0.576756 -0.184136 1 
0.140287 0.206608 0.0566521 0.00679461 -0.838455 -0.544928 1 
0.139516 0.206717 0.0567169 0.322101 -0.770799 -0.549655 1 
0.139465 0.206974 0.0566097 0.305781 -0.823257 -0.478273 1 
0.139128 0.206815 0.0565744 0.451783 -0.757352 -0.471497 1 
0.136816 0.202554 0.0601466 0.0639791 -0.584343 -0.808981 1 
0.136277 0.203423 0.0596825 -0.00404483 -0.529873 -0.848067 1 
0.135773 0.20385 0.0594516 -0.225928 -0.527164 -0.819179 1 
0.136804 0.203563 0.0593966 -0.678221 -0.730504 -0.0798762 1 
0.136926 0.20373 0.0591794 0.0377123 -0.571272 -0.819894 1 
0.136139 0.204351 0.0587999 -0.410472 -0.646451 -0.643128 1 
0.137152 0.203993 0.0589561 -0.02074 -0.587634 -0.808861 1 
0.137224 0.204417 0.0586317 -0.0323869 -0.663228 -0.747716 1 
0.136973 0.204282 0.0588014 -0.0980788 -0.625069 -0.774383 1 
0.136689 0.204476 0.0586528 -0.261752 -0.661519 -0.702765 1 
0.136163 0.204919 0.0582831 -0.627328 -0.65728 -0.417664 1 
0.13535 0.204389 0.0590759 -0.72261 -0.578416 -0.37851 1 
0.135746 0.204675 0.0588277 -0.699754 -0.570108 -0.43049 1 
0.134585 0.204994 0.0588352 -0.715495 -0.59761 -0.361841 1 
0.135868 0.204842 0.0586105 -0.682397 -0.613 -0.398202 1 
0.135225 0.204892 0.0582877 -0.730096 -0.597351 -0.331862 1 
0.135145 0.205364 0.057777 -0.747055 -0.600511 -0.285123 1 
0.136779 0.206416 0.0578467 -0.766353 -0.60158 -0.225398 1 
0.136395 0.206427 0.0580541 -0.840349 -0.493876 -0.223384 1 
0.135583 0.205731 0.0578915 -0.761685 -0.569259 -0.309484 1 
0.135393 0.205611 0.0576925 -0.757242 -0.595992 -0.267169 1 
0.134777 0.204837 0.0579937 -0.72587 -0.606238 -0.324944 1 
0.135204 0.205491 0.0574934 -0.771835 -0.572141 -0.277354 1 
0.13762 0.205982 0.0571576 0.278908 -0.789452 -0.546786 1 
0.137229 0.206193 0.0571002 0.220724 -0.838752 -0.497771 1 
0.136452 0.207059 0.0558097 -0.305313 0.921674 0.239377 1 
0.136645 0.206927 0.0554033 -0.174474 0.971708 0.159192 1 
0.137389 0.207086 0.0558052 -0.235002 0.949515 0.207834 1 
0.1372 0.206965 0.0556061 -0.184495 0.964347 0.189729 1 
0.137014 0.20748 0.0556218 -0.193815 0.969075 0.152742 1 
0.136926 0.207569 0.0555018 -0.132063 0.98631 0.09875 1 
0.136894 0.207174 0.0553188 -0.121452 0.98484 0.123857 1 
0.136736 0.207448 0.0553028 -0.0905581 0.991553 0.0928507 1 
0.137299 0.20787 0.0551149 0.123096 0.992394 -0.00108935 1 
0.137355 0.20811 0.0549165 0.170523 0.984856 -0.0313205 1 
0.137003 0.207767 0.0550071 0.107332 0.994175 -0.00975745 1 
0.171671 0.212944 0.0741923 0.0324754 0.738463 -0.673512 0 
0.17189 0.212684 0.0738395 0.0324754 0.738463 -0.673512 0 
0.1715 0.212895 0.0737821 -0.00973995 0.72493 -0.688753 0 
0.171351 0.21283 0.0735106 0.00972332 0.715358 -0.69869 0 
0.17094 0.21203 0.0719741 0.00138104 0.711237 -0.702951 0 
0.170741 0.2115 0.0717307 0.00415128 0.707101 -0.707101 0 
0.170431 0.211961 0.0720489 0.00974296 0.711236 -0.702885 0 
0.171328 0.211932 0.0721166 -0.0125224 0.724908 -0.688732 0 
0.171287 0.212929 0.0739646 0.00138085 0.719425 -0.694569 0 
0.170973 0.213338 0.0734125 0.0125503 0.698635 -0.715368 0 
0.170856 0.212919 0.0730243 0.00415934 0.702929 -0.711248 0 
0.170717 0.213264 0.0727972 0.0125236 0.691579 -0.722192 0 
0.170639 0.213788 0.0731567 0.0209959 0.695664 -0.71806 0 
0.169887 0.213246 0.0731456 0.058884 0.673576 -0.736769 0 
0.17026 0.213547 0.0727587 0.0295644 0.696874 -0.716584 0 
0.170265 0.212573 0.0722884 0.0210392 0.699902 -0.713929 0 
0.170004 0.212751 0.0722785 0.0648901 0.679183 -0.731095 0 
0.170008 0.213387 0.0724933 0.058884 0.673576 -0.736769 0 
0.169313 0.213111 0.0727188 -0.176576 0.807421 0.562931 0 
0.169818 0.213267 0.0722942 0.0678939 0.677495 -0.732388 0 
0.169086 0.212099 0.0726423 -0.189826 0.812456 0.551255 0 
0.169136 0.212565 0.0726142 -0.180243 0.807306 0.561934 0 
0.168857 0.212672 0.0728155 -0.186435 0.813948 0.55021 0 
0.168806 0.212206 0.0728436 -0.186435 0.813948 0.55021 0 
0.168686 0.2119 0.0725405 -0.196154 0.810466 0.551968 0 
0.168608 0.212424 0.0729001 -0.179536 0.819226 0.544642 0 
0.169056 0.213202 0.0730589 -0.176576 0.807421 0.562931 0 
0.16874 0.213001 0.0727272 -0.182146 0.823419 0.537405 0 
0.168476 0.213292 0.0728025 -0.172381 0.828927 0.532132 0 
0.168492 0.212754 0.0728117 -0.188891 0.820542 0.539473 0 
0.168239 0.212594 0.0725463 -0.175442 0.826226 0.535323 0 
0.167967 0.213223 0.0728772 -0.164454 0.848939 0.502252 0 
0.168287 0.213172 0.0726035 -0.178918 0.828435 0.530739 0 
0.170464 0.213103 0.0725318 0.0324987 0.688126 -0.724863 0 
0.170334 0.21311 0.0720492 0.0325045 0.6939 -0.719338 0 
0.170279 0.212731 0.0717273 0.0210392 0.699902 -0.713929 0 
0.161994 0.21144 0.0710493 -0.291773 0.754146 0.58833 0 
0.161526 0.211426 0.0710516 -0.288837 0.793906 0.535058 0 
0.161409 0.211756 0.0709632 -0.232497 0.968946 0.0842015 0 
0.168127 0.212114 0.0729432 -0.178918 0.828435 0.530739 0 
0.168239 0.211871 0.0726815 -0.178918 0.828435 0.530739 0 
0.167824 0.211488 0.0727059 -0.175442 0.826226 0.535323 0 
0.167987 0.211711 0.0724162 -0.188891 0.820542 0.539473 0 
0.167622 0.211793 0.0724124 -0.154227 0.853391 0.497934 0 
0.167369 0.211633 0.072147 -0.138877 0.852264 0.504341 0 
0.167481 0.212277 0.0727056 -0.144724 0.858111 0.492646 0 
0.167341 0.211874 0.0721786 -0.13859 0.856341 0.497466 0 
0.167069 0.212503 0.0725094 -0.144251 0.864051 0.482295 0 
0.166923 0.211603 0.0722881 -0.131728 0.8613 0.490724 0 
0.167086 0.211826 0.0719984 -0.129421 0.853599 0.504598 0 
0.166775 0.212287 0.0723165 -0.148347 0.847486 0.509667 0 
0.166681 0.212601 0.0723669 -0.154289 0.856669 0.492254 0 
0.166632 0.212884 0.0726948 -0.148759 0.882444 0.446277 0 
0.166247 0.212869 0.0724671 -0.147995 0.889409 0.432491 0 
0.166197 0.212404 0.0724952 -0.143865 0.895954 0.420201 0 
0.166492 0.212481 0.0721679 -0.147995 0.889409 0.432491 0 
0.167975 0.212884 0.0726217 -0.170984 0.843023 0.509977 0 
0.167537 0.212517 0.0725072 -0.144724 0.858111 0.492646 0 
0.16738 0.212791 0.0724913 -0.134615 0.864145 0.484905 0 
0.167579 0.213321 0.0727347 -0.144724 0.858111 0.492646 0 
0.167141 0.212953 0.0726202 -0.150329 0.862566 0.483095 0 
0.16715 0.212615 0.0723646 -0.144965 0.850752 0.50518 0 
0.166952 0.212833 0.0724211 -0.144724 0.858111 0.492646 0 
0.166944 0.213171 0.0726766 -0.144251 0.864051 0.482295 0 
0.166375 0.21281 0.0720795 -0.150405 0.892405 0.425432 0 
0.165894 0.211778 0.0722579 -0.122199 0.955254 0.269363 0 
0.165641 0.211617 0.0719925 -0.0927818 0.976064 0.196697 0 
0.166259 0.211695 0.0722616 -0.133279 0.910509 0.391421 0 
0.166658 0.211868 0.0719282 -0.141804 0.855209 0.498507 0 
0.166017 0.211806 0.0715204 -0.102554 0.968566 0.226632 0 
0.166148 0.211799 0.072003 -0.139293 0.91033 0.389739 0 
0.165944 0.212243 0.0722298 -0.124421 0.957388 0.26063 0 
0.166198 0.212265 0.0719749 -0.143641 0.900243 0.411011 0 
0.165909 0.212684 0.0719967 -0.102361 0.969273 0.223678 0 
0.165958 0.211679 0.071804 -0.102554 0.968566 0.226632 0 
0.165991 0.212073 0.071987 -0.112331 0.961917 0.249195 0 
0.16572 0.212564 0.0717976 -0.0593253 0.987592 0.145405 0 
0.165515 0.211537 0.0718598 -0.0834599 0.980956 0.175387 0 
0.165769 0.211558 0.0716049 -0.0927818 0.976064 0.196697 0 
0.165759 0.211871 0.0714253 -0.0728605 0.98302 0.168415 0 
0.165408 0.212276 0.0718158 -0.0767859 0.986403 0.145302 0 
0.16558 0.211438 0.0714059 -0.0834599 0.980956 0.175387 0 
0.165111 0.211424 0.0714082 -0.0340028 0.994856 0.0954272 0 
0.165359 0.211672 0.0713236 -0.0566716 0.988861 0.137631 0 
0.165919 0.212929 0.0710856 -0.0109442 0.9999 0.00895433 0 
0.166353 0.212991 0.0728962 -0.131667 0.899016 0.417653 0 
0.166428 0.213328 0.0729217 -0.149763 0.900002 0.409351 0 
0.166239 0.213208 0.0727227 -0.149127 0.904703 0.399092 0 
0.165964 0.213063 0.0723185 -0.104727 0.960642 0.257292 0 
0.165847 0.213392 0.0722302 -0.0908037 0.973963 0.207729 0 
0.165165 0.212526 0.0715948 0.00916874 0.999393 -0.0336187 0 
0.164904 0.212704 0.0715849 -0.304332 0.503015 0.808924 0 
0.164612 0.213236 0.0716919 -0.301988 0.564031 0.768552 0 
0.164517 0.212801 0.0714424 -0.268623 0.713678 0.64692 0 
0.164382 0.21306 0.0715653 -0.283618 0.65857 0.697027 0 
0.163674 0.213209 0.0716965 -0.265476 0.723303 0.63746 0 
0.165896 0.213109 0.0719023 -0.0945101 0.969044 0.228084 0 
0.165666 0.212933 0.0717756 -0.0593253 0.987592 0.145405 0 
0.165849 0.213253 0.0717099 -0.0819655 0.977469 0.194515 0 
0.165524 0.213391 0.0716337 0.0237154 0.999139 -0.0340264 0 
0.165414 0.212773 0.0715102 0.00717233 0.999003 -0.0440586 0 
0.165468 0.213151 0.0718321 0.0237154 0.999139 -0.0340264 0 
0.16519 0.213119 0.0715132 0.139466 0.926553 -0.349356 0 
0.165348 0.212846 0.0715291 0.00100859 0.999511 -0.0312662 0 
0.164891 0.213129 0.0714906 -0.298345 0.563186 0.770592 0 
0.164683 0.211467 0.071338 0.0755909 0.982682 -0.16918 0 
0.164542 0.211951 0.0716312 0.0506936 0.992468 -0.111526 0 
0.163969 0.211841 0.0716396 -0.286899 0.639513 0.713241 0 
0.16396 0.211432 0.0715952 0.106892 0.962032 -0.251133 0 
0.163178 0.211992 0.0720008 0.166402 0.908813 -0.382583 0 
0.163818 0.212612 0.071318 -0.247585 0.795696 0.552783 0 
0.163683 0.21287 0.0714409 -0.248738 0.786888 0.564745 0 
0.164327 0.212681 0.0712433 -0.241828 0.787891 0.566345 0 
0.164111 0.212828 0.071511 -0.254032 0.752629 0.607468 0 
0.163691 0.212532 0.0711854 -0.248738 0.786888 0.564745 0 
0.163493 0.21275 0.0712419 -0.233861 0.797605 0.556 0 
0.163189 0.211541 0.07166 -0.282725 0.714 0.640524 0 
0.163072 0.21187 0.0715717 -0.26583 0.788052 0.555255 0 
0.163317 0.212204 0.0711372 -0.255306 0.790978 0.556034 0 
0.162789 0.212064 0.0714231 -0.275998 0.790143 0.547265 0 
0.162816 0.211796 0.0709564 -0.290556 0.773227 0.563646 0 
0.163159 0.212478 0.0711213 -0.221052 0.830852 0.510707 0 
0.16265 0.212574 0.0721514 -0.323339 0.558202 0.764109 0 
0.163485 0.213088 0.0714974 -0.256349 0.775338 0.577179 0 
0.163295 0.212968 0.0712984 -0.225759 0.815497 0.532914 0 
0.162849 0.212217 0.0715746 -0.264974 0.791786 0.55033 0 
0.163043 0.212808 0.071033 -0.223031 0.807525 0.546041 0 
0.162779 0.213098 0.0711083 -0.518469 0.488462 0.701851 0 
0.162904 0.21243 0.0709411 -0.197072 0.840942 0.503963 0 
0.162916 0.212727 0.0709003 -0.513511 0.513511 0.687469 0 
0.162664 0.212567 0.0706349 -0.416825 0.652638 0.63271 0 
0.162508 0.212867 0.0710541 -0.438546 0.585284 0.681997 0 
0.164173 0.213564 0.071007 -0.236824 0.803345 0.546398 0 
0.162806 0.211387 0.070912 -0.297999 0.766512 0.568908 0 
0.162862 0.211626 0.0707136 -0.268296 0.826601 0.49472 0 
0.162157 0.211663 0.0707596 -0.318864 0.681431 0.65877 0 
0.16223 0.212112 0.0708704 -0.333227 0.684334 0.648573 0 
0.162041 0.211992 0.0706713 -0.295546 0.749248 0.592689 0 
0.162274 0.212778 0.0705775 -0.323728 0.748922 0.5782 0 
0.162449 0.212575 0.0703823 -0.344325 0.764629 0.544778 0 
0.162125 0.212713 0.0703061 -0.26118 0.829903 0.492997 0 
0.161925 0.212905 0.0699275 -0.259549 0.84622 0.465344 0 
0.162111 0.213277 0.070732 -0.346432 0.736778 0.58064 0 
0.162003 0.213268 0.0703881 -0.28578 0.826108 0.48567 0 
0.161455 0.211586 0.0707205 -0.245263 0.961586 0.12328 0 
0.161132 0.212472 0.0709442 -0.326576 0.767374 0.551802 0 
0.162585 0.2129 0.0696039 -0.323714 0.79573 0.511882 0 
0.161935 0.213315 0.0699718 -0.277868 0.852026 0.443668 0 
0.161859 0.2137 0.0698111 -0.280721 0.854436 0.437189 0 
0.160318 0.211751 0.0703464 -0.360343 0.817519 0.449239 0 
0.159285 0.211289 0.0701015 -0.0497883 0.905609 -0.421182 0 
0.15879 0.210656 0.0697504 -0.19878 0.962306 0.185616 0 
0.158989 0.211186 0.0699937 -0.278782 0.892997 0.353323 0 
0.158906 0.211049 0.0697034 -0.26868 0.905878 0.327408 0 
0.158676 0.210873 0.0695768 -0.20996 0.971852 0.106866 0 
0.158478 0.210369 0.0697686 -0.139303 0.980049 0.141768 0 
0.15828 0.210587 0.069825 -0.11503 0.978371 0.171926 0 
0.158347 0.210514 0.0698062 -0.11503 0.978371 0.171926 0 
0.159146 0.21147 0.068919 -0.324363 0.875627 0.357865 0 
0.157508 0.210835 0.0704102 0.383811 0.141996 -0.912429 0 
0.158421 0.21099 0.070352 -0.186078 0.975346 0.11864 0 
0.158394 0.211092 0.0698633 -0.184394 0.974653 0.126692 0 
0.157497 0.212008 0.0706157 0.383811 0.141996 -0.912429 0 
0.157825 0.211619 0.0700864 -0.0953872 0.988023 0.121295 0 
0.158828 0.211547 0.0696278 -0.257724 0.920032 0.295159 0 
0.158648 0.211836 0.0694732 0.0981094 0.407638 -0.907858 0 
0.158242 0.211863 0.0695418 -0.209753 0.969948 0.123309 0 
0.158044 0.212081 0.0695983 -0.158922 0.985318 0.0623917 0 
0.158019 0.210765 0.0698151 -0.101324 0.980276 0.169687 0 
0.157916 0.210669 0.0698213 0.383811 0.141996 -0.912429 0 
0.158144 0.210819 0.0695128 -0.112316 0.978751 0.171559 0 
0.157875 0.211336 0.0697585 0.383811 0.141996 -0.912429 0 
0.15783 0.210645 0.0696161 0.383811 0.141996 -0.912429 0 
0.157892 0.210659 0.0692474 0.383811 0.141996 -0.912429 0 
0.157997 0.211503 0.0695412 -0.0953872 0.988023 0.121295 0 
0.15783 0.211367 0.0694809 0.383811 0.141996 -0.912429 0 
0.157775 0.210988 0.0691591 0.378531 0.150568 -0.91326 0 
0.15788 0.211832 0.0694528 -0.0866764 0.990422 0.107479 0 
0.157723 0.212106 0.0694369 0.378531 0.150568 -0.91326 0 
0.157569 0.211545 0.0694711 0.378531 0.150568 -0.91326 0 
0.157379 0.211425 0.069272 0.365978 0.150037 -0.918449 0 
0.157493 0.21193 0.0693103 0.373533 0.153642 -0.914804 0 
0.157222 0.211698 0.0692561 0.342543 0.36712 -0.864805 0 
0.157392 0.210277 0.0695017 0.381136 0.157272 -0.911044 0 
0.157636 0.210611 0.0690672 0.376925 0.153876 -0.913373 0 
0.156941 0.210335 0.0692928 -0.0775061 0.975593 0.205453 0 
0.157257 0.21037 0.0686691 0.009223 0.999159 0.0399663 0 
0.157274 0.21058 0.0689782 0.364399 0.143805 -0.920073 0 
0.157626 0.210923 0.0688876 0.376925 0.153876 -0.913373 0 
0.157374 0.210763 0.0686222 0.364399 0.143805 -0.920073 0 
0.156916 0.211908 0.0689687 -0.0309545 0.987103 0.157065 0 
0.157032 0.211578 0.0690571 -0.0309545 0.987103 0.157065 0 
0.156739 0.211362 0.0688641 -0.0842726 0.978295 0.189308 0 
0.157247 0.210683 0.0684895 -0.0309545 0.987103 0.157065 0 
0.157256 0.210344 0.068234 -0.0666877 0.978491 0.195213 0 
0.157066 0.210224 0.068035 -0.104722 0.970252 0.218275 0 
0.156456 0.211556 0.0687155 -0.117794 0.961768 0.247238 0 
0.156645 0.211676 0.0689145 -0.0832631 0.97306 0.214993 0 
0.156343 0.211798 0.0689771 -0.119393 0.956457 0.266338 0 
0.156154 0.211678 0.0687781 -0.118092 0.948717 0.29324 0 
0.156225 0.211379 0.0685889 -0.12927 0.959734 0.2494 0 
0.155996 0.211952 0.0687621 -0.128526 0.940272 0.315228 0 
0.155964 0.211558 0.068579 -0.14592 0.939614 0.309568 0 
0.155775 0.211437 0.06838 -0.149349 0.935828 0.31925 0 
0.155807 0.211831 0.0685631 -0.148842 0.938116 0.312705 0 
0.155353 0.212002 0.0684394 -0.15358 0.931163 0.33068 0 
0.154516 0.210713 0.0683584 -0.186134 0.880839 0.43529 0 
0.155441 0.211165 0.0682594 -0.159532 0.930836 0.328775 0 
0.155243 0.211384 0.0683159 -0.15358 0.931163 0.33068 0 
0.15499 0.211223 0.0680505 -0.161626 0.920566 0.355577 0 
0.155108 0.211642 0.0684387 -0.15358 0.931163 0.33068 0 
0.154853 0.211594 0.0682586 -0.165908 0.927135 0.335999 0 
0.154396 0.211878 0.06822 -0.206063 0.85283 0.479811 0 
0.155451 0.211575 0.0683038 -0.159532 0.930836 0.328775 0 
0.1546 0.211434 0.0679932 -0.183808 0.898778 0.39801 0 
0.154207 0.211757 0.068021 -0.214361 0.8316 0.512339 0 
0.154225 0.211106 0.067945 -0.192728 0.856072 0.47958 0 
0.153769 0.21139 0.0679065 -0.192427 0.82274 0.534856 0 
0.153697 0.211688 0.0680957 0.12381 0.672752 -0.729436 0 
0.159122 0.212346 0.0691653 -0.343615 0.821825 0.454458 0 
0.15868 0.212231 0.0696563 -0.259599 0.950967 -0.168134 0 
0.158158 0.212587 0.0696366 0.111733 0.454005 -0.883966 0 
0.149756 0.211041 0.0695258 0.132173 0.785615 -0.604433 0 
0.152598 0.209855 0.06814 0.04392 0.774975 -0.630464 0 
0.152346 0.209694 0.0678747 0.0555191 0.778691 -0.624946 0 
0.153108 0.209759 0.06711 0.092213 0.712821 -0.695257 0 
0.153041 0.209971 0.0676491 0.0859818 0.733031 -0.674739 0 
0.152771 0.210487 0.0678948 0.0585349 0.772376 -0.632463 0 
0.153394 0.211062 0.0678584 0.0984049 0.718209 -0.688834 0 
0.153205 0.210942 0.0676593 0.101733 0.718027 -0.68854 0 
0.153147 0.211563 0.0682428 0.0707954 0.752743 -0.654496 0 
0.153029 0.211144 0.0678546 0.0647395 0.758171 -0.648834 0 
0.152758 0.210913 0.0678003 0.0497511 0.777539 -0.626864 0 
0.152709 0.211196 0.0681283 0.0496625 0.776154 -0.628585 0 
0.152642 0.211242 0.067712 0.0555191 0.778691 -0.624946 0 
0.15191 0.211546 0.0682247 0.0616512 0.769924 -0.635151 0 
0.152501 0.211726 0.0680052 0.0708333 0.747364 -0.660629 0 
0.15219 0.211439 0.0680234 0.0766393 0.759163 -0.646373 0 
0.152222 0.211833 0.0682065 0.0708333 0.747364 -0.660629 0 
0.152528 0.210737 0.0676737 0.0555664 0.785054 -0.61693 0 
0.152452 0.211122 0.067513 0.0615481 0.780086 -0.622638 0 
0.152194 0.210465 0.0675532 0.0672003 0.793535 -0.604802 0 
0.152118 0.21085 0.0673924 0.0704015 0.788784 -0.610625 0 
0.151919 0.211207 0.0679692 0.0645432 0.778821 -0.623917 0 
0.151788 0.211214 0.0674866 0.0948749 0.780894 -0.617417 0 
0.153386 0.211401 0.0681138 0.0892543 0.730129 -0.677455 0 
0.151842 0.210122 0.0676438 0.0884773 0.784692 -0.613539 0 
0.150531 0.210516 0.0679001 0.148119 0.788474 -0.596966 0 
0.151951 0.210714 0.0673321 0.07625 0.789835 -0.608561 0 
0.151617 0.210442 0.0672116 0.0977667 0.780674 -0.617243 0 
0.151662 0.211134 0.0673539 0.104154 0.781889 -0.614656 0 
0.151409 0.210973 0.0670885 0.106708 0.796659 -0.594936 0 
0.150865 0.210622 0.0670653 0.154605 0.788033 -0.595903 0 
0.150793 0.210921 0.0672544 0.14493 0.796368 -0.587191 0 
0.150675 0.210502 0.0668662 0.161558 0.774572 -0.611504 0 
0.150518 0.210776 0.0668503 0.168215 0.771365 -0.613758 0 
0.150288 0.2106 0.0667237 0.184767 0.771134 -0.609272 0 
0.150316 0.211411 0.0684676 0.14493 0.796368 -0.587191 0 
0.150341 0.21023 0.0667457 0.184578 0.776446 -0.602547 0 
0.14983 0.210135 0.0663853 0.184857 0.768453 -0.612624 0 
0.150017 0.210368 0.0666695 0.191645 0.765047 -0.614797 0 
0.150007 0.210681 0.0664899 0.192006 0.76649 -0.612884 0 
0.149638 0.210127 0.0662714 0.171714 0.764354 -0.621512 0 
0.149386 0.209967 0.066006 0.1754 0.748884 -0.639068 0 
0.14963 0.210466 0.0665269 0.195222 0.757831 -0.622559 0 
0.149188 0.210185 0.0660625 0.182491 0.746831 -0.639484 0 
0.14944 0.210346 0.0663279 0.178572 0.755498 -0.630345 0 
0.149242 0.210564 0.0663844 0.178572 0.755498 -0.630345 0 
0.149061 0.210105 0.0659298 0.165428 0.751254 -0.638945 0 
0.149112 0.21057 0.0659017 0.1754 0.748884 -0.639068 0 
0.148655 0.210854 0.0658632 0.139206 0.758898 -0.636157 0 
0.149268 0.209548 0.0656178 0.284699 0.590074 -0.755486 0 
0.149155 0.209791 0.0658794 0.182429 0.749645 -0.636202 0 
0.14888 0.209646 0.0654752 0.271288 0.537872 -0.798183 0 
0.149469 0.209217 0.0654761 0.324168 0.475973 -0.817536 0 
0.149078 0.209428 0.0654188 0.295041 0.512772 -0.806235 0 
0.148691 0.209526 0.0652762 0.221149 0.579935 -0.784072 0 
0.148545 0.208626 0.0650548 0.204857 0.523524 -0.827016 0 
0.149066 0.208244 0.0646394 0.284301 0.43183 -0.855976 0 
0.148906 0.20863 0.0647087 0.25474 0.456092 -0.852694 0 
0.148809 0.209944 0.0656644 0.145376 0.771842 -0.618972 0 
0.148882 0.210394 0.0657751 0.152476 0.759362 -0.63255 0 
0.148692 0.210274 0.0655761 0.13244 0.775295 -0.617557 0 
0.148619 0.209824 0.0654654 0.195678 0.624012 -0.756518 0 
0.148503 0.210154 0.065377 0.195678 0.624012 -0.756518 0 
0.148305 0.210372 0.0654336 0.104388 0.768942 -0.630738 0 
0.148403 0.210693 0.0655979 0.116644 0.772214 -0.624563 0 
0.148097 0.210903 0.0653105 0.0948297 0.771768 -0.628794 0 
0.14825 0.209993 0.0651117 0.155592 0.623879 -0.765876 0 
0.147906 0.210034 0.0648115 0.147854 0.586934 -0.79602 0 
0.147921 0.210218 0.0646856 0.147854 0.586934 -0.79602 0 
0.148024 0.210453 0.0651997 0.146201 0.649613 -0.746075 0 
0.147885 0.210798 0.0649727 0.142356 0.63086 -0.762726 0 
0.147772 0.211041 0.0652343 0.0921247 0.735535 -0.671194 0 
0.14751 0.21047 0.0649245 0.0920452 0.638472 -0.764121 0 
0.147438 0.210769 0.0651137 0.0951217 0.657071 -0.747803 0 
0.147249 0.210648 0.0649147 0.0766996 0.635304 -0.768443 0 
0.147943 0.211027 0.0696013 0.193525 0.8061 -0.559241 0 
0.148035 0.211549 0.0695008 0.193227 0.810946 -0.552295 0 
0.143152 0.20636 0.0655293 0.0349045 -0.225074 -0.973716 0 
0.142524 0.205289 0.0658713 0.842472 -0.530657 0.0929723 0 
0.142453 0.205448 0.0655402 -0.0525033 -0.311178 -0.9489 0 
0.143155 0.205525 0.0655794 0.85095 -0.514026 -0.107989 0 
0.142458 0.206084 0.0657549 0.269124 -0.392409 -0.879538 0 
0.142816 0.206201 0.065494 0.13498 -0.323133 -0.936678 0 
0.142626 0.206081 0.0652949 0.219341 -0.3646 -0.904962 0 
0.141245 0.205189 0.0654906 0.156798 -0.427238 -0.890439 0 
0.140929 0.204989 0.0651589 0.198104 -0.460256 -0.865401 0 
0.142198 0.206288 0.0661802 0.194454 -0.375944 -0.90601 0 
0.141819 0.206047 0.0657821 0.231691 -0.420033 -0.877435 0 
0.141802 0.206559 0.0653378 0.395783 -0.43424 -0.809192 0 
0.140947 0.205225 0.0659031 0.0676003 -0.356559 -0.931824 0 
0.140491 0.204786 0.0659997 0.0576051 -0.303387 -0.951125 0 
0.141363 0.205608 0.0658788 0.140297 -0.406718 -0.902716 0 
0.141161 0.205913 0.0655854 0.273137 -0.461401 -0.844101 0 
0.139419 0.202851 0.0665328 -0.802485 0.514414 -0.302317 0 
0.139016 0.202764 0.0665163 -0.652845 0.287123 -0.700966 0 
0.138764 0.202604 0.0662509 -0.652845 0.287123 -0.700966 0 
0.138665 0.202282 0.0660866 -0.613958 0.559835 0.556453 0 
0.139199 0.203084 0.0664506 -0.802485 0.514414 -0.302317 0 
0.139822 0.203659 0.0664142 0.109339 -0.336115 -0.935453 0 
0.1389 0.203094 0.0664279 -0.684049 0.359249 -0.634837 0 
0.138634 0.203359 0.0660682 -0.684334 0.333227 -0.648573 0 
0.138901 0.202955 0.0659077 -0.631114 0.27184 -0.726497 0 
0.138445 0.203238 0.0658691 -0.676706 0.311705 -0.667015 0 
0.138682 0.203937 0.0661253 -0.723076 0.57551 -0.382033 0 
0.138429 0.203777 0.0658599 -0.563511 0.337461 -0.754039 0 
0.13825 0.202621 0.0659757 -0.600799 0.563566 0.566951 0 
0.133469 0.207806 0.0610604 0.161853 0.624724 -0.763887 0 
0.133176 0.20759 0.0608674 0.136487 0.691433 -0.709431 0 
0.133082 0.207904 0.0609178 0.136184 0.650991 -0.746769 0 
0.146998 0.208182 0.0645347 0.28664 -0.667759 -0.686975 0 
0.146003 0.209499 0.0649875 0.275493 -0.721379 -0.635387 0 
0.145895 0.208767 0.0647788 0.0593253 0.145405 -0.987592 0 
0.146008 0.209273 0.0648172 0.275493 -0.721379 -0.635387 0 
0.145625 0.209284 0.0650245 0.268971 -0.724152 -0.635026 0 
0.146228 0.208291 0.0645995 0.0230935 0.256459 -0.966279 0 
0.145768 0.208687 0.0646462 0.0793053 0.0358504 -0.996206 0 
0.145516 0.208527 0.0643808 0.0377188 0.14516 -0.988689 0 
0.14849 0.208247 0.0647329 0.183012 0.489521 -0.85257 0 
0.148669 0.207932 0.0644525 0.224837 0.418405 -0.879992 0 
0.148219 0.208015 0.0646787 0.142437 0.521291 -0.841408 0 
0.14677 0.210225 0.0648726 0.275633 -0.715372 -0.642082 0 
0.146393 0.21001 0.0649096 0.258824 -0.700255 -0.665322 0 
0.147144 0.209804 0.0646209 0.279075 -0.738352 -0.613965 0 
0.146911 0.209741 0.0645794 0.265476 -0.723303 -0.63746 0 
0.14793 0.209879 0.06443 0.14705 0.551067 -0.821402 0 
0.147519 0.210132 0.064669 0.0856803 0.620093 -0.779836 0 
0.147402 0.210461 0.0645807 0.088679 0.614938 -0.783573 0 
0.14688 0.210095 0.0646962 0.268718 -0.733011 -0.624888 0 
0.146455 0.209302 0.0646761 0.276578 -0.669863 -0.689048 0 
0.146406 0.209585 0.0650041 0.268905 -0.673059 -0.688971 0 
0.14347 0.206422 0.0653408 -0.0380965 -0.155849 -0.987046 0 
0.143714 0.206756 0.0649063 0.0979695 -0.240471 -0.9657 0 
0.143962 0.207003 0.0648217 0.265326 -0.45857 -0.848125 0 
0.145541 0.210008 0.0651193 0.254032 -0.752629 -0.607468 0 
0.145612 0.209709 0.0649301 0.264619 -0.733644 -0.625895 0 
0.145351 0.209888 0.0649203 0.260866 -0.741492 -0.618174 0 
0.144615 0.208807 0.0649184 0.140032 -0.276063 -0.950884 0 
0.144429 0.209322 0.0649341 0.167076 -0.313439 -0.934795 0 
0.145301 0.209422 0.0649483 0.268352 -0.725661 -0.633564 0 
0.144979 0.209447 0.0647869 0.267785 -0.743143 -0.613212 0 
0.144977 0.20956 0.0648721 0.261156 -0.748647 -0.609364 0 
0.144588 0.209797 0.0652499 0.0713693 0.0559975 -0.995877 0 
0.144404 0.209451 0.0648804 0.161104 -0.280239 -0.946315 0 
0.144095 0.20905 0.0648135 -0.275341 0.797703 -0.536522 0 
0.143784 0.208763 0.0648317 -0.345315 0.896633 -0.277141 0 
0.143855 0.208465 0.0646425 -0.369566 0.905798 -0.207247 0 
0.144092 0.209163 0.0648987 -0.275341 0.797703 -0.536522 0 
0.143781 0.209598 0.0647817 -0.162671 0.740382 -0.652205 0 
0.143649 0.209021 0.0649545 -0.345315 0.896633 -0.277141 0 
0.143444 0.209439 0.0647463 -0.125876 0.783393 -0.608647 0 
0.143643 0.209969 0.0649897 0.244266 -0.447569 -0.860242 0 
0.143309 0.209698 0.0648691 0.0954854 0.294304 -0.95093 0 
0.143079 0.209522 0.0647425 0.286737 -0.39597 -0.872347 0 
0.146362 0.210364 0.0650264 0.258216 -0.704945 -0.660589 0 
0.146132 0.210188 0.0648998 0.255255 -0.705519 -0.661126 0 
0.14293 0.20729 0.0648768 0.27153 -0.354622 -0.894715 0 
0.142798 0.207435 0.0649144 0.287272 -0.371498 -0.882872 0 
0.14317 0.207876 0.0650477 0.233955 -0.314333 -0.920033 0 
0.143264 0.208284 0.064862 0.280813 -0.39921 -0.872797 0 
0.142846 0.208014 0.0649715 0.296961 -0.366302 -0.881838 0 
0.142565 0.208095 0.0647377 0.33204 -0.41622 -0.846469 0 
0.142299 0.207054 0.0651687 0.346229 -0.415161 -0.841289 0 
0.142471 0.207686 0.0649234 0.343917 -0.425578 -0.837021 0 
0.143396 0.208861 0.0646892 0.284413 -0.406087 -0.868448 0 
0.143019 0.208646 0.0647262 0.297829 -0.401687 -0.865994 0 
0.143072 0.208999 0.064613 0.287911 -0.400638 -0.869826 0 
0.142776 0.208896 0.0645052 0.31578 -0.405122 -0.857997 0 
0.142505 0.208664 0.064451 0.357521 -0.582808 -0.729735 0 
0.142826 0.209361 0.0644771 0.323415 -0.403882 -0.855735 0 
0.142555 0.209129 0.0644229 0.343132 -0.606579 -0.717162 0 
0.142312 0.209379 0.0642018 0.348002 -0.40106 -0.847376 0 
0.142303 0.208969 0.0641575 0.33725 -0.559932 -0.756795 0 
0.142123 0.209258 0.0640028 0.342578 -0.479609 -0.807846 0 
0.14205 0.208808 0.0638921 0.324145 -0.572495 -0.753113 0 
0.141852 0.209027 0.0639486 0.333536 -0.499506 -0.799529 0 
0.141654 0.209245 0.0640051 0.352038 -0.473101 -0.807617 0 
0.140697 0.20912 0.0637857 0.372521 -0.423247 -0.825887 0 
0.140705 0.208782 0.0635302 0.354183 -0.459008 -0.81478 0 
0.140297 0.208921 0.063684 0.372949 -0.433255 -0.820487 0 
0.140328 0.208567 0.0635672 0.366 -0.435714 -0.822312 0 
0.140107 0.208801 0.063485 0.374826 -0.441817 -0.815048 0 
0.141599 0.208866 0.0636832 0.334214 -0.516513 -0.788362 0 
0.141528 0.209164 0.0638724 0.347327 -0.49138 -0.798692 0 
0.141021 0.208982 0.063862 0.353491 -0.487849 -0.798153 0 
0.140242 0.209265 0.0632269 0.403656 -0.369102 -0.837154 0 
0.139989 0.209104 0.0629616 0.414069 -0.345318 -0.842201 0 
0.140188 0.208164 0.0630403 0.371879 -0.454873 -0.809195 0 
0.140065 0.208719 0.0631223 0.405412 -0.380172 -0.831331 0 
0.139561 0.208424 0.0630267 0.397099 -0.397099 -0.827421 0 
0.139637 0.207874 0.062232 0.569789 0.176831 -0.802541 0 
0.140214 0.207897 0.0625736 0.384076 -0.435074 -0.814369 0 
0.140088 0.207816 0.0624409 0.496273 -0.206655 -0.843212 0 
0.139439 0.208092 0.0622885 0.531812 0.0458219 -0.845622 0 
0.139612 0.20889 0.0629986 0.414515 -0.342561 -0.843107 0 
0.139296 0.208689 0.0626668 0.390524 -0.371704 -0.842215 0 
0.138524 0.208937 0.063252 0.375919 -0.394793 -0.838346 0 
0.137672 0.208935 0.0634616 0.383135 -0.427649 -0.818733 0 
0.13902 0.208683 0.062783 0.381697 -0.384838 -0.840361 0 
0.138984 0.208402 0.062685 0.376441 -0.398491 -0.836359 0 
0.138638 0.208555 0.0624701 0.38068 -0.409113 -0.829283 0 
0.138114 0.20905 0.0629707 0.375722 -0.426452 -0.822783 0 
0.138308 0.208919 0.0625643 0.375748 -0.42014 -0.826012 0 
0.138191 0.209249 0.0624759 0.379457 -0.420737 -0.82401 0 
0.139746 0.209354 0.0627405 0.42782 -0.286747 -0.857174 0 
0.139412 0.209082 0.0626199 0.413781 -0.323896 -0.850809 0 
0.139121 0.208727 0.0619067 0.375919 -0.394793 -0.838346 0 
0.139029 0.208928 0.061872 0.372747 -0.397911 -0.838288 0 
0.138705 0.209231 0.0627512 0.371766 -0.396864 -0.839219 0 
0.138514 0.208362 0.0622522 0.447379 -0.0817194 -0.890603 0 
0.137636 0.208462 0.0619732 0.427199 0.0306093 -0.903639 0 
0.137438 0.20868 0.0620298 0.426315 -0.279626 -0.86027 0 
0.13705 0.208778 0.0618872 0.423186 -0.202009 -0.883236 0 
0.13681 0.208192 0.0617162 0.26654 0.434079 -0.860542 0 
0.136653 0.208466 0.0617002 0.344747 0.217811 -0.913076 0 
0.137122 0.20848 0.061698 0.347061 0.322812 -0.880535 0 
0.1382 0.20891 0.0622204 0.389093 -0.41768 -0.821066 0 
0.137939 0.209088 0.0622105 0.391095 -0.426214 -0.815712 0 
0.13801 0.20879 0.0620214 0.425116 -0.346682 -0.836115 0 
0.137812 0.209008 0.0620779 0.389262 -0.440522 -0.808959 0 
0.136436 0.207865 0.0616681 0.175766 0.477079 -0.861105 0 
0.136233 0.20817 0.0613746 0.114879 0.54531 -0.830325 0 
0.136536 0.208796 0.061612 0.369134 0.0595378 -0.927467 0 
0.135143 0.20833 0.0617132 0.302004 -0.203677 -0.931295 0 
0.135576 0.208062 0.0616129 -0.0432306 0.548052 -0.835326 0 
0.135387 0.207942 0.0614139 -0.0783572 0.55135 -0.830586 0 
0.135793 0.207915 0.0613453 -0.00407079 0.546843 -0.837225 0 
0.134953 0.208209 0.0615142 0.216511 -0.020113 -0.976073 0 
0.135355 0.207547 0.0612308 -0.0265364 0.624305 -0.78073 0 
0.135094 0.207725 0.061221 -0.0735501 0.638876 -0.765786 0 
0.134764 0.208089 0.0613151 -0.136419 0.6761 -0.724071 0 
0.134754 0.207679 0.0612708 -0.0125088 0.668528 -0.743581 0 
0.134574 0.207969 0.0611161 -0.0209333 0.632187 -0.774533 0 
0.135165 0.207427 0.0610317 -0.0153246 0.6506 -0.759266 0 
0.134258 0.207768 0.0607844 0.0296241 0.698282 -0.71521 0 
0.134913 0.207266 0.0607664 0.038275 0.676192 -0.735731 0 
0.134715 0.207485 0.0608229 -0.00974312 0.70568 -0.708464 0 
0.134358 0.208116 0.0613837 0.0209775 0.650303 -0.759386 0 
0.13425 0.208107 0.0610399 0.0124969 0.65678 -0.753978 0 
0.133971 0.208213 0.0612412 -0.283928 0.857924 0.428195 0 
0.134908 0.207353 0.0604164 -0.00689512 0.630214 -0.776391 0 
0.133938 0.207819 0.0610581 0.0891231 0.714446 -0.693991 0 
0.133749 0.207699 0.0608591 0.120561 0.736761 -0.665318 0 
0.13374 0.208037 0.0611146 0.144301 0.575718 -0.804815 0 
0.132723 0.20776 0.0607437 0.120705 0.710821 -0.692939 0 
0.132533 0.20764 0.0605447 0.127096 0.713232 -0.689308 0 
0.132266 0.208044 0.0607051 0.133455 0.727252 -0.673271 0 
0.131496 0.208152 0.0607699 0.108959 0.823729 -0.556416 0 
0.131798 0.20803 0.0607074 0.1028 0.829641 -0.548751 0 
0.132344 0.207519 0.0603456 0.136419 0.724071 -0.6761 0 
0.132014 0.207883 0.0604398 0.143186 0.724974 -0.673729 0 
0.131824 0.207763 0.0602407 0.152616 0.729835 -0.666371 0 
0.131635 0.207642 0.0600417 0.159181 0.729201 -0.665528 0 
0.131369 0.208072 0.0606373 0.108959 0.823729 -0.556416 0 
0.131822 0.207876 0.0603259 0.152616 0.729835 -0.666371 0 
0.131035 0.2078 0.0605167 0.0080012 0.984148 -0.177169 0 
0.131356 0.207749 0.060243 0.0938575 0.883942 -0.458081 0 
0.130604 0.207955 0.0605318 -0.255047 0.850665 0.459695 0 
0.13092 0.208156 0.0608635 0.091984 0.864649 -0.493883 0 
0.129091 0.20721 0.0607651 -0.38425 0.69429 0.608534 0 
0.131166 0.207629 0.060044 -0.0466708 0.998755 -0.0176312 0 
0.130968 0.207847 0.0601005 -0.11503 0.978371 0.171926 0 
0.13081 0.207373 0.0597846 -0.262904 0.819824 0.508695 0 
0.13086 0.207838 0.0597566 -0.262904 0.819824 0.508695 0 
0.130415 0.207835 0.0603328 -0.323165 0.757267 0.567548 0 
0.129652 0.207579 0.059707 -0.367402 0.729906 0.576414 0 
0.129205 0.20755 0.059848 -0.326485 0.801082 0.501672 0 
0.130199 0.207817 0.059645 -0.341546 0.746221 0.571402 0 
0.128338 0.206476 0.0593635 -0.513511 0.513511 0.687469 0 
0.12901 0.206933 0.0599545 -0.389262 0.721039 0.573217 0 
0.129016 0.20743 0.0596489 -0.30511 0.827708 0.470964 0 
0.128826 0.207309 0.0594499 -0.304066 0.834234 0.459998 0 
0.128632 0.207441 0.0598563 -0.31249 0.82755 0.46638 0 
0.128484 0.207376 0.0595849 -0.303709 0.836368 0.456343 0 
0.128759 0.207356 0.0590336 -0.303709 0.836368 0.456343 0 
0.128835 0.206971 0.0591944 -0.304066 0.834234 0.459998 0 
0.130658 0.208143 0.0594631 -0.323165 0.757267 0.567548 0 
0.128569 0.207236 0.0588346 -0.506322 0.576971 0.640892 0 
0.127842 0.207453 0.0596973 -0.512517 0.552846 0.65703 0 
0.128416 0.207423 0.0591686 -0.518624 0.518624 0.679749 0 
0.128173 0.207672 0.0589476 -0.513842 0.618295 0.594709 0 
0.127582 0.207492 0.0591671 -0.527727 0.578308 0.622145 0 
0.12843 0.207581 0.0586075 -0.521927 0.589491 0.616516 0 
0.128228 0.207886 0.0583141 -0.528563 0.629885 0.569092 0 
0.127516 0.205371 0.0591565 -0.527859 0.615555 0.585198 0 
0.127743 0.206383 0.0592331 -0.525288 0.579337 0.623251 0 
0.127273 0.205621 0.0589355 -0.528835 0.620071 0.579522 0 
0.127825 0.2078 0.0582975 -0.542401 0.626887 0.559298 0 
0.127841 0.207984 0.0581715 -0.544649 0.62896 0.554767 0 
0.127424 0.206852 0.0578959 -0.547723 0.635358 0.544352 0 
0.127971 0.207812 0.0576987 -0.529764 0.66767 0.523036 0 
0.127945 0.207914 0.05721 -0.531913 0.669506 0.518489 0 
0.128185 0.2085 0.057381 -0.529764 0.66767 0.523036 0 
0.128302 0.208754 0.0568139 -0.535873 0.67362 0.508995 0 
0.12786 0.208638 0.0573048 -0.541853 0.669347 0.508301 0 
0.127996 0.208963 0.0565265 -0.554251 0.674813 0.487272 0 
