0.13773 0.228945 0.0472863 0.631173 -0.77365 0.055566 2 
0.137794 0.228676 0.047576 0.571952 -0.820027 0.0206729 2 
0.137483 0.22826 0.047259 0.631222 -0.775502 0.0124857 2 
0.138527 0.228694 0.0478446 0.349265 -0.513436 0.783835 2 
0.138093 0.228691 0.0477996 0.462542 -0.886428 0.0173287 2 
0.137916 0.228436 0.0477401 0.590318 -0.768823 0.245836 2 
0.137874 0.228168 0.0475019 0.580251 -0.546417 0.603935 2 
0.137515 0.228126 0.0474038 0.608512 -0.773223 0.178436 2 
0.137996 0.227927 0.0476661 0.543015 -0.597147 0.590381 2 
0.137729 0.227779 0.0475872 0.606077 -0.579066 0.545301 2 
0.137851 0.227538 0.0477514 0.606077 -0.579066 0.545301 2 
0.139121 0.228846 0.0474406 0.291076 -0.561474 0.774611 2 
0.138965 0.228055 0.0474326 0.318759 -0.430713 0.844322 2 
0.138639 0.227879 0.0474793 0.350682 -0.394323 0.84943 2 
0.138853 0.227359 0.0472266 0.359471 -0.356385 0.862421 2 
0.139216 0.228961 0.0491835 0.142258 0.392971 0.90848 2 
0.138499 0.22905 0.0494234 0.588729 -0.808301 0.00686164 2 
0.139024 0.228773 0.0490516 0.281797 -0.13756 0.949562 2 
0.13867 0.228262 0.0489325 0.165492 0.62401 0.763691 2 
0.139457 0.228272 0.0489061 0.307916 -0.617444 0.723844 2 
0.139719 0.228054 0.0490611 0.286508 -0.502563 0.815686 2 
0.137834 0.227792 0.049233 0.652638 -0.63271 0.416825 2 
0.139023 0.227434 0.0489164 0.427003 -0.519328 0.740248 2 
0.138349 0.2271 0.0476499 0.374727 -0.319665 0.870284 2 
0.138981 0.226649 0.0473698 0.368103 -0.322281 0.872144 2 
0.137467 0.228155 0.0467504 0.656849 -0.730687 0.186133 2 
0.137387 0.227828 0.0468797 0.656849 -0.730687 0.186133 2 
0.137098 0.227884 0.0469951 0.631222 -0.775502 0.0124857 2 
0.136712 0.227838 0.0464855 0.648359 -0.759507 -0.0527237 2 
0.136926 0.227491 0.046669 0.610626 -0.789971 -0.0555115 2 
0.13699 0.227395 0.0473948 0.621102 -0.34723 0.702612 2 
0.136797 0.227207 0.0472628 0.546882 -0.833818 -0.0752851 2 
0.137466 0.227493 0.0472418 0.630771 -0.593766 0.49957 2 
0.137151 0.227545 0.0469457 0.658616 -0.723702 0.206108 2 
0.137289 0.22741 0.0476184 0.608512 -0.773223 0.178436 2 
0.136744 0.227373 0.0468761 0.546882 -0.833818 -0.0752851 2 
0.137278 0.227181 0.0479612 0.661332 -0.654768 0.365948 2 
0.13692 0.227139 0.0478631 0.705892 -0.515651 0.485613 2 
0.137117 0.226859 0.0479741 0.71129 -0.336927 0.616885 2 
0.136663 0.226888 0.0476872 0.738484 -0.419406 0.527958 2 
0.136925 0.22667 0.0478422 0.581303 0.141237 0.801336 2 
0.13761 0.226889 0.0478936 0.504968 0.110776 0.856 2 
0.13739 0.226539 0.048032 0.576766 0.0581017 0.814841 2 
0.137213 0.226801 0.0492809 0.683946 -0.226939 0.693337 2 
0.137127 0.226439 0.0492406 -0.398546 0.811497 0.427356 2 
0.136806 0.226284 0.0483389 0.419128 0.296307 0.858215 2 
0.137931 0.226368 0.0481687 0.49497 0.101276 0.862988 2 
0.137577 0.22603 0.0484858 0.379017 0.234489 0.895188 2 
0.138108 0.22645 0.0477921 0.514026 -0.107989 0.85095 2 
0.137963 0.226061 0.0478774 0.56292 -0.0666429 0.82382 2 
0.137368 0.226254 0.0491537 0.3942 0.31444 0.863559 2 
0.153861 0.175551 0.0696626 -0.158233 -0.0574326 0.98573 1 
0.154214 0.175558 0.0695912 -0.169374 -0.0408833 0.984704 1 
0.153593 0.175575 0.0700199 -0.171657 -0.0385353 0.984403 1 
0.15325 0.175135 0.0702399 -0.144344 -0.0715851 0.986935 1 
0.153432 0.174749 0.0698424 -0.168393 -0.109394 0.979631 1 
0.153239 0.174733 0.0701466 -0.140051 -0.0993526 0.985147 1 
0.153169 0.174304 0.0701787 -0.164862 -0.127675 0.978018 1 
0.15356 0.174371 0.0697399 -0.179044 -0.128962 0.975352 1 
0.15341 0.174119 0.0700918 -0.179044 -0.128962 0.975352 1 
0.154398 0.177332 0.0681557 -0.422295 0.113641 0.899307 1 
0.154537 0.177024 0.0683922 -0.284913 0.041419 0.957658 1 
0.15451 0.176862 0.0686626 -0.199685 -0.0151808 0.979742 1 
0.154526 0.176623 0.0682989 -0.150624 -0.0770911 0.985581 1 
0.154478 0.176493 0.0683273 -0.120785 -0.0902958 0.988563 1 
0.154574 0.176421 0.0685162 -0.120785 -0.0902958 0.988563 1 
0.154478 0.175989 0.0681369 -0.128033 -0.088096 0.98785 1 
0.154633 0.176622 0.0688268 -0.190644 -0.0269007 0.981291 1 
0.154906 0.176302 0.0688846 -0.155924 -0.0597905 0.985958 1 
0.154472 0.176126 0.0684035 -0.133012 -0.0835739 0.987585 1 
0.154697 0.176181 0.0686803 -0.120785 -0.0902958 0.988563 1 
0.15467 0.175846 0.0685145 -0.128033 -0.088096 0.98785 1 
0.154461 0.175725 0.0683102 -0.0861111 -0.133295 0.987328 1 
0.154911 0.175833 0.0688637 -0.13214 -0.0783487 0.98813 1 
0.154846 0.17577 0.0688197 -0.128033 -0.088096 0.98785 1 
0.154589 0.175519 0.0686438 -0.132063 -0.09875 0.98631 1 
0.154103 0.17551 0.0677759 -0.126177 -0.145777 0.981238 1 
0.154285 0.17547 0.0682507 -0.118275 -0.120664 0.985622 1 
0.153947 0.174892 0.068204 -0.179044 -0.128962 0.975352 1 
0.15414 0.17508 0.068336 -0.179044 -0.128962 0.975352 1 
0.154407 0.175229 0.0684148 -0.164862 -0.127675 0.978018 1 
0.154943 0.175699 0.0690086 -0.13214 -0.0783487 0.98813 1 
0.154717 0.175486 0.0694136 -0.16928 -0.0603725 0.983717 1 
0.155392 0.175303 0.0693717 -0.160188 -0.0526165 0.985683 1 
0.154841 0.175404 0.0688959 -0.132063 -0.09875 0.98631 1 
0.154632 0.175283 0.0686916 -0.128875 -0.0934047 0.987252 1 
0.154846 0.174936 0.068875 -0.168393 -0.109394 0.979631 1 
0.15507 0.17499 0.0691518 -0.147931 -0.0792912 0.985814 1 
0.154878 0.174801 0.0690198 -0.168393 -0.109394 0.979631 1 
0.153979 0.174758 0.0683489 -0.179044 -0.128962 0.975352 1 
0.153786 0.174569 0.0682169 -0.191444 -0.133123 0.972434 1 
0.153657 0.174113 0.0683746 -0.191444 -0.133123 0.972434 1 
0.154605 0.174949 0.0685258 -0.164862 -0.127675 0.978018 1 
0.154396 0.174827 0.0683214 -0.179044 -0.128962 0.975352 1 
0.15446 0.174559 0.0686111 -0.179044 -0.128962 0.975352 1 
0.154268 0.174371 0.0684792 -0.191444 -0.133123 0.972434 1 
0.154653 0.174747 0.0687431 -0.179044 -0.128962 0.975352 1 
0.154851 0.174467 0.0688541 -0.179044 -0.128962 0.975352 1 
0.154524 0.174118 0.0684646 -0.191444 -0.133123 0.972434 1 
0.154717 0.174306 0.0685966 -0.179044 -0.128962 0.975352 1 
0.154075 0.174183 0.0683472 -0.191444 -0.133123 0.972434 1 
0.153914 0.17386 0.0683601 -0.191444 -0.133123 0.972434 1 
0.154332 0.17393 0.0683327 -0.191444 -0.133123 0.972434 1 
0.154572 0.173917 0.0686819 -0.191444 -0.133123 0.972434 1 
0.155006 0.173919 0.0687269 -0.191444 -0.133123 0.972434 1 
0.15462 0.173716 0.0688991 -0.191444 -0.133123 0.972434 1 
0.154379 0.173729 0.06855 -0.191444 -0.133123 0.972434 1 
0.154203 0.173473 0.0684904 -0.191444 -0.133123 0.972434 1 
0.154427 0.173527 0.0687672 -0.191444 -0.133123 0.972434 1 
0.154235 0.173339 0.0686353 -0.191444 -0.133123 0.972434 1 
0.154298 0.173071 0.0689249 -0.240218 -0.128549 0.96217 1 
0.153401 0.174193 0.0679531 -0.191444 -0.133123 0.972434 1 
0.153673 0.173873 0.0680109 -0.191444 -0.133123 0.972434 1 
0.153721 0.173672 0.0682282 -0.191444 -0.133123 0.972434 1 
0.153528 0.173484 0.0680962 -0.191444 -0.133123 0.972434 1 
0.153207 0.172997 0.0674402 0.831894 -0.418315 0.364644 1 
0.153357 0.173091 0.0677701 -0.390072 -0.0971758 0.915642 1 
0.153368 0.172989 0.067673 -0.390072 -0.0971758 0.915642 1 
0.153047 0.172675 0.0674531 -0.427663 -0.0989058 0.898511 1 
0.152756 0.172241 0.068496 -0.367184 -0.116894 0.922774 1 
0.153935 0.173324 0.0684116 -0.191444 -0.133123 0.972434 1 
0.153801 0.173164 0.0681541 -0.191444 -0.133123 0.972434 1 
0.153849 0.172963 0.0683714 -0.240218 -0.128549 0.96217 1 
0.154042 0.173151 0.0685033 -0.191444 -0.133123 0.972434 1 
0.154106 0.172882 0.068793 -0.240218 -0.128549 0.96217 1 
0.153913 0.172694 0.0686611 -0.266923 -0.122285 0.955928 1 
0.153421 0.172822 0.0680598 -0.266923 -0.122285 0.955928 1 
0.153046 0.172516 0.0681349 -0.309154 -0.119111 0.943523 1 
0.153303 0.172595 0.0678747 -0.422315 -0.0955401 0.9014 1 
0.153528 0.172649 0.0681515 -0.269953 -0.1251 0.954712 1 
0.153913 0.173543 0.0697238 -0.191444 -0.133123 0.972434 1 
0.154298 0.173243 0.0693611 -0.191444 -0.133123 0.972434 1 
0.153993 0.172862 0.0692136 -0.240218 -0.128549 0.96217 1 
0.152542 0.17243 0.0689944 -0.367184 -0.116894 0.922774 1 
0.152413 0.171973 0.0691521 -0.460376 -0.121152 0.879418 1 
0.153013 0.171988 0.0684815 -0.388643 -0.114795 0.914209 1 
0.153592 0.17238 0.0684412 -0.309154 -0.119111 0.943523 1 
0.152902 0.172285 0.0675384 0.821199 -0.450948 0.349682 1 
0.152725 0.17203 0.0674789 0.8027 -0.472648 0.363698 1 
0.152564 0.171708 0.0674918 0.870767 -0.465284 0.158984 1 
0.15295 0.172084 0.0677557 0.812197 -0.454766 0.365409 1 
0.152773 0.171829 0.0676962 -0.35886 -0.12237 0.925335 1 
0.15303 0.171403 0.0672455 0.82737 -0.506899 0.241894 1 
0.153045 0.171509 0.067754 0.801945 -0.495835 0.333214 1 
0.152918 0.171542 0.0669843 0.837277 -0.498706 0.224189 1 
0.152307 0.171802 0.0681881 -0.393938 -0.130378 0.909843 1 
0.151985 0.171488 0.0679682 0.822744 -0.502356 0.265953 1 
0.152938 0.171855 0.0680985 -0.436219 -0.126461 0.89091 1 
0.152986 0.171654 0.0683157 -0.416745 -0.128555 0.899887 1 
0.152643 0.171559 0.0694079 0.77058 -0.496886 0.399138 1 
0.153302 0.171256 0.0677395 0.775553 -0.513258 0.367538 1 
0.153356 0.171249 0.0674445 0.785517 -0.515646 0.342158 1 
0.153163 0.17106 0.0673126 0.817851 -0.529378 0.225561 1 
0.152917 0.170707 0.0670395 0.783196 -0.582376 0.217812 1 
0.143778 0.174421 0.0653134 0.0545238 -0.384327 -0.921586 1 
0.144121 0.174689 0.0646573 0.0545238 -0.384327 -0.921586 1 
0.144844 0.173959 0.0639604 0.633413 0.685789 -0.358443 1 
0.14486 0.174238 0.064905 0.633413 0.685789 -0.358443 1 
0.144308 0.17418 0.0651111 0.628857 0.73603 -0.250597 1 
0.144474 0.173861 0.0646412 0.633413 0.685789 -0.358443 1 
0.145357 0.173799 0.0648036 0.633413 0.685789 -0.358443 1 
0.145175 0.17453 0.0660734 0.63874 0.718383 -0.275566 1 
0.145351 0.174454 0.0663786 0.633413 0.685789 -0.358443 1 
0.145833 0.173911 0.0657686 0.633413 0.685789 -0.358443 1 
0.145726 0.17443 0.0665491 0.633413 0.685789 -0.358443 1 
0.146153 0.173562 0.0664798 0.633413 0.685789 -0.358443 1 
0.144746 0.173886 0.0655713 0.633413 0.685789 -0.358443 1 
0.144613 0.173726 0.0653138 0.633413 0.685789 -0.358443 1 
0.144966 0.174078 0.0661147 0.633413 0.685789 -0.358443 1 
0.144971 0.173941 0.0658481 0.633413 0.685789 -0.358443 1 
0.144987 0.173873 0.0659205 0.633413 0.685789 -0.358443 1 
0.145094 0.1737 0.0660122 0.633413 0.685789 -0.358443 1 
0.144826 0.173551 0.0659334 0.633413 0.685789 -0.358443 1 
0.144538 0.173593 0.0649308 0.633413 0.685789 -0.358443 1 
0.145308 0.173007 0.0653234 0.633413 0.685789 -0.358443 1 
0.144645 0.173419 0.0650225 0.633413 0.685789 -0.358443 1 
0.145051 0.17326 0.0653379 0.633413 0.685789 -0.358443 1 
0.14527 0.173624 0.0663174 0.633413 0.685789 -0.358443 1 
0.145099 0.173231 0.0659913 0.633413 0.685789 -0.358443 1 
0.145447 0.173707 0.0659408 0.633413 0.685789 -0.358443 1 
0.145469 0.173502 0.0657466 0.633413 0.685789 -0.358443 1 
0.145982 0.172997 0.0657176 0.633413 0.685789 -0.358443 1 
0.14564 0.172888 0.0656919 0.633413 0.685789 -0.358443 1 
0.145591 0.17293 0.0661564 0.633413 0.685789 -0.358443 1 
0.145672 0.172753 0.0658367 0.633413 0.685789 -0.358443 1 
0.145147 0.172857 0.0657724 0.633413 0.685789 -0.358443 1 
0.145735 0.172485 0.0661264 0.633413 0.685789 -0.358443 1 
0.145692 0.172218 0.0658882 0.633413 0.685789 -0.358443 1 
0.146512 0.173259 0.0657057 0.633413 0.685789 -0.358443 1 
0.146769 0.173179 0.0661273 0.633413 0.685789 -0.358443 1 
0.14656 0.173058 0.065923 0.633413 0.685789 -0.358443 1 
0.145292 0.172902 0.0648148 0.633413 0.685789 -0.358443 1 
0.146175 0.172681 0.0656591 0.633413 0.685789 -0.358443 1 
0.146432 0.17276 0.0653989 0.633413 0.685789 -0.358443 1 
0.146817 0.172633 0.0654723 0.633413 0.685789 -0.358443 1 
0.146786 0.17258 0.0637734 0.507599 0.585172 0.63239 1 
0.147187 0.171551 0.0639745 0.579898 0.739085 0.342741 1 
0.147042 0.172859 0.0661852 0.633413 0.685789 -0.358443 1 
0.146833 0.172738 0.0659809 0.633413 0.685789 -0.358443 1 
0.147106 0.172418 0.0660388 0.633413 0.685789 -0.358443 1 
0.147443 0.172161 0.0661406 0.627914 0.680652 -0.377408 1 
0.147137 0.172457 0.0666197 0.633413 0.685789 -0.358443 1 
0.147491 0.17196 0.0663579 0.627914 0.680652 -0.377408 1 
0.147523 0.171653 0.0660666 0.606788 0.793492 -0.046676 1 
0.14627 0.172279 0.0660936 0.633413 0.685789 -0.358443 1 
0.146559 0.171892 0.0662239 0.633413 0.685789 -0.358443 1 
0.147106 0.172246 0.0656026 0.611489 0.790598 -0.0321836 1 
0.147363 0.171993 0.0655881 0.606788 0.793492 -0.046676 1 
0.147089 0.171147 0.0658311 0.627914 0.680652 -0.377408 1 
0.1477 0.171736 0.06569 0.606788 0.793492 -0.046676 1 
0.147427 0.171883 0.065196 0.594973 0.79954 0.0821149 1 
0.147298 0.171095 0.0655994 0.610422 0.79087 -0.0437023 1 
0.147394 0.170851 0.0653521 0.589055 0.803256 0.0882858 1 
0.151268 0.17196 0.0615214 -0.674286 -0.365854 -0.641474 1 
0.15169 0.171561 0.061473 -0.615013 -0.317999 -0.721551 1 
0.153901 0.169295 0.0587481 -0.0806738 -0.906554 0.414308 1 
0.155947 0.169376 0.0583729 -0.00922322 -0.894653 0.446667 1 
0.154646 0.169037 0.0584836 -0.057418 -0.917352 0.393914 1 
0.154019 0.168847 0.0583066 -0.0493376 -0.913412 0.404035 1 
0.154769 0.168955 0.0579659 -0.0145959 -0.893001 0.449818 1 
0.155288 0.168989 0.0582968 -0.0251041 -0.907712 0.418842 1 
0.156332 0.16958 0.0582006 -0.00658039 -0.893617 0.448783 1 
0.156605 0.169261 0.0582586 -0.00658039 -0.893617 0.448783 1 
0.156124 0.169459 0.0579963 -0.00658039 -0.893617 0.448783 1 
0.156348 0.169341 0.0578369 -0.00658039 -0.893617 0.448783 1 
0.155192 0.168556 0.0579176 -0.00923407 -0.895704 0.444554 1 
0.150174 0.171253 0.0627639 -0.624103 -0.322589 -0.71164 1 
0.149827 0.171267 0.0618869 -0.565064 -0.276992 -0.77716 1 
0.150598 0.171344 0.0617881 -0.583586 -0.29579 -0.756264 1 
0.150496 0.171049 0.0616754 -0.549027 -0.283215 -0.786358 1 
0.15199 0.171576 0.0616967 -0.225154 -0.463908 0.856794 1 
0.152054 0.171308 0.0619863 -0.289214 -0.61518 0.733422 1 
0.151348 0.171625 0.0618835 -0.617243 -0.322392 -0.717687 1 
0.152214 0.171126 0.061783 -0.25443 -0.722202 0.643187 1 
0.151947 0.171309 0.0614585 -0.563106 -0.255672 -0.785839 1 
0.151562 0.170932 0.0611946 -0.643535 -0.370321 -0.669869 1 
0.152108 0.171127 0.0612552 -0.340265 -0.762773 0.549906 1 
0.152349 0.170942 0.0611682 -0.156323 -0.869271 0.468968 1 
0.151893 0.170813 0.0615631 -0.267158 -0.835447 0.480266 1 
0.152236 0.170922 0.0615888 -0.212283 -0.817059 0.536052 1 
0.152396 0.170741 0.0613855 -0.103439 -0.877109 0.46902 1 
0.152492 0.171014 0.0624466 -0.0613303 -0.797294 0.600467 1 
0.152311 0.171055 0.0619718 -0.136049 -0.769948 0.623434 1 
0.152615 0.170774 0.0626107 -0.00410282 -0.813727 0.581233 1 
0.150512 0.170809 0.0613117 -0.621102 -0.34723 -0.702612 1 
0.151042 0.17074 0.0615455 -0.656476 -0.388594 -0.646555 1 
0.151128 0.170426 0.0609592 -0.403951 -0.886325 0.22639 1 
0.151031 0.170166 0.0610161 -0.224194 -0.92105 0.318441 1 
0.152445 0.170698 0.0609209 -0.11496 -0.884199 0.452744 1 
0.152252 0.17051 0.060789 -0.187628 -0.909497 0.37096 1 
0.152568 0.17063 0.0615212 -0.062799 -0.858253 0.50937 1 
0.152493 0.170496 0.0611382 -0.11496 -0.884199 0.452744 1 
0.152718 0.170378 0.0609788 -0.108671 -0.887714 0.447385 1 
0.153323 0.170428 0.0604777 -0.0256966 -0.872333 0.488236 1 
0.153114 0.170307 0.0602733 -0.0814083 -0.898251 0.431878 1 
0.153242 0.170274 0.0610431 -0.0176586 -0.857119 0.514815 1 
0.152824 0.17055 0.0619428 -0.0345519 -0.838921 0.543156 1 
0.15321 0.17025 0.0615801 -0.0150269 -0.834678 0.550533 1 
0.152584 0.170563 0.0615936 -0.062799 -0.858253 0.50937 1 
0.152808 0.170444 0.0614342 -0.0401238 -0.845367 0.532678 1 
0.153017 0.170393 0.0612025 -0.0315816 -0.849958 0.525903 1 
0.152278 0.169851 0.0616918 -0.124283 -0.881411 0.455705 1 
0.153986 0.170189 0.0612147 0.0346601 -0.836002 0.54763 1 
0.152092 0.170014 0.0603657 -0.181425 -0.909982 0.37285 1 
0.152091 0.170187 0.0608019 -0.187827 -0.910461 0.368486 1 
0.153087 0.169973 0.0601076 -0.148477 -0.925551 0.348296 1 
0.152536 0.169742 0.0598775 -0.152694 -0.920364 0.360021 1 
0.152021 0.169758 0.0608341 -0.187827 -0.910461 0.368486 1 
0.152888 0.170454 0.0626686 -0.0151335 -0.813082 0.581952 1 
0.152668 0.170276 0.0632432 0.00123236 -0.950151 0.311788 1 
0.153354 0.169977 0.0619862 -0.00682554 -0.82589 0.56379 1 
0.153134 0.169627 0.0621246 -0.0401829 -0.846612 0.530691 1 
0.155619 0.169891 0.0601641 0.0842806 -0.832807 0.54711 1 
0.153981 0.170485 0.0607995 0.0318165 -0.836911 0.546413 1 
0.154404 0.170417 0.0605055 0.037486 -0.837188 0.54563 1 
0.154147 0.170166 0.0603295 0.0176815 -0.850074 0.526366 1 
0.154212 0.170056 0.0599374 -0.0257232 -0.870527 0.491448 1 
0.153794 0.169987 0.0599648 -0.0782776 -0.899505 0.42984 1 
0.15487 0.170113 0.0602592 0.0489487 -0.832127 0.552421 1 
0.154527 0.170004 0.0602335 0.0460505 -0.833095 0.55121 1 
0.155009 0.169633 0.0600596 0.0258514 -0.861261 0.507505 1 
0.153901 0.16964 0.0596204 -0.149097 -0.923844 0.352538 1 
0.154544 0.169591 0.0594336 -0.119238 -0.925124 0.360456 1 
0.154334 0.169816 0.0601015 -0.0148212 -0.869058 0.494487 1 
0.154382 0.169787 0.0607549 0.0318165 -0.836911 0.546413 1 
0.155346 0.169879 0.0603519 0.0693595 -0.83373 0.547799 1 
0.155394 0.169678 0.0605692 0.0693595 -0.83373 0.547799 1 
0.153371 0.169709 0.0593866 -0.149097 -0.923844 0.352538 1 
0.155384 0.169435 0.059794 -0.00397091 -0.885513 0.464597 1 
0.154576 0.169285 0.0591423 -0.0829084 -0.91471 0.395514 1 
0.155122 0.16948 0.0592029 -0.0826401 -0.919879 0.383396 1 
0.154993 0.169527 0.059551 -0.0831409 -0.911824 0.402075 1 
0.154966 0.169365 0.0598214 -0.0803446 -0.911026 0.404446 1 
0.155304 0.169267 0.0592415 -0.057498 -0.915956 0.397137 1 
0.155384 0.169262 0.0593579 -0.057498 -0.915956 0.397137 1 
0.155351 0.169065 0.0594587 -0.0679416 -0.925871 0.371681 1 
0.155914 0.169352 0.0589099 -0.0543671 -0.924241 0.377918 1 
0.155737 0.169269 0.0592865 -0.0463546 -0.92047 0.388054 1 
0.156026 0.169214 0.0591711 -0.0460445 -0.924837 0.377565 1 
0.155588 0.169507 0.0587109 -0.0434987 -0.921382 0.386216 1 
0.155411 0.169424 0.0590875 -0.057418 -0.917352 0.393914 1 
0.155336 0.16896 0.0589502 -0.0463546 -0.92047 0.388054 1 
0.15533 0.168594 0.0590264 -0.0381029 -0.92104 0.387599 1 
0.155207 0.16918 0.0597345 -0.0994064 -0.921893 0.374476 1 
0.155271 0.168739 0.059588 -0.0679416 -0.925871 0.371681 1 
0.154944 0.168562 0.0596347 -0.073679 -0.925676 0.371074 1 
0.155785 0.169068 0.0595037 -0.0463546 -0.92047 0.388054 1 
0.156074 0.169012 0.0593884 -0.0460445 -0.924837 0.377565 1 
0.15426 0.169337 0.0588462 -0.0863949 -0.909203 0.40729 1 
0.154902 0.168785 0.0584691 -0.0434987 -0.921382 0.386216 1 
0.15434 0.168153 0.0581457 -0.0145959 -0.893001 0.449818 1 
0.154452 0.168532 0.0597153 -0.0826401 -0.919879 0.383396 1 
0.15623 0.169458 0.0585241 -0.00658039 -0.893617 0.448783 1 
0.156584 0.169465 0.0584528 -0.00658039 -0.893617 0.448783 1 
0.156631 0.169264 0.05867 -0.00658039 -0.893617 0.448783 1 
0.156637 0.169126 0.0584034 -0.00658039 -0.893617 0.448783 1 
0.156171 0.169099 0.0588953 -0.0197011 -0.91019 0.413723 1 
0.156283 0.168961 0.0591566 -0.0197011 -0.91019 0.413723 1 
0.156508 0.168842 0.0589972 -0.00658039 -0.893617 0.448783 1 
0.156636 0.168795 0.0586491 -0.00658039 -0.893617 0.448783 1 
0.156669 0.16882 0.0581121 0.0253561 -0.89547 0.444399 1 
0.157763 0.174938 0.0618821 -0.228101 -0.319916 -0.919578 1 
0.157484 0.17456 0.062146 -0.213226 -0.336296 -0.9173 1 
0.157403 0.174233 0.0622753 -0.213226 -0.336296 -0.9173 1 
0.15758 0.174158 0.0625806 -0.213226 -0.336296 -0.9173 1 
0.157361 0.173966 0.0620372 -0.213226 -0.336296 -0.9173 1 
0.156894 0.174615 0.0631557 -0.213226 -0.336296 -0.9173 1 
0.157344 0.174378 0.062837 -0.213226 -0.336296 -0.9173 1 
0.157376 0.174244 0.0629819 -0.213226 -0.336296 -0.9173 1 
0.15736 0.17398 0.0631551 -0.213226 -0.336296 -0.9173 1 
0.157263 0.173893 0.0636481 -0.213226 -0.336296 -0.9173 1 
0.157 0.173448 0.0639845 -0.213226 -0.336296 -0.9173 1 
0.156797 0.173348 0.0628317 -0.213226 -0.336296 -0.9173 1 
0.156294 0.173593 0.0634454 -0.213226 -0.336296 -0.9173 1 
0.156695 0.173399 0.0635913 -0.213226 -0.336296 -0.9173 1 
0.157022 0.173402 0.0631085 -0.213226 -0.336296 -0.9173 1 
0.156936 0.173386 0.0639405 -0.213226 -0.336296 -0.9173 1 
0.156518 0.173143 0.0635318 -0.213226 -0.336296 -0.9173 1 
0.156743 0.173197 0.0638086 -0.213226 -0.336296 -0.9173 1 
0.15654 0.172939 0.0633376 -0.213226 -0.336296 -0.9173 1 
0.156299 0.172448 0.062798 0.529261 -0.760507 0.376182 1 
0.156122 0.172365 0.0631746 0.504211 -0.762028 0.406306 1 
0.156508 0.172569 0.0630023 0.665553 -0.706461 0.240732 1 
0.155881 0.172896 0.0641338 0.589754 -0.800486 0.106829 1 
0.156181 0.172738 0.0639213 0.562264 -0.692403 -0.452147 1 
0.156523 0.172847 0.063947 -0.213226 -0.336296 -0.9173 1 
0.156678 0.172803 0.0640103 -0.213226 -0.336296 -0.9173 1 
0.156823 0.172689 0.0637345 -0.213226 -0.336296 -0.9173 1 
0.156229 0.172364 0.0637024 0.620912 -0.75163 0.222532 1 
0.155281 0.172205 0.0641778 0.518225 -0.837822 0.171746 1 
0.155575 0.171839 0.0633597 0.302371 -0.763128 0.571146 1 
0.156218 0.17179 0.063173 0.46381 -0.758814 0.457255 1 
0.155832 0.171586 0.0633452 0.320082 -0.760797 0.564566 1 
0.15758 0.174158 0.0625806 -0.213226 -0.336296 -0.9173 1 
0.15766 0.173822 0.0629426 -0.213226 -0.336296 -0.9173 1 
0.15729 0.17371 0.0625055 -0.213226 -0.336296 -0.9173 1 
0.157242 0.173752 0.06297 -0.213226 -0.336296 -0.9173 1 
0.157354 0.173441 0.0627952 -0.213226 -0.336296 -0.9173 1 
0.157022 0.17323 0.0626724 -0.213226 -0.336296 -0.9173 1 
0.157311 0.173347 0.0629931 -0.213226 -0.336296 -0.9173 1 
0.157225 0.173157 0.063389 -0.213226 -0.336296 -0.9173 1 
0.157118 0.173158 0.0628612 -0.213226 -0.336296 -0.9173 1 
0.157118 0.172827 0.0631068 -0.213226 -0.336296 -0.9173 1 
0.157359 0.172814 0.063456 -0.213226 -0.336296 -0.9173 1 
0.156781 0.172581 0.0628145 0.806883 -0.586172 0.0730924 1 
0.156764 0.172316 0.0629878 0.780479 -0.616476 0.103966 1 
0.157674 0.172762 0.0637521 -0.213226 -0.336296 -0.9173 1 
0.15708 0.172264 0.0632839 0.819114 -0.561217 0.118691 1 
0.14941 0.177841 0.0613028 0.998373 0.0452371 -0.0347169 1 
0.149082 0.177333 0.0615952 0.917983 0.176807 0.355029 1 
0.149151 0.176596 0.0618639 0.917983 0.176807 0.355029 1 
0.149279 0.17606 0.0624433 0.917983 0.176807 0.355029 1 
0.150321 0.17843 0.0602673 0.963584 -0.0182728 -0.266782 1 
0.150342 0.178226 0.0600731 0.976505 -0.0298078 -0.213424 1 
0.150229 0.178882 0.0611203 0.911376 0.193757 0.363115 1 
0.150165 0.178488 0.061322 0.920694 0.179613 0.346498 1 
0.15016 0.178453 0.0611525 0.920694 0.179613 0.346498 1 
0.149025 0.177954 0.0601114 0.948822 -0.112482 -0.295101 1 
0.149876 0.178026 0.060129 0.947065 -0.110247 -0.30152 1 
0.149491 0.177822 0.0603012 0.937703 -0.0864549 -0.336509 1 
0.149581 0.177888 0.0607566 0.929674 -0.0789219 -0.359831 1 
0.149538 0.177621 0.0605185 0.924117 -0.093633 -0.370461 1 
0.149468 0.177192 0.0605507 0.924178 -0.076456 -0.374232 1 
0.149346 0.177433 0.0603866 0.934156 -0.0868671 -0.346132 1 
0.148976 0.177162 0.0606312 0.924178 -0.076456 -0.374232 1 
0.149586 0.17742 0.0607357 0.950007 -0.0445117 -0.309039 1 
0.149859 0.1771 0.0607936 0.950007 -0.0445117 -0.309039 1 
0.14965 0.176979 0.0605893 0.935279 -0.0699151 -0.346937 1 
0.149458 0.17679 0.0604573 0.931961 -0.0813299 -0.353319 1 
0.14904 0.176721 0.0604847 0.91699 -0.0912902 -0.388324 1 
0.149714 0.17671 0.060879 0.951381 -0.0471233 -0.304391 1 
0.149489 0.176656 0.0606022 0.924178 -0.076456 -0.374232 1 
0.150105 0.176446 0.0606858 0.980742 -0.00577586 -0.195224 1 
0.149762 0.176336 0.0606601 0.939413 -0.0641998 -0.336721 1 
0.149436 0.176491 0.0604611 0.924178 -0.076456 -0.374232 1 
0.149634 0.176211 0.0605721 0.935279 -0.0699151 -0.346937 1 
0.149955 0.176697 0.0612282 0.998373 0.0452371 -0.0347169 1 
0.149167 0.176357 0.0615002 0.917983 0.176807 0.355029 1 
0.149354 0.176179 0.0617083 0.917983 0.176807 0.355029 1 
0.150452 0.176259 0.0611267 0.998373 0.0452371 -0.0347169 1 
0.150228 0.176205 0.0608499 0.998384 0.0432246 -0.0368991 1 
0.1505 0.175885 0.0609078 0.991665 0.12466 0.0325688 1 
0.150484 0.176125 0.0612715 0.8898 0.219868 0.399893 1 
0.150035 0.176017 0.060718 0.980742 -0.00577586 -0.195224 1 
0.14989 0.175958 0.0605576 0.939413 -0.0641998 -0.336721 1 
0.150083 0.175815 0.0609352 0.993649 0.112098 -0.009795 1 
0.149938 0.175757 0.0607748 0.986642 0.0742634 -0.14499 1 
0.149618 0.175774 0.0603092 0.924178 -0.076456 -0.374232 1 
0.149489 0.175649 0.0602213 0.929082 -0.00381292 -0.369854 1 
0.149681 0.175506 0.0605989 0.949832 0.0136935 -0.312461 1 
0.149418 0.17591 0.061998 0.917983 0.176807 0.355029 1 
0.149328 0.175844 0.0615426 0.917983 0.176807 0.355029 1 
0.149504 0.175768 0.0618478 0.8898 0.219868 0.399893 1 
0.149584 0.175591 0.0615281 0.8898 0.219868 0.399893 1 
0.149391 0.175748 0.0622684 0.8898 0.219868 0.399893 1 
0.149455 0.175307 0.0621219 0.607922 0.260538 0.750034 1 
0.150505 0.175589 0.061323 0.927171 0.263482 0.26633 1 
0.150403 0.175467 0.0616465 0.951025 0.226564 0.210284 1 
0.150356 0.175496 0.0609931 0.963049 0.243663 0.114741 1 
0.150328 0.175334 0.0612635 0.951025 0.226564 0.210284 1 
0.150002 0.175489 0.0610645 0.984318 0.173156 0.0337015 1 
0.150483 0.174959 0.0615724 0.933603 0.270955 0.234454 1 
0.150066 0.174889 0.0615999 0.944021 0.254212 0.21024 1 
0.149391 0.175417 0.0625141 0.582553 0.263649 0.768844 1 
0.150226 0.175384 0.0620231 0.958659 0.214069 0.187477 1 
0.150306 0.174876 0.0619491 0.934923 0.276132 0.222868 1 
0.150312 0.174739 0.0616825 0.916284 0.305428 0.259107 1 
0.14952 0.175356 0.0610479 0.990955 0.133973 0.00775048 1 
0.149467 0.175364 0.061343 0.970485 0.167944 0.173072 1 
0.149568 0.175155 0.0612652 0.972126 0.179176 0.15122 1 
0.149841 0.174835 0.0613231 0.953464 0.240719 0.181548 1 
0.149487 0.174497 0.0616402 0.884792 0.277906 0.374046 1 
0.149889 0.174634 0.0615403 0.934923 0.276132 0.222868 1 
0.149551 0.174229 0.0619298 0.663237 0.0558666 -0.746321 1 
0.149969 0.174298 0.0619024 0.480734 0.0201989 -0.876634 1 
0.14972 0.178641 0.054933 -0.0265125 -0.618159 -0.785606 1 
0.149303 0.178053 0.053652 0.343241 -0.590505 -0.730404 1 
0.149286 0.177962 0.0542615 0.240105 -0.629295 -0.739147 1 
0.149291 0.177493 0.0542405 0.262167 -0.649856 -0.713412 1 
0.149383 0.177718 0.0540141 0.300752 -0.648145 -0.699611 1 
0.149415 0.177411 0.0537228 0.336517 -0.62914 -0.70067 1 
0.149703 0.178549 0.0555424 -0.0265125 -0.618159 -0.785606 1 
0.149735 0.178242 0.0552512 -0.0265125 -0.618159 -0.785606 1 
0.149189 0.177716 0.0554363 0.145954 -0.654537 -0.741808 1 
0.149596 0.177888 0.055506 0.1015 -0.65166 -0.751689 1 
0.149478 0.17766 0.0553209 0.1015 -0.65166 -0.751689 1 
0.149205 0.17798 0.055263 0.110357 -0.625355 -0.772498 1 
0.148658 0.177799 0.0563204 -0.871094 -0.472384 -0.134348 1 
0.148706 0.177425 0.0561015 0.435849 -0.751634 -0.495058 1 
0.149671 0.178021 0.055889 0.810549 -0.480619 -0.334688 1 
0.149703 0.177714 0.0555977 0.340362 -0.640012 -0.688868 1 
0.149654 0.177585 0.0556261 0.366719 -0.64957 -0.666015 1 
0.149156 0.177361 0.0562189 0.835055 -0.478724 -0.271122 1 
0.149692 0.177486 0.0559405 0.813519 -0.491271 -0.311191 1 
0.149606 0.177124 0.0559002 0.202759 -0.719719 -0.663998 1 
0.148997 0.177686 0.0546225 0.145954 -0.654537 -0.741808 1 
0.149173 0.177611 0.0549277 0.145954 -0.654537 -0.741808 1 
0.148659 0.177281 0.055012 0.0829664 -0.688476 -0.720498 1 
0.148198 0.177289 0.0556735 -0.146225 -0.691928 -0.707003 1 
0.148273 0.17725 0.0556204 0.0470866 -0.700592 -0.712007 1 
0.148514 0.177237 0.0559696 0.116751 -0.778834 -0.616269 1 
0.148278 0.176954 0.0560356 0.0822092 -0.794688 -0.601425 1 
0.148675 0.177387 0.0555206 0.0829664 -0.688476 -0.720498 1 
0.148337 0.177327 0.0567823 -0.717785 -0.695044 -0.0412193 1 
0.146933 0.176865 0.0572165 -0.667598 -0.743814 0.0324625 1 
0.147678 0.177112 0.0571424 -0.77754 -0.625194 0.0675497 1 
0.147875 0.176831 0.0572534 -0.438979 -0.897973 -0.0306885 1 
0.14771 0.176805 0.0568511 0.728777 -0.626716 -0.275883 1 
0.147533 0.176722 0.0572277 -0.323922 -0.942914 -0.0773741 1 
0.147356 0.176467 0.0571682 -0.209556 -0.968072 -0.137561 1 
0.147195 0.175972 0.0567449 -0.0167577 -0.926827 -0.375114 1 
0.148609 0.177007 0.0568402 -0.410858 -0.902194 -0.131305 1 
0.149107 0.176741 0.0571749 -0.335268 -0.935789 -0.109063 1 
0.149529 0.17617 0.0566905 -0.364654 -0.92587 -0.0989582 1 
0.147779 0.176226 0.056438 -0.00624866 -0.943547 -0.331179 1 
0.148642 0.176528 0.0561128 0.192452 -0.854844 -0.481875 1 
0.148095 0.176174 0.0567341 -0.93866 -0.321014 0.125967 1 
0.148432 0.176248 0.0565903 -0.865753 -0.499942 0.0230325 1 
0.149661 0.178109 0.0548681 0.318844 -0.619885 -0.716995 1 
0.149703 0.177542 0.0551616 0.340362 -0.640012 -0.688868 1 
0.149735 0.177408 0.0553064 0.366719 -0.64957 -0.666015 1 
0.149254 0.177261 0.0541719 0.223411 -0.670232 -0.707727 1 
0.148446 0.177734 0.0605878 0.915674 -0.102962 -0.388509 1 
0.150455 0.178749 0.059843 0.982676 -0.010344 -0.185042 1 
0.147694 0.175692 0.0559616 0.0645364 -0.888405 -0.454501 1 
0.145623 0.186812 0.0592638 0.678098 -0.223945 0.700023 1 
0.145049 0.185779 0.058847 0.497247 -0.322496 0.805445 1 
0.14522 0.185668 0.0589827 0.497247 -0.322496 0.805445 1 
0.145044 0.185413 0.0589232 0.449634 -0.28894 0.845188 1 
0.145011 0.185561 0.0598963 0.501148 -0.329326 0.800247 1 
0.144673 0.184983 0.0598497 0.427471 -0.315551 0.84717 1 
0.145477 0.185588 0.0594043 0.497247 -0.322496 0.805445 1 
0.1453 0.185001 0.0595905 0.437612 -0.246819 0.864625 1 
0.144454 0.184447 0.058434 0.324168 -0.215636 0.921095 1 
0.143249 0.183705 0.0589792 0.210565 -0.2323 0.949578 1 
0.145466 0.185014 0.0588749 0.493275 -0.217041 0.842362 1 
0.14575 0.184074 0.0575273 0.654635 -0.179373 0.734356 1 
0.145755 0.183778 0.0579425 0.673792 -0.179576 0.716768 1 
0.145883 0.183572 0.0582761 0.673792 -0.179576 0.716768 1 
0.145075 0.183091 0.0578702 0.338538 -0.22041 0.914774 1 
0.145466 0.182826 0.057677 0.458509 -0.231524 0.858001 1 
0.145401 0.183613 0.0586957 0.373564 -0.213673 0.902659 1 
0.145336 0.183219 0.0588974 0.347286 -0.217594 0.912165 1 
0.145851 0.183376 0.058377 0.540063 -0.202334 0.816941 1 
0.145605 0.183022 0.058104 0.41974 -0.234517 0.876824 1 
0.14569 0.183226 0.058826 0.398846 -0.219292 0.890412 1 
0.144769 0.182883 0.0581588 0.313091 -0.227313 0.922118 1 
0.145192 0.182484 0.0581105 0.33972 -0.21358 0.915955 1 
0.145433 0.182298 0.0580235 0.393361 -0.225409 0.891324 1 
0.14524 0.18211 0.0578916 0.378277 -0.231088 0.896384 1 
0.144918 0.182991 0.0596066 0.309779 -0.213592 0.926507 1 
0.145127 0.182939 0.0593749 0.338538 -0.22041 0.914774 1 
0.145395 0.182915 0.0590176 0.347286 -0.217594 0.912165 1 
0.142842 0.183029 0.0587191 0.09867 -0.169323 0.980609 1 
0.142799 0.182762 0.0584809 0.0881975 -0.165521 0.982255 1 
0.144352 0.182813 0.0581862 0.30231 -0.222829 0.926799 1 
0.144774 0.182414 0.0581379 0.30231 -0.222829 0.926799 1 
0.144625 0.182321 0.057808 0.30231 -0.222829 0.926799 1 
0.144416 0.1822 0.0576036 0.30231 -0.222829 0.926799 1 
0.144672 0.182119 0.0580252 0.30231 -0.222829 0.926799 1 
0.14627 0.184266 0.0571764 0.636202 -0.182429 0.749645 1 
0.146762 0.184296 0.0570958 0.740021 -0.133054 0.659292 1 
0.146345 0.184399 0.0575594 0.631452 -0.181944 0.753767 1 
0.14651 0.184253 0.0575256 0.636202 -0.182429 0.749645 1 
0.146264 0.184072 0.0576887 0.654635 -0.179373 0.734356 1 
0.146618 0.183907 0.0571812 0.6285 -0.178916 0.756952 1 
0.147507 0.184542 0.0570217 0.719141 -0.143225 0.679943 1 
0.147024 0.184079 0.0572508 0.702488 -0.146541 0.696445 1 
0.147378 0.184086 0.0571794 0.729592 -0.139901 0.66942 1 
0.146858 0.183894 0.0575304 0.70549 -0.146537 0.693405 1 
0.146382 0.183624 0.0572472 0.6285 -0.178916 0.756952 1 
0.14598 0.183487 0.057347 0.654635 -0.179373 0.734356 1 
0.146012 0.183353 0.0574919 0.654635 -0.179373 0.734356 1 
0.146167 0.183482 0.0579912 0.654635 -0.179373 0.734356 1 
0.145996 0.183592 0.0578556 0.654635 -0.179373 0.734356 1 
0.145625 0.181983 0.057965 0.453827 -0.217178 0.864219 1 
0.145834 0.182104 0.0581694 0.496833 -0.217269 0.840209 1 
0.145844 0.181498 0.0578819 0.539069 -0.172682 0.82437 1 
0.146605 0.181677 0.0578801 0.605604 -0.135405 0.784161 1 
0.145304 0.181669 0.0577451 0.387774 -0.212178 0.897002 1 
0.14562 0.181444 0.0576051 0.508325 -0.251845 0.823517 1 
0.145818 0.181164 0.0577161 0.542295 -0.230205 0.808035 1 
0.145577 0.181177 0.0573669 0.510263 -0.284177 0.811711 1 
0.146053 0.181116 0.0578958 0.537392 -0.212813 0.81604 1 
0.14609 0.180844 0.057774 0.619468 -0.0293653 0.784473 1 
0.145657 0.180841 0.057729 0.593962 -0.154881 0.789443 1 
0.146278 0.180997 0.0577364 0.62065 -0.0673685 0.781188 1 
0.145972 0.180616 0.0575889 0.718088 -0.0013836 0.695951 1 
0.145641 0.180736 0.0572204 0.611423 -0.282563 0.739135 1 
0.146198 0.180152 0.0565573 0.819523 0.100083 0.564238 1 
0.146299 0.181138 0.0584145 0.576712 -0.128322 0.806807 1 
0.14572 0.180573 0.0580187 0.577022 -0.094001 0.811301 1 
0.146406 0.180791 0.0580701 0.648164 0.00414604 0.761489 1 
0.145592 0.179944 0.0577403 0.0998207 -0.323419 0.940976 1 
0.148004 0.181902 0.0546044 -0.691807 0.217068 -0.688683 1 
0.148967 0.181332 0.0546928 -0.891263 -0.194006 -0.409893 1 
0.149551 0.181587 0.0543859 0.925476 0.110729 -0.362262 1 
0.149712 0.181406 0.0541826 0.861237 0.00943452 -0.508116 1 
0.14932 0.180836 0.054431 0.84261 -0.139214 -0.52022 1 
0.149931 0.180921 0.0540994 0.904698 -0.0470497 -0.423447 1 
0.14801 0.181089 0.0537113 -0.276071 -0.242093 -0.930148 1 
0.148678 0.180553 0.0548634 -0.802657 -0.32901 -0.497488 1 
0.148181 0.180474 0.0536565 0.202552 -0.430239 -0.879697 1 
0.148309 0.180096 0.053554 0.204871 -0.462081 -0.86285 1 
0.148421 0.180461 0.0540057 -0.0337153 -0.457179 -0.888735 1 
0.148828 0.180129 0.0538849 0.263893 -0.483032 -0.834889 1 
0.148902 0.180435 0.0547041 -0.815246 -0.324515 -0.47965 1 
0.148453 0.180154 0.0537144 0.204871 -0.462081 -0.86285 1 
0.149128 0.180475 0.0538629 0.470766 -0.359059 -0.805888 1 
0.148967 0.17998 0.0534397 0.32256 -0.402815 -0.85656 1 
0.148774 0.179792 0.0533077 0.204871 -0.462081 -0.86285 1 
0.148474 0.179446 0.0533298 0.216487 -0.492016 -0.84324 1 
0.14879 0.179221 0.0531897 0.327344 -0.479155 -0.814406 1 
0.14781 0.178692 0.0533299 0.169759 -0.557349 -0.812738 1 
0.147312 0.178295 0.0534866 0.091815 -0.619387 -0.779699 1 
0.14751 0.178015 0.0535976 0.110357 -0.625355 -0.772498 1 
0.148549 0.178572 0.0533319 0.193741 -0.575121 -0.794796 1 
0.148072 0.178474 0.0534849 0.110357 -0.625355 -0.772498 1 
0.147745 0.177967 0.0537772 0.110357 -0.625355 -0.772498 1 
0.148131 0.178171 0.053605 0.110357 -0.625355 -0.772498 1 
0.149449 0.179609 0.0532658 0.491343 -0.387561 -0.779986 1 
0.149181 0.17946 0.053187 0.498652 -0.410366 -0.763509 1 
0.14932 0.179152 0.0534235 0.511966 -0.426364 -0.745725 1 
0.148934 0.178775 0.0531597 0.329203 -0.491419 -0.806308 1 
0.149063 0.178901 0.0532476 0.327344 -0.479155 -0.814406 1 
0.148918 0.178511 0.0533329 0.315639 -0.562382 -0.764263 1 
0.148762 0.178224 0.0535153 0.268306 -0.611229 -0.744588 1 
0.145925 0.178443 0.0546197 -0.771773 -0.357572 -0.525841 1 
0.145882 0.178176 0.0543815 -0.630964 -0.503088 -0.590582 1 
0.145047 0.178037 0.0544364 -0.631457 -0.580941 -0.513585 1 
0.145207 0.177855 0.054233 -0.532007 -0.629964 -0.565786 1 
0.146749 0.178009 0.0540354 0.00971133 -0.670082 -0.742223 1 
0.145716 0.177818 0.0542249 -0.348503 -0.675737 -0.649558 1 
0.129062 0.206531 0.040997 0.161863 -0.40251 0.900992 1 
0.128998 0.205964 0.0407626 0.364964 -0.493585 0.789415 1 
0.124701 0.203571 0.0436342 0.732505 -0.321785 0.59991 1 
0.124658 0.203303 0.043396 0.732505 -0.321785 0.59991 1 
0.127242 0.206662 0.0409672 0.464687 0.0227657 0.885182 1 
0.128275 0.205845 0.0403968 0.520309 -0.567457 0.638178 1 
0.127729 0.20565 0.0403363 0.623951 -0.496133 0.603769 1 
0.127777 0.205449 0.0405536 0.611029 -0.624495 0.486466 1 
0.127536 0.205462 0.0402044 0.629792 -0.572385 0.525108 1 
0.128559 0.205927 0.0405481 0.478214 -0.514872 0.71149 1 
0.127986 0.205052 0.0394495 0.638178 -0.493367 0.591031 1 
0.128034 0.205023 0.0401029 0.607167 -0.620622 0.496161 1 
0.128259 0.204732 0.0395074 0.606077 -0.579066 0.545301 1 
0.127916 0.204623 0.0394817 0.703476 -0.304249 0.642304 1 
0.127755 0.2043 0.0394946 0.69403 -0.258871 0.671795 1 
0.127787 0.203994 0.0392033 0.69805 -0.307916 0.646462 1 
0.12843 0.203945 0.0390165 0.679583 -0.427024 0.596504 1 
0.125912 0.204333 0.0421406 0.687658 -0.213626 0.693895 1 
0.125778 0.204173 0.0418831 0.683043 -0.202899 0.701629 1 
0.12821 0.205624 0.0410347 0.545245 -0.57563 0.609391 1 
0.128339 0.205577 0.0406865 0.563463 -0.647562 0.513004 1 
0.127616 0.205299 0.0410026 0.63536 -0.61189 0.471072 1 
0.127498 0.205071 0.0408175 0.681717 -0.47737 0.554419 1 
0.127021 0.204642 0.0412161 0.67565 -0.0737861 0.733521 1 
0.12716 0.203989 0.0405804 0.67565 -0.0737861 0.733521 1 
0.125537 0.204703 0.0428423 -0.228651 0.769946 0.595736 1 
0.125939 0.204336 0.042552 0.670428 -0.169516 0.722351 1 
0.125912 0.204002 0.0423863 0.683043 -0.202899 0.701629 1 
0.12589 0.203876 0.0428262 0.725374 -0.307198 0.616005 1 
0.125601 0.20409 0.0422597 0.681731 -0.179242 0.709306 1 
0.12543 0.203697 0.0419336 0.672999 -0.136398 0.726958 1 
0.125799 0.20381 0.0423707 0.673303 -0.159586 0.721939 1 
0.125553 0.203456 0.0420977 0.681121 -0.146494 0.717366 1 
0.125461 0.203404 0.0427602 0.729586 -0.279382 0.624219 1 
0.124701 0.203053 0.0423258 0.73561 -0.307443 0.603619 1 
0.124433 0.202904 0.042247 0.733011 -0.331716 0.593852 1 
0.125205 0.203312 0.0419025 0.686544 -0.153071 0.710793 1 
0.125269 0.203043 0.0421921 0.544893 0.162722 0.822565 1 
0.12469 0.202997 0.0431047 0.732505 -0.321785 0.59991 1 
0.125054 0.202901 0.0429362 0.733011 -0.331716 0.593852 1 
0.12454 0.20273 0.0423387 0.733011 -0.331716 0.593852 1 
0.124958 0.2028 0.0423113 0.547518 0.1402 0.824966 1 
0.124893 0.202406 0.042513 0.733011 -0.331716 0.593852 1 
0.124786 0.202076 0.0422308 0.734648 -0.324537 0.595792 1 
0.12515 0.201305 0.0414358 0.125503 0.580268 0.804697 1 
0.128885 0.204419 0.0394939 0.507183 -0.645353 0.571213 1 
0.128788 0.20416 0.0395508 0.605808 -0.534934 0.588933 1 
0.127728 0.204139 0.039765 0.662894 -0.20958 0.718782 1 
0.127755 0.204142 0.0401764 0.676929 -0.155981 0.719331 1 
0.127599 0.203682 0.0399227 0.676929 -0.155981 0.719331 1 
0.128114 0.204343 0.0395927 0.703476 -0.304249 0.642304 1 
0.12776 0.203832 0.0394737 0.662894 -0.20958 0.718782 1 
0.12745 0.203416 0.0391567 0.674443 -0.244821 0.696556 1 
0.128017 0.203406 0.039023 0.667202 -0.337679 0.663939 1 
0.128027 0.203146 0.0396077 0.674443 -0.244821 0.696556 1 
0.127803 0.203092 0.039331 0.669283 -0.237792 0.703928 1 
0.128113 0.202831 0.0390214 0.655397 -0.369585 0.658682 1 
0.124074 0.203725 0.0443295 0.749836 -0.313101 0.582849 1 
0.123886 0.203068 0.0441766 0.756048 -0.316224 0.573056 1 
0.123768 0.20284 0.0439916 0.756048 -0.316224 0.573056 1 
0.123436 0.201449 0.0430518 0.756048 -0.316224 0.573056 1 
0.124459 0.202072 0.0427137 0.736987 -0.314469 0.598298 1 
0.124523 0.201631 0.0425672 0.736987 -0.314469 0.598298 1 
0.124561 0.20136 0.0424454 0.736987 -0.314469 0.598298 1 
0.124443 0.201305 0.0426965 0.756048 -0.316224 0.573056 1 
0.124785 0.201083 0.0429679 0.756048 -0.316224 0.573056 1 
0.123993 0.201369 0.0425791 0.756048 -0.316224 0.573056 1 
0.124218 0.201251 0.0424197 0.756048 -0.316224 0.573056 1 
0.12425 0.200944 0.0421285 0.756048 -0.316224 0.573056 1 
0.124266 0.201049 0.042637 0.756048 -0.316224 0.573056 1 
0.124223 0.200782 0.0423988 0.756048 -0.316224 0.573056 1 
0.124014 0.200502 0.0428763 0.756048 -0.316224 0.573056 1 
0.124496 0.200462 0.0424567 0.754036 -0.313512 0.577183 1 
0.124667 0.20051 0.0419106 0.754036 -0.313512 0.577183 1 
0.12464 0.200348 0.042181 0.754036 -0.313512 0.577183 1 
0.124593 0.200377 0.0415276 0.755519 -0.306378 0.579071 1 
0.124416 0.200294 0.0419042 0.758181 -0.312569 0.572242 1 
0.123199 0.211603 0.0411883 -0.236133 -0.33754 0.911212 1 
0.123439 0.211763 0.0419736 -0.233165 -0.340334 0.910937 1 
0.123365 0.21163 0.0415906 -0.233165 -0.340334 0.910937 1 
0.123606 0.212106 0.0410123 -0.233165 -0.340334 0.910937 1 
0.123472 0.211283 0.0412462 -0.230041 -0.337104 0.91293 1 
0.12413 0.21134 0.0415679 -0.230041 -0.337104 0.91293 1 
0.124066 0.211277 0.041524 -0.230041 -0.337104 0.91293 1 
0.123969 0.210845 0.0411447 -0.230041 -0.337104 0.91293 1 
0.125323 0.211191 0.0418569 -0.219097 -0.330794 0.917917 1 
0.125388 0.211081 0.0414648 -0.222616 -0.328897 0.917752 1 
0.124242 0.210525 0.0412026 -0.230041 -0.337104 0.91293 1 
0.124515 0.210205 0.0412605 -0.230041 -0.337104 0.91293 1 
0.125848 0.211418 0.0416755 -0.257724 -0.295159 0.920032 1 
0.126153 0.210791 0.0414421 -0.260481 -0.246401 0.933508 1 
0.125254 0.21092 0.0412073 -0.21014 -0.333079 0.919184 1 
0.125548 0.210899 0.0412614 -0.221654 -0.324616 0.919507 1 
0.125944 0.21067 0.0412378 -0.256502 -0.245289 0.934901 1 
0.125527 0.2106 0.0412652 -0.221654 -0.324616 0.919507 1 
0.124739 0.210087 0.0411011 -0.242791 -0.285386 0.92715 1 
0.125709 0.210214 0.0408677 -0.234889 -0.274272 0.932525 1 
0.125339 0.209771 0.0406762 -0.226954 -0.28334 0.931778 1 
0.125467 0.210745 0.0418269 -0.26063 -0.292309 0.920124 1 
0.127197 0.211224 0.0420278 -0.203 -0.117261 0.972132 1 
0.127074 0.210961 0.0416732 -0.215168 -0.220581 0.951339 1 
0.127196 0.210721 0.0418374 -0.208731 -0.174599 0.962261 1 
0.126929 0.210572 0.0417585 -0.218308 -0.22102 0.950522 1 
0.127036 0.210729 0.0416046 -0.211198 -0.213888 0.953754 1 
0.12665 0.210353 0.0413407 -0.234769 -0.223786 0.94594 1 
0.126698 0.210151 0.0415579 -0.224508 -0.243791 0.943484 1 
0.125157 0.210329 0.0415099 -0.223279 -0.279449 0.933839 1 
0.125783 0.21052 0.0416868 -0.263795 -0.246867 0.932453 1 
0.125815 0.210213 0.0413955 -0.263795 -0.246867 0.932453 1 
0.125607 0.210092 0.0411911 -0.241194 -0.269404 0.932334 1 
0.125654 0.209891 0.0414084 -0.267444 -0.253293 0.929686 1 
0.125413 0.209573 0.0413049 -0.222695 -0.278718 0.934197 1 
0.126072 0.209961 0.041381 -0.250903 -0.250903 0.93493 1 
0.127394 0.210268 0.0415123 -0.19962 -0.218376 0.95523 1 
0.127474 0.20976 0.0414382 -0.190063 -0.235894 0.953011 1 
0.126993 0.209958 0.041176 -0.215168 -0.220581 0.951339 1 
0.122578 0.210267 0.0403638 -0.25946 -0.338617 0.904444 1 
0.123075 0.210333 0.0404528 -0.236524 -0.341001 0.909821 1 
0.123686 0.210591 0.0405573 -0.230041 -0.337104 0.91293 1 
0.123343 0.210482 0.0405316 -0.230041 -0.337104 0.91293 1 
0.122925 0.209908 0.0403686 -0.243918 -0.343238 0.907024 1 
0.123776 0.210657 0.0410128 -0.230041 -0.337104 0.91293 1 
0.123809 0.21035 0.0407215 -0.230041 -0.337104 0.91293 1 
0.123541 0.210201 0.0406426 -0.230041 -0.337104 0.91293 1 
0.124049 0.210337 0.0410707 -0.230041 -0.337104 0.91293 1 
0.124081 0.21003 0.0407794 -0.230041 -0.337104 0.91293 1 
0.124322 0.210017 0.0411285 -0.230041 -0.337104 0.91293 1 
0.123888 0.209842 0.0406474 -0.230041 -0.337104 0.91293 1 
0.123861 0.20968 0.0409178 -0.230041 -0.337104 0.91293 1 
0.123118 0.210096 0.0405005 -0.236524 -0.341001 0.909821 1 
0.123455 0.209839 0.0406024 -0.230041 -0.337104 0.91293 1 
0.123348 0.209509 0.0403203 -0.230041 -0.337104 0.91293 1 
0.121866 0.210046 0.039901 -0.289297 -0.355251 0.888878 1 
0.122251 0.210091 0.0404105 -0.270213 -0.344042 0.899233 1 
0.121855 0.209817 0.0402437 -0.285324 -0.351053 0.891825 1 
0.121673 0.209857 0.039769 -0.281528 -0.353028 0.892252 1 
0.121962 0.209643 0.0403355 -0.281075 -0.349485 0.893788 1 
0.122508 0.209838 0.040396 -0.259889 -0.342114 0.903004 1 
0.123952 0.209401 0.040501 -0.230041 -0.337104 0.91293 1 
0.12391 0.209134 0.0402628 -0.242791 -0.285386 0.92715 1 
0.123792 0.208906 0.0400777 -0.242987 -0.282775 0.927899 1 
0.12331 0.208773 0.0400612 -0.243918 -0.343238 0.907024 1 
0.12384 0.208532 0.0398589 -0.249637 -0.283873 0.925796 1 
0.124161 0.209695 0.0411414 -0.230041 -0.337104 0.91293 1 
0.124209 0.209493 0.0413587 -0.242791 -0.285386 0.92715 1 
0.12452 0.209737 0.0412396 -0.242791 -0.285386 0.92715 1 
0.124273 0.209225 0.0416484 -0.242791 -0.285386 0.92715 1 
0.125017 0.209299 0.0411381 -0.242791 -0.285386 0.92715 1 
0.124016 0.209133 0.0407906 -0.242791 -0.285386 0.92715 1 
0.124182 0.208814 0.0403207 -0.242791 -0.285386 0.92715 1 
0.12399 0.208626 0.0401887 -0.242987 -0.282775 0.927899 1 
0.129385 0.210702 0.0423043 -0.168133 -0.61043 0.774019 1 
0.129594 0.210492 0.0427544 -0.155092 -0.61585 0.772448 1 
0.129658 0.210382 0.0423622 -0.143791 -0.549962 0.822719 1 
0.129305 0.210706 0.0421879 -0.168133 -0.61043 0.774019 1 
0.129252 0.210541 0.0420468 -0.155998 -0.539308 0.827533 1 
0.130986 0.210552 0.0422269 -0.0821149 -0.594973 0.79954 1 
0.130236 0.210443 0.0425676 -0.129452 -0.614527 0.778202 1 
0.130086 0.21035 0.0422377 -0.112182 -0.56091 0.82024 1 
0.130525 0.210215 0.0420161 -0.0665413 -0.547904 0.83389 1 
0.130252 0.210031 0.0417677 -0.0750312 -0.533712 0.842331 1 
0.130943 0.210284 0.0419887 -0.0756998 -0.561321 0.824129 1 
0.130986 0.210048 0.0420364 -0.0370504 -0.50361 0.863136 1 
0.13075 0.209592 0.0416663 -0.0395043 -0.480863 0.875906 1 
0.130375 0.209617 0.0414958 -0.0281558 -0.457197 0.88892 1 
0.130027 0.210667 0.0432355 -0.152891 -0.661518 0.734179 1 
0.129369 0.21061 0.0429137 -0.175733 -0.661672 0.728909 1 
0.129497 0.209901 0.0430569 -0.133853 -0.539826 0.831067 1 
0.129138 0.210204 0.0438311 -0.17295 -0.705574 0.687207 1 
0.130509 0.210627 0.0428159 -0.119546 -0.609538 0.783691 1 
0.130616 0.210453 0.0429076 -0.103916 -0.613248 0.783025 1 
0.131306 0.210203 0.0429381 0.0122478 -0.542985 0.839653 1 
0.131167 0.210007 0.0425111 -0.0372407 -0.528267 0.848261 1 
0.131809 0.210131 0.0427605 0.166029 -0.423014 0.890783 1 
0.131392 0.209889 0.0423518 0.062418 -0.489635 0.869691 1 
0.130509 0.210123 0.0426255 -0.069579 -0.552372 0.830689 1 
0.129867 0.21 0.0423761 -0.121588 -0.552274 0.824748 1 
0.130702 0.210139 0.0423213 -0.0602459 -0.522598 0.850448 1 
0.130332 0.210041 0.0430021 -0.0875322 -0.549587 0.830838 1 
0.130958 0.209886 0.0423068 -0.0370504 -0.50361 0.863136 1 
0.13144 0.209846 0.0418872 0.0852965 -0.462838 0.882329 1 
0.130445 0.209212 0.0415188 0.00905046 -0.399513 0.916683 1 
0.129332 0.209861 0.0415367 -0.182613 -0.685948 0.704363 1 
0.13227 0.20995 0.0416629 0.174786 -0.405909 0.897044 1 
0.132228 0.209683 0.0414247 0.174786 -0.405909 0.897044 1 
0.132404 0.210284 0.0423565 0.166029 -0.423014 0.890783 1 
0.132388 0.210178 0.0418479 0.166029 -0.423014 0.890783 1 
0.131617 0.20977 0.0421924 0.123823 -0.445479 0.886688 1 
0.132275 0.209482 0.0416419 0.174786 -0.405909 0.897044 1 
0.132543 0.209631 0.0417208 0.174786 -0.405909 0.897044 1 
0.132886 0.20974 0.0417465 0.149379 -0.408302 0.900542 1 
0.131087 0.209335 0.0417682 0.0227679 -0.459377 0.88795 1 
0.131676 0.209625 0.0416308 0.126141 -0.435117 0.891494 1 
0.131729 0.209287 0.0415814 0.126141 -0.435117 0.891494 1 
0.13136 0.209016 0.0418261 0.102183 -0.435329 0.894454 1 
0.130873 0.209179 0.0413943 -0.0145613 -0.448754 0.893537 1 
0.132083 0.209294 0.04151 0.174786 -0.405909 0.897044 1 
0.132083 0.209294 0.04151 0.174786 -0.405909 0.897044 1 
0.132383 0.209136 0.0412975 0.174786 -0.405909 0.897044 1 
0.13227 0.209116 0.0417181 0.174786 -0.405909 0.897044 1 
0.131981 0.208999 0.0413974 0.174786 -0.405909 0.897044 1 
0.131794 0.208673 0.0409988 0.166004 -0.417176 0.893536 1 
0.131499 0.208363 0.0411904 0.144037 -0.417851 0.897025 1 
0.131729 0.209128 0.0422632 0.174786 -0.405909 0.897044 1 
0.131954 0.20901 0.0421039 0.174786 -0.405909 0.897044 1 
0.132001 0.208808 0.0423211 0.174786 -0.405909 0.897044 1 
0.131729 0.207775 0.0410101 0.152549 -0.409175 0.899614 1 
0.133576 0.209317 0.0413408 0.162549 -0.412846 0.896178 1 
0.133956 0.208982 0.0408086 0.186543 -0.391886 0.900903 1 
0.13364 0.208704 0.0407582 0.199222 -0.394081 0.897224 1 
0.134004 0.208781 0.0410259 0.186543 -0.391886 0.900903 1 
0.134036 0.208474 0.0407346 0.173266 -0.385194 0.906424 1 
0.132837 0.208934 0.0411483 0.149379 -0.408302 0.900542 1 
0.132612 0.208548 0.0411173 0.152549 -0.409175 0.899614 1 
0.133105 0.208579 0.0410367 0.155914 -0.407664 0.899723 1 
0.132735 0.208135 0.0408453 0.171338 -0.407467 0.897003 1 
0.13242 0.20836 0.0409853 0.155693 -0.404232 0.901308 1 
0.132318 0.208065 0.0408727 0.152335 -0.405753 0.901198 1 
