0.147192 0.207034 0.058028 0.0152715 -0.637238 -0.770516 1 
0.147584 0.207202 0.0579348 0.00414506 -0.667354 -0.744729 1 
0.147248 0.207352 0.0578674 0.00971133 -0.670082 -0.742223 1 
0.147694 0.207594 0.0578141 -0.00415077 -0.695945 -0.718083 1 
0.147522 0.207965 0.0578667 -0.00691599 -0.657019 -0.753843 1 
0.147358 0.207744 0.0577467 0.00414851 -0.654082 -0.756412 1 
0.147358 0.207988 0.0575461 -0.00691408 -0.654072 -0.756401 1 
0.147194 0.207523 0.0576267 0.0124999 -0.640271 -0.768047 1 
0.147122 0.207751 0.0573059 0.00691519 -0.637581 -0.770352 1 
0.147028 0.206814 0.0579081 0.0152715 -0.637238 -0.770516 1 
0.147084 0.207132 0.0577474 0.00691779 -0.659957 -0.751272 1 
0.1469 0.206479 0.0579485 0.0208458 -0.604529 -0.79631 1 
0.14673 0.207583 0.0573992 0.00691519 -0.637581 -0.770352 1 
0.146567 0.207607 0.0570786 0.020933 -0.648923 -0.760566 1 
0.148636 0.20957 0.0558894 0.604709 -0.467351 0.644911 1 
0.148091 0.210011 0.0563242 0.0762999 -0.600322 -0.79611 1 
0.147411 0.207966 0.0590146 -0.0281806 -0.263428 -0.964267 1 
0.147141 0.208576 0.0580121 -0.0293414 -0.602198 -0.797807 1 
0.146686 0.208045 0.057612 0.0152926 -0.632558 -0.774362 1 
0.146731 0.207828 0.0571985 0.0209641 -0.644295 -0.764489 1 
0.146729 0.207095 0.0578005 0.00414506 -0.667354 -0.744729 1 
0.146455 0.206776 0.0580098 0.00967365 -0.631551 -0.775274 1 
0.146128 0.206923 0.0581873 -0.0469777 -0.656264 -0.753067 1 
0.146266 0.207155 0.0575729 0.0152597 -0.631198 -0.775472 1 
0.146048 0.207399 0.057421 0.0586585 -0.650966 -0.756837 1 
0.144929 0.207951 0.0591855 -0.327941 -0.860653 0.389526 1 
0.146405 0.208563 0.0577932 -0.251259 -0.63368 -0.731655 1 
0.146051 0.20877 0.0576457 -0.373668 -0.854319 -0.361264 1 
0.146514 0.208072 0.0570466 0.0381221 -0.650899 -0.758206 1 
0.146459 0.207704 0.056798 0.0800458 -0.679662 -0.729145 1 
0.145831 0.207937 0.0574777 -0.0587075 -0.748879 -0.660102 1 
0.145667 0.207716 0.0573578 0.0353403 -0.7478 -0.662983 1 
0.145477 0.208144 0.0573301 -0.166262 -0.860738 -0.481131 1 
0.145313 0.207924 0.0572102 0.00409474 -0.820314 -0.571899 1 
0.14526 0.208388 0.0571782 -0.242987 -0.927899 -0.282775 1 
0.144686 0.208156 0.05789 -0.551586 -0.829527 -0.0873941 1 
0.14488 0.209244 0.057123 -0.499612 -0.861936 0.0863352 1 
0.144416 0.20901 0.0566868 -0.302735 -0.951635 -0.0523718 1 
0.143979 0.20906 0.0571935 -0.420899 -0.903494 0.0808894 1 
0.146384 0.210235 0.0552451 0.165749 -0.752712 -0.637144 1 
0.146265 0.209797 0.0547117 0.350619 -0.541279 -0.764253 1 
0.145238 0.210454 0.0556574 0.405948 -0.641232 -0.651174 1 
0.145692 0.209859 0.0556321 0.304117 -0.709606 -0.635588 1 
0.145783 0.209425 0.0548052 0.359303 -0.680871 -0.638214 1 
0.145473 0.209221 0.0548542 0.464831 -0.612503 -0.639353 1 
0.145401 0.209793 0.0551513 0.485313 -0.599504 -0.636448 1 
0.144199 0.209843 0.0569522 -0.600891 -0.770808 0.211625 1 
0.144584 0.210747 0.0560121 0.661126 -0.255255 -0.705519 1 
0.144684 0.21036 0.0558393 0.401981 -0.699745 -0.590565 1 
0.144445 0.209733 0.0568191 -0.451802 -0.88209 0.133389 1 
0.144544 0.209345 0.0566463 -0.29158 -0.955526 -0.0441789 1 
0.144363 0.209475 0.0566548 -0.394405 -0.917622 0.0491346 1 
0.143982 0.209793 0.0565915 -0.434363 -0.895263 0.0991633 1 
0.146412 0.210319 0.0545508 0.219742 -0.812893 -0.539368 1 
0.145757 0.210074 0.0548976 0.442961 -0.610116 -0.65692 1 
0.145557 0.210261 0.0548259 0.478774 -0.653484 -0.586288 1 
0.145347 0.209963 0.0549107 0.567882 -0.527439 -0.631916 1 
0.146706 0.205685 0.0589242 0.0554226 -0.601122 -0.797233 1 
0.145699 0.206136 0.0587221 -0.0378597 -0.590332 -0.806272 1 
0.145008 0.206249 0.0587078 -0.209736 -0.685137 -0.697566 1 
0.145963 0.206458 0.058268 -0.229073 -0.962105 0.147916 1 
0.145909 0.206629 0.0580273 0.0265044 -0.604021 -0.796527 1 
0.144846 0.206762 0.0579859 -0.242815 -0.847563 -0.471887 1 
0.145892 0.20693 0.0577464 -0.0125042 -0.643272 -0.765536 1 
0.145639 0.207288 0.0574341 0.0353332 -0.705251 -0.708077 1 
0.145556 0.20708 0.0576791 -0.0440624 -0.70642 -0.70642 1 
0.145184 0.2071 0.057652 -0.134846 -0.80167 -0.582359 1 
0.14442 0.207197 0.0575175 -0.337059 -0.923739 -0.181927 1 
0.144281 0.206476 0.0585331 -0.440632 -0.891119 -0.108398 1 
0.144383 0.206871 0.0581677 -0.44403 -0.88078 -0.164509 1 
0.143291 0.206626 0.0586119 -0.418987 -0.902965 -0.0954129 1 
0.144329 0.207042 0.057927 -0.39636 -0.906974 -0.142464 1 
0.143673 0.206747 0.0578645 -0.4218 -0.904632 -0.0610322 1 
0.143211 0.207052 0.0574363 -0.4181 -0.908287 -0.0144172 1 
0.144061 0.208729 0.0569405 -0.411475 -0.910071 0.0495915 1 
0.143815 0.208594 0.0572742 -0.523918 -0.847639 0.0837701 1 
0.14343 0.207591 0.0573956 -0.451821 -0.891576 -0.0308364 1 
0.143266 0.20737 0.0572756 -0.422438 -0.906345 0.00915501 1 
0.143237 0.206453 0.0577533 -0.411076 -0.909757 -0.0579549 1 
0.143102 0.207149 0.0571557 -0.447735 -0.894158 0.00393902 1 
0.144716 0.20863 0.0559758 0.416861 -0.646052 -0.639409 1 
0.14428 0.20863 0.0560732 0.411331 -0.708679 -0.57322 1 
0.142799 0.20885 0.0551901 -0.604555 0.706133 0.368631 1 
0.142881 0.208764 0.0547365 -0.549248 0.798199 0.247395 1 
0.143546 0.2093 0.0548431 -0.572242 0.758181 0.312569 1 
0.143382 0.209079 0.0547232 -0.544571 0.790812 0.279389 1 
0.142992 0.20945 0.0548244 -0.56687 0.785497 0.248298 1 
0.142837 0.20947 0.0547486 -0.543589 0.820654 0.176177 1 
0.142937 0.209082 0.0545758 -0.52536 0.828162 0.195307 1 
0.142673 0.209249 0.0546286 -0.513034 0.844214 0.155241 1 
0.142866 0.209848 0.054263 -0.372479 0.927997 -0.00895998 1 
0.14273 0.210056 0.0540667 -0.34068 0.938502 -0.0561274 1 
0.142638 0.209607 0.0542675 -0.388897 0.921208 -0.0116282 1 
0.174819 0.232692 0.0595819 -0.553146 0.566679 -0.61066 0 
0.175001 0.232512 0.0591641 -0.553146 0.566679 -0.61066 0 
0.174565 0.232511 0.0592615 -0.586575 0.532481 -0.610241 0 
0.174383 0.232348 0.0590613 -0.56928 0.532117 -0.626715 0 
0.173909 0.231235 0.0577544 -0.574648 0.524093 -0.628574 0 
0.173917 0.230643 0.0575819 -0.572176 0.521541 -0.632938 0 
0.173554 0.230954 0.0580082 -0.567882 0.527439 -0.631916 0 
0.174318 0.231346 0.0577413 -0.588786 0.531426 -0.609031 0 
0.174437 0.232471 0.0595107 -0.576235 0.532299 -0.62017 0 
0.173801 0.232608 0.0591271 -0.563712 0.516596 -0.644483 0 
0.173773 0.23213 0.0587941 -0.570727 0.516853 -0.63807 0 
0.173419 0.232337 0.0586465 -0.563202 0.509403 -0.650624 0 
0.173229 0.232815 0.0590282 -0.557873 0.517423 -0.648885 0 
0.172873 0.231995 0.0592739 -0.521681 0.511616 -0.682714 0 
0.172901 0.232374 0.0587883 -0.551018 0.520687 -0.652123 0 
0.173209 0.231451 0.058314 -0.558114 0.521019 -0.645793 0 
0.172909 0.231488 0.058407 -0.51772 0.521071 -0.678565 0 
0.172683 0.232079 0.0586284 -0.521681 0.511616 -0.682714 0 
0.172326 0.231553 0.0590827 -0.336927 0.71129 0.616885 0 
0.172519 0.231858 0.0585084 -0.514086 0.520785 -0.681541 0 
0.172597 0.23055 0.059058 -0.354264 0.706895 0.612207 0 
0.172407 0.230978 0.0590303 -0.340594 0.708891 0.617632 0 
0.172198 0.230974 0.0593238 -0.351291 0.710751 0.609449 0 
0.172387 0.230546 0.0593514 -0.351291 0.710751 0.609449 0 
0.172332 0.230179 0.0591028 -0.358762 0.702781 0.614319 0 
0.172142 0.230656 0.0594845 -0.351043 0.716782 0.602489 0 
0.17219 0.231566 0.0594964 -0.336927 0.71129 0.616885 0 
0.171916 0.231198 0.0592965 -0.357308 0.71951 0.595513 0 
0.171589 0.231345 0.0594739 -0.353316 0.727798 0.587774 0 
0.171861 0.23088 0.0594571 -0.361133 0.714095 0.599709 0 
0.171642 0.230586 0.0592972 -0.353473 0.724864 0.591294 0 
0.171234 0.231063 0.0597276 -0.367277 0.742716 0.559893 0 
0.171425 0.231124 0.0593539 -0.360694 0.72302 0.589188 0 
0.173201 0.232043 0.0584866 -0.545989 0.515749 -0.660226 0 
0.172928 0.23192 0.058086 -0.547455 0.520504 -0.655262 0 
0.172955 0.231515 0.057793 -0.558114 0.521019 -0.645793 0 
0.166614 0.226517 0.0601528 -0.394614 0.615861 0.681905 0 
0.166241 0.226292 0.0603264 -0.431373 0.644561 0.631236 0 
0.165959 0.226516 0.0602989 -0.621746 0.757511 0.19902 0 
0.171914 0.230171 0.0596897 -0.360694 0.72302 0.589188 0 
0.172032 0.229971 0.0593965 -0.360694 0.72302 0.589188 0 
0.171885 0.229448 0.0595574 -0.353473 0.724864 0.591294 0 
0.171813 0.229676 0.0592365 -0.361133 0.714095 0.599709 0 
0.171476 0.229582 0.0593698 -0.362222 0.752057 0.550642 0 
0.171258 0.229288 0.0592099 -0.347649 0.758361 0.551388 0 
0.171231 0.229986 0.0597116 -0.358026 0.759792 0.542709 0 
0.171131 0.229492 0.0592584 -0.350869 0.761563 0.544897 0 
0.170722 0.229969 0.0596888 -0.364659 0.763353 0.533213 0 
0.170957 0.22908 0.0595036 -0.350971 0.768255 0.535353 0 
0.170885 0.229308 0.0591828 -0.340868 0.764126 0.54765 0 
0.170522 0.229618 0.059609 -0.348951 0.751462 0.559945 0 
0.170313 0.229858 0.0597019 -0.366341 0.753849 0.545441 0 
0.170249 0.230132 0.0600351 -0.388617 0.772356 0.502438 0 
0.169867 0.229911 0.0599639 -0.397407 0.776972 0.488243 0 
0.170057 0.229483 0.0599915 -0.400609 0.783378 0.475217 0 
0.170149 0.229638 0.0595819 -0.397407 0.776972 0.488243 0 
0.171315 0.230732 0.0594745 -0.367701 0.737035 0.567076 0 
0.171096 0.230194 0.0595153 -0.358026 0.759792 0.542709 0 
0.170832 0.230361 0.0595681 -0.354414 0.768706 0.53243 0 
0.170824 0.230952 0.0597407 -0.358909 0.758418 0.544047 0 
0.170605 0.230414 0.0597814 -0.368373 0.761088 0.533898 0 
0.170686 0.230083 0.0595284 -0.352208 0.754732 0.55347 0 
0.170441 0.230193 0.0596614 -0.358909 0.758418 0.544047 0 
0.17036 0.230524 0.0599144 -0.364659 0.763353 0.533213 0 
0.169868 0.229861 0.0595545 -0.401396 0.778415 0.48265 0 
0.170029 0.228761 0.0598591 -0.461512 0.823792 0.329202 0 
0.16981 0.228467 0.0596992 -0.473257 0.843899 0.25271 0 
0.170365 0.228855 0.0597258 -0.407343 0.796975 0.445984 0 
0.170494 0.22914 0.059276 -0.35457 0.75933 0.545617 0 
0.169866 0.228735 0.0591292 -0.466249 0.838009 0.283467 0 
0.170138 0.228858 0.0595298 -0.414808 0.792493 0.447089 0 
0.169839 0.229189 0.0598315 -0.467405 0.823073 0.322619 0 
0.169948 0.229286 0.0595021 -0.406243 0.784972 0.467746 0 
0.169521 0.229527 0.0596437 -0.469077 0.837527 0.280208 0 
0.169974 0.228638 0.0594098 -0.466249 0.838009 0.283467 0 
0.169875 0.229025 0.0595826 -0.464415 0.830317 0.308046 0 
0.169357 0.229306 0.0595238 -0.468998 0.862063 0.192066 0 
0.169701 0.228319 0.0596192 -0.474302 0.850106 0.228817 0 
0.16981 0.228417 0.0592899 -0.473257 0.843899 0.25271 0 
0.169593 0.228661 0.0591379 -0.469258 0.855529 0.218786 0 
0.169247 0.228914 0.0596444 -0.481475 0.853455 0.19949 0 
0.169646 0.228196 0.0591699 -0.474302 0.850106 0.228817 0 
0.169273 0.227972 0.0593434 -0.468768 0.872629 0.137024 0 
0.169328 0.22829 0.0591827 -0.469435 0.863346 0.185108 0 
0.169104 0.229614 0.0588021 -0.480891 0.875468 0.0479521 0 
0.17004 0.230128 0.0603286 -0.392728 0.790304 0.470303 0 
0.16995 0.230463 0.0603368 -0.41102 0.781426 0.469506 0 
0.169786 0.230242 0.0602169 -0.416163 0.785367 0.458265 0 
0.169495 0.229931 0.0599367 -0.454926 0.833249 0.314227 0 
0.169213 0.230155 0.0599093 -0.466181 0.844664 0.263092 0 
0.168857 0.228991 0.0595371 -0.479317 0.877641 0.00132775 0 
0.168557 0.229027 0.0596302 -0.211835 0.422188 0.88141 0 
0.168103 0.229378 0.059856 -0.252421 0.469657 0.845994 0 
0.168147 0.228917 0.0596432 -0.339199 0.598872 0.725463 0 
0.167957 0.2291 0.0598163 -0.307692 0.55002 0.776405 0 
0.167356 0.228929 0.0602031 -0.343933 0.607996 0.715577 0 
0.169277 0.229881 0.0595761 -0.458979 0.842235 0.282805 0 
0.169131 0.229603 0.0595363 -0.468998 0.862063 0.192066 0 
0.169104 0.229958 0.05942 -0.465557 0.850213 0.245753 0 
0.16875 0.229921 0.0594731 -0.467762 0.883845 -0.00397532 0 
0.168912 0.229309 0.0593764 -0.484725 0.874641 -0.00667665 0 
0.168885 0.229713 0.0596694 -0.467762 0.883845 -0.00397532 0 
0.168567 0.229513 0.0594736 -0.445903 0.827205 -0.341911 0 
0.16883 0.229346 0.0594208 -0.484725 0.874641 0.00667665 0 
0.168312 0.229382 0.0595626 -0.249553 0.470018 0.846644 0 
0.168881 0.227804 0.0594368 -0.463552 0.873337 -0.149673 0 
0.168636 0.228208 0.0597785 -0.46952 0.878773 -0.0854947 0 
0.168226 0.227853 0.0599922 -0.296587 0.534491 0.791427 0 
0.168398 0.227482 0.0599396 -0.456651 0.857168 -0.238187 0 
0.167634 0.227678 0.0606237 -0.427649 0.818733 -0.383135 0 
0.167628 0.228414 0.059777 -0.392142 0.666807 0.633714 0 
0.167437 0.228598 0.0599501 -0.384104 0.661055 0.64457 0 
0.167983 0.228696 0.0595232 -0.380456 0.663739 0.643975 0 
0.167829 0.228766 0.0598567 -0.358443 0.633413 0.685789 0 
0.167518 0.228267 0.059697 -0.384104 0.661055 0.64457 0 
0.167273 0.228377 0.0598301 -0.380291 0.676621 0.630526 0 
0.167743 0.227237 0.0602864 -0.350617 0.591973 0.725697 0 
0.167462 0.22746 0.060259 -0.402316 0.65066 0.644037 0 
0.167354 0.227802 0.0597777 -0.395006 0.659445 0.639612 0 
0.167089 0.22748 0.0602318 -0.413221 0.648873 0.638915 0 
0.16708 0.22719 0.0597784 -0.413139 0.628834 0.658699 0 
0.16709 0.227969 0.0598305 -0.400899 0.70446 0.585675 0 
0.16698 0.227971 0.0609785 -0.268926 0.453332 0.849805 0 
0.167192 0.228708 0.0600831 -0.381305 0.648714 0.658618 0 
0.167028 0.228487 0.0599632 -0.390741 0.690803 0.608369 0 
0.167117 0.227664 0.0603562 -0.403157 0.655337 0.638747 0 
0.166809 0.228193 0.0598032 -0.380857 0.687521 0.618274 0 
0.166482 0.22834 0.0599806 -0.415494 0.295905 0.860119 0 
0.166845 0.227785 0.0597549 -0.389995 0.722396 0.571006 0 
0.1667 0.228046 0.0597232 -0.428175 0.319185 0.845451 0 
0.166481 0.227751 0.0595633 -0.433905 0.476477 0.764655 0 
0.166354 0.228005 0.060021 -0.40293 0.412486 0.817008 0 
0.167358 0.229368 0.0593924 -0.387498 0.67771 0.624944 0 
0.167252 0.226819 0.0597258 -0.413891 0.620006 0.666548 0 
0.167116 0.227026 0.0595295 -0.442368 0.676072 0.589268 0 
0.166542 0.226745 0.059832 -0.358515 0.54994 0.754342 0 
0.166425 0.227189 0.0599246 -0.377256 0.543837 0.749613 0 
0.166261 0.226968 0.0598046 -0.395321 0.610349 0.686436 0 
0.166045 0.227751 0.0596607 -0.424179 0.593851 0.683677 0 
0.166217 0.227624 0.0594075 -0.459821 0.593587 0.66047 0 
0.165863 0.227587 0.0594605 -0.438546 0.681997 0.585284 0 
0.165481 0.227611 0.0591886 -0.455647 0.69265 0.559127 0 
0.165727 0.228138 0.0598822 -0.434376 0.574175 0.694003 0 
0.165527 0.228032 0.0596018 -0.459594 0.66683 0.58661 0 
0.165996 0.226352 0.0600501 -0.613844 0.751998 0.2402 0 
0.165388 0.227017 0.0604088 -0.442887 0.606672 0.660152 0 
0.16591 0.227859 0.0586458 -0.46754 0.625063 0.625063 0 
0.165309 0.227982 0.0592412 -0.479521 0.686701 0.546353 0 
0.16501 0.228263 0.0591337 -0.4864 0.686977 0.539887 0 
0.164867 0.225927 0.0601252 -0.528835 0.620071 0.579522 0 
0.164165 0.225016 0.0602595 -0.614183 0.711931 -0.340489 0 
0.163946 0.224183 0.0600915 -0.557471 0.781723 0.279525 0 
0.163938 0.224775 0.0602641 -0.530246 0.709766 0.463758 0 
0.163837 0.224575 0.0600195 -0.538668 0.720987 0.435907 0 
0.163691 0.224297 0.0599798 -0.595491 0.774912 0.211902 0 
0.163835 0.223792 0.0602122 -0.530974 0.818649 0.218816 0 
0.16359 0.223902 0.0603452 -0.501122 0.832138 0.237535 0 
0.163672 0.223865 0.0603009 -0.501122 0.832138 0.237535 0 
0.163566 0.22494 0.0592176 -0.557468 0.674654 0.483809 0 
0.163044 0.223853 0.0611813 -0.0652662 0.167319 -0.98374 0 
0.163691 0.224396 0.0607984 -0.574445 0.790055 0.214069 0 
0.163455 0.224403 0.0603576 -0.569529 0.791785 0.220712 0 
0.162546 0.22491 0.0614193 -0.0652662 0.167319 -0.98374 0 
0.162818 0.22464 0.0607927 -0.507034 0.842065 0.183968 0 
0.163511 0.224966 0.0599963 -0.546915 0.734147 0.402385 0 
0.163175 0.225116 0.0599289 -0.421183 0.272173 -0.865174 0 
0.162856 0.224965 0.0601424 -0.589269 0.775845 0.225446 0 
0.162611 0.225075 0.0602755 -0.575979 0.803378 0.151101 0 
0.16329 0.223938 0.0604383 -0.492152 0.839554 0.230077 0 
0.163253 0.223808 0.0604785 -0.0652662 0.167319 -0.98374 0 
0.163263 0.223999 0.0601133 -0.498821 0.833415 0.237899 0 
0.162882 0.224366 0.0604594 -0.0652662 0.167319 -0.98374 0 
0.163126 0.223717 0.0603183 -0.0652662 0.167319 -0.98374 0 
0.163045 0.223705 0.0599534 -0.0652662 0.167319 -0.98374 0 
0.162828 0.224537 0.0602188 -0.507034 0.842065 0.183968 0 
0.162737 0.224333 0.060219 -0.0652662 0.167319 -0.98374 0 
0.162763 0.223928 0.059926 -0.0730023 0.171137 -0.982539 0 
0.162547 0.224761 0.0601914 -0.505481 0.846422 0.167506 0 
0.162283 0.224928 0.0602442 -0.0730023 0.171137 -0.982539 0 
0.162437 0.224369 0.0603121 -0.0730023 0.171137 -0.982539 0 
0.162273 0.224148 0.0601921 -0.0855959 0.165164 -0.982545 0 
0.162137 0.22465 0.0602045 -0.0807075 0.172256 -0.98174 0 
0.162009 0.224315 0.0602449 -0.189585 0.352087 -0.916566 0 
0.162907 0.223179 0.060359 -0.0760008 0.179748 -0.980772 0 
0.162799 0.22352 0.0598778 -0.075707 0.174246 -0.981788 0 
0.162443 0.222994 0.0603321 -0.457281 0.851858 0.255405 0 
0.162471 0.223079 0.0596379 -0.453258 0.888606 0.0702619 0 
0.162489 0.223316 0.0599267 -0.0850576 0.159333 -0.983554 0 
0.162581 0.223765 0.0597258 -0.075707 0.174246 -0.981788 0 
0.162363 0.22347 0.0595659 -0.0850576 0.159333 -0.983554 0 
0.161564 0.224318 0.0600976 -0.44057 0.87672 0.193026 0 
0.161845 0.224095 0.060125 -0.44057 0.87672 0.193026 0 
0.161645 0.223743 0.0600453 -0.470668 0.84842 0.242188 0 
0.162253 0.223323 0.0594859 -0.44057 0.87672 0.193026 0 
0.162335 0.222992 0.0592329 -0.453913 0.857729 0.241379 0 
0.162171 0.222772 0.0591129 -0.471893 0.837029 0.276947 0 
0.161272 0.223763 0.0600181 -0.468073 0.82813 0.308396 0 
0.161436 0.223984 0.0601381 -0.45857 0.848125 0.265326 0 
0.161154 0.223963 0.0603114 -0.461989 0.824643 0.326388 0 
0.16099 0.223743 0.0601914 -0.447255 0.823392 0.34927 0 
0.161126 0.223485 0.0599784 -0.477387 0.820853 0.313531 0 
0.160727 0.223909 0.0602442 -0.445533 0.812818 0.37527 0 
0.160826 0.223522 0.0600714 -0.460398 0.803691 0.376981 0 
0.160662 0.223301 0.0599515 -0.457925 0.801771 0.384015 0 
0.160563 0.223689 0.0601243 -0.45984 0.802717 0.379728 0 
0.160071 0.223615 0.0601817 -0.455432 0.796604 0.397497 0 
0.159977 0.222089 0.0603666 -0.421948 0.753595 0.504039 0 
0.160479 0.222893 0.059952 -0.460328 0.793055 0.398951 0 
0.160234 0.223003 0.060085 -0.455432 0.796604 0.397497 0 
0.160015 0.222709 0.059925 -0.449309 0.786696 0.423356 0 
0.160043 0.223186 0.060258 -0.455432 0.796604 0.397497 0 
0.159797 0.223002 0.0601824 -0.461485 0.788572 0.40643 0 
0.159279 0.223039 0.0603242 -0.411053 0.724708 0.553023 0 
0.160307 0.223264 0.0600045 -0.460328 0.793055 0.398951 0 
0.159579 0.222708 0.0600225 -0.443192 0.76373 0.469359 0 
0.159115 0.222818 0.0602042 -0.397197 0.707044 0.585083 0 
0.159414 0.222243 0.0601032 -0.402385 0.734147 0.546915 0 
0.158896 0.222279 0.0602449 -0.365535 0.713039 0.598297 0 
0.15876 0.222536 0.060458 -0.46563 0.5424 -0.699279 0 
0.163213 0.225735 0.0594874 -0.51459 0.632693 0.578703 0 
0.163076 0.225504 0.0601017 -0.719411 0.69407 -0.0267491 0 
0.162476 0.225577 0.0602878 -0.425201 0.322405 -0.84573 0 
0.156352 0.220383 0.063209 -0.471358 0.662585 -0.582068 0 
0.158755 0.220432 0.0608352 -0.546305 0.610576 -0.573366 0 
0.158536 0.220138 0.0606753 -0.538155 0.619132 -0.571896 0 
0.158865 0.22043 0.0596873 -0.499814 0.567129 -0.654638 0 
0.158892 0.220664 0.0602209 -0.507599 0.585172 -0.63239 0 
0.158511 0.221031 0.060567 -0.534848 0.61246 -0.58209 0 
0.158731 0.221814 0.0603256 -0.495506 0.576131 -0.650037 0 
0.158567 0.221593 0.0602057 -0.492965 0.577089 -0.651118 0 
0.158422 0.222198 0.0607919 -0.522017 0.599728 -0.606486 0 
0.158394 0.22172 0.0604589 -0.527979 0.6022 -0.598826 0 
0.158266 0.221385 0.0604994 -0.541671 0.615919 -0.572045 0 
0.158203 0.221659 0.0608326 -0.542798 0.613818 -0.573235 0 
0.157985 0.221609 0.060472 -0.538155 0.619132 -0.571896 0 
0.157421 0.221618 0.0612279 -0.531383 0.612356 -0.585365 0 
0.15774 0.222013 0.0608137 -0.521969 0.592916 -0.613187 0 
0.15763 0.221622 0.0609344 -0.517434 0.608449 -0.601707 0 
0.157531 0.222009 0.0611072 -0.520924 0.595101 -0.611959 0 
0.15812 0.221108 0.0604596 -0.53796 0.625652 -0.564942 0 
0.157821 0.221388 0.060352 -0.532214 0.62345 -0.572763 0 
0.157938 0.220699 0.0604601 -0.528184 0.639558 -0.558559 0 
0.157638 0.22098 0.0603525 -0.524881 0.63627 -0.565386 0 
0.157502 0.221287 0.0609748 -0.528756 0.623358 -0.576057 0 
0.157229 0.221164 0.0605743 -0.502832 0.640733 -0.580191 0 
0.15865 0.222145 0.0605786 -0.504008 0.584919 -0.635488 0 
0.157845 0.220251 0.060661 -0.509801 0.641037 -0.573737 0 
0.156681 0.220038 0.0613943 -0.456686 0.674155 -0.580476 0 
0.157547 0.220776 0.0603527 -0.520179 0.641386 -0.563948 0 
0.157364 0.220368 0.0603532 -0.500313 0.641815 -0.581171 0 
0.15712 0.221016 0.0604943 -0.496701 0.64487 -0.580888 0 
0.156901 0.220722 0.0603343 -0.494925 0.662697 -0.562034 0 
0.156618 0.220163 0.0604996 -0.452127 0.675688 -0.58226 0 
0.156482 0.22042 0.0607126 -0.458852 0.682438 -0.568976 0 
0.156454 0.219942 0.0603797 -0.445389 0.665582 -0.598857 0 
0.156191 0.220109 0.0604325 -0.439132 0.666212 -0.602763 0 
0.156045 0.219832 0.0603928 -0.423663 0.672877 -0.60642 0 
0.156272 0.22081 0.0620334 -0.458852 0.682438 -0.568976 0 
0.156271 0.219534 0.0603801 -0.423458 0.679193 -0.599483 0 
0.15578 0.219166 0.0602289 -0.423752 0.669695 -0.609871 0 
0.155917 0.219497 0.0604332 -0.417424 0.670206 -0.613662 0 
0.155699 0.219741 0.0602813 -0.416494 0.672032 -0.612296 0 
0.155589 0.219056 0.0601933 -0.435706 0.659401 -0.612659 0 
0.15537 0.218761 0.0600333 -0.431373 0.644561 -0.631236 0 
0.155507 0.219386 0.0604463 -0.413039 0.665175 -0.622046 0 
0.155125 0.218871 0.0601664 -0.424113 0.646981 -0.633675 0 
0.155343 0.219166 0.0603263 -0.427667 0.653981 -0.624027 0 
0.155098 0.219276 0.0604594 -0.427667 0.653981 -0.624027 0 
0.155015 0.218724 0.0600864 -0.439544 0.643439 -0.626727 0 
0.154825 0.219152 0.0600588 -0.431373 0.644561 -0.631236 0 
0.154307 0.219188 0.0602006 -0.463876 0.638039 -0.614594 0 
0.155342 0.218283 0.0597004 -0.307 0.539238 -0.784202 0 
0.155224 0.218484 0.0599936 -0.42409 0.650271 -0.630314 0 
0.154933 0.218173 0.0597134 -0.306572 0.479511 -0.822243 0 
0.155615 0.218063 0.059483 -0.24078 0.44673 -0.861659 0 
0.155178 0.218063 0.0595804 -0.276632 0.468265 -0.839168 0 
0.154769 0.217952 0.0595935 -0.361595 0.49659 -0.78908 0 
0.155003 0.217063 0.0594083 -0.362802 0.432511 -0.825414 0 
0.155467 0.216903 0.0588172 -0.264841 0.384543 -0.8843 0 
0.155177 0.217181 0.0589544 -0.300109 0.391512 -0.869858 0 
0.154797 0.21843 0.0599265 -0.460006 0.654045 -0.600517 0 
0.15468 0.218874 0.060019 -0.450373 0.644586 -0.617798 0 
0.154515 0.218654 0.0598991 -0.470754 0.651685 -0.594725 0 
0.154633 0.218209 0.0598065 -0.393588 0.527505 -0.752879 0 
0.154351 0.218433 0.0597791 -0.393588 0.527505 -0.752879 0 
0.154106 0.218543 0.0599122 -0.493502 0.631615 -0.597929 0 
0.154089 0.218894 0.0600407 -0.485247 0.63972 -0.596065 0 
0.153643 0.218897 0.0598933 -0.504157 0.628932 -0.591837 0 
0.154133 0.218139 0.0596192 -0.429772 0.508811 -0.745927 0 
0.153733 0.217975 0.0594677 -0.429324 0.468502 -0.772131 0 
0.153615 0.218125 0.0593517 -0.429324 0.468502 -0.772131 0 
0.153761 0.218453 0.0598007 -0.442537 0.528724 -0.724302 0 
0.153407 0.21866 0.0596531 -0.443644 0.509613 -0.737207 0 
0.153289 0.21886 0.0599464 -0.503088 0.590582 -0.630964 0 
0.153242 0.218195 0.0597338 -0.487287 0.49394 -0.720121 0 
0.153106 0.218452 0.0599468 -0.488995 0.51236 -0.705955 0 
0.152942 0.218231 0.0598269 -0.499747 0.483144 -0.718905 0 
0.154913 0.219558 0.063943 -0.415224 0.716304 -0.560801 0 
0.154705 0.220043 0.0638352 -0.41478 0.722146 -0.55359 0 
0.151864 0.212689 0.0617439 -0.195909 -0.322756 -0.925985 0 
0.151979 0.211511 0.0622533 0.967485 -0.0686602 -0.243432 0 
0.151734 0.211572 0.061977 -0.216087 -0.433665 -0.874781 0 
0.152281 0.211964 0.0617589 0.898782 -0.0812069 -0.43081 0 
0.151508 0.212163 0.0621983 0.106983 -0.35074 -0.930342 0 
0.151654 0.212391 0.0618287 -0.0537555 -0.357933 -0.932199 0 
0.15149 0.21217 0.0617087 0.0428041 -0.351512 -0.935204 0 
0.150859 0.210788 0.0623645 0.027953 -0.432605 -0.90115 0 
0.150586 0.21042 0.0621646 0.0873247 -0.439396 -0.894039 0 
0.151344 0.212286 0.0626963 0.0298394 -0.372343 -0.927615 0 
0.151016 0.211845 0.0624564 0.0914214 -0.391611 -0.915578 0 
0.150608 0.212223 0.0620682 0.254124 -0.318017 -0.913393 0 
0.15074 0.210744 0.0628584 -0.0897035 -0.418156 -0.903935 0 
0.150612 0.210164 0.0630995 -0.132493 -0.377954 -0.916295 0 
0.150887 0.211266 0.0626975 0.00129888 -0.424733 -0.905318 0 
0.150479 0.211399 0.0625099 0.155293 -0.403193 -0.901842 0 
0.150843 0.208053 0.0639176 -0.998516 0.0451485 0.030449 0 
0.150551 0.207792 0.0640468 -0.904054 -0.146181 -0.401644 0 
0.150332 0.207498 0.0638868 -0.904054 -0.146181 -0.401644 0 
0.15035 0.207147 0.0637583 -0.57513 0.294734 0.763123 0 
0.150525 0.208147 0.0639304 -0.998516 0.0451485 0.030449 0 
0.150745 0.20893 0.0636891 -0.0682402 -0.381342 -0.921912 0 
0.15027 0.208016 0.0640194 -0.940902 -0.0886644 -0.326867 0 
0.149806 0.208076 0.0637918 -0.933633 -0.11247 -0.340119 0 
0.150161 0.207819 0.0635301 -0.887422 -0.154397 -0.434332 0 
0.149642 0.207855 0.0636719 -0.923897 -0.128434 -0.360444 0 
0.149589 0.208614 0.0638486 -0.99011 0.121309 -0.0704746 0 
0.149371 0.20832 0.0636886 -0.872908 -0.0682177 -0.483092 0 
0.149814 0.20724 0.0638199 -0.563484 0.304888 0.767807 0 
0.141802 0.208912 0.0611919 -0.425318 0.51071 -0.747181 0 
0.141601 0.208561 0.0611122 -0.459723 0.566713 -0.683733 0 
0.141393 0.208801 0.061205 -0.452342 0.525247 -0.720765 0 
0.153783 0.215894 0.0594757 0.315996 -0.556602 -0.768336 0 
0.152502 0.216665 0.0603096 0.350223 -0.60108 -0.718364 0 
0.152691 0.215943 0.0601285 -0.354861 0.0114471 -0.934849 0 
0.152556 0.216444 0.0601409 0.350223 -0.60108 -0.718364 0 
0.15231 0.21631 0.0604746 0.347489 -0.605251 -0.716186 0 
0.153127 0.215649 0.0598224 -0.430052 0.0960311 -0.897682 0 
0.152582 0.215796 0.0600486 -0.289705 -0.0759672 -0.954096 0 
0.152363 0.215501 0.0598886 -0.372047 0.00126979 -0.928213 0 
0.15503 0.216659 0.0591153 -0.374403 0.390068 -0.841231 0 
0.15523 0.216422 0.0587777 -0.315159 0.342301 -0.885158 0 
0.154902 0.216324 0.0591558 -0.416738 0.400771 -0.815912 0 
0.15274 0.217635 0.0599478 0.346407 -0.59686 -0.723713 0 
0.152549 0.217281 0.0601128 0.317226 -0.594195 -0.739121 0 
0.153159 0.217399 0.0595615 0.369601 -0.60943 -0.70142 0 
0.152985 0.217231 0.0596061 0.343933 -0.607996 -0.715577 0 
0.153696 0.217795 0.0590986 -0.420363 0.433248 -0.79724 0 
0.153323 0.217864 0.0594808 -0.488623 0.472059 -0.733763 0 
0.153042 0.218088 0.0594535 -0.487006 0.467196 -0.737938 0 
0.152831 0.217545 0.0597389 0.354264 -0.612207 -0.706895 0 
0.152857 0.216652 0.0598472 0.309091 -0.562128 -0.767121 0 
0.152793 0.216926 0.0601804 0.305274 -0.570591 -0.762387 0 
0.152028 0.21286 0.0614546 -0.291374 -0.29723 -0.909261 0 
0.151921 0.213202 0.0609733 -0.1335 -0.306106 -0.942591 0 
0.151976 0.21352 0.0608126 0.146389 -0.405057 -0.902496 0 
0.151929 0.216921 0.0606201 0.358443 -0.633413 -0.685789 0 
0.152065 0.216664 0.0604071 0.3507 -0.614948 -0.706293 0 
0.151765 0.216701 0.0605001 0.355368 -0.623941 -0.695997 0 
0.15168 0.215416 0.0607291 -0.0771219 -0.317638 -0.945071 0 
0.15129 0.215787 0.0608304 -0.0319591 -0.333653 -0.942154 0 
0.151955 0.216273 0.0605277 0.347611 -0.608728 -0.713174 0 
0.151627 0.216125 0.0604964 0.361806 -0.620472 -0.695781 0 
0.1516 0.216236 0.0605808 0.361969 -0.627304 -0.689543 0 
0.1513 0.216322 0.0610832 -0.304777 -0.0630129 -0.950337 0 
0.15119 0.21588 0.0607945 -0.0579368 -0.310284 -0.948877 0 
0.151107 0.215379 0.0608309 -0.783536 0.499201 -0.369958 0 
0.150997 0.214987 0.0609515 -0.799491 0.592701 -0.0975699 0 
0.151133 0.21473 0.0607385 -0.800942 0.598277 -0.0235979 0 
0.15108 0.215489 0.0609152 -0.783536 0.499201 -0.369958 0 
0.150581 0.215712 0.0609365 -0.705813 0.482222 -0.518931 0 
0.150807 0.215171 0.0611246 -0.799491 0.592701 -0.0975699 0 
0.150371 0.215415 0.0610214 -0.68106 0.543844 -0.490296 0 
0.150363 0.216006 0.0611939 0.118964 -0.407276 -0.905524 0 
0.15018 0.215598 0.0611944 -0.385188 0.163456 -0.908247 0 
0.150034 0.21532 0.0611546 0.124408 -0.343146 -0.931007 0 
0.152395 0.217595 0.0602457 0.321023 -0.598491 -0.733998 0 
0.152249 0.217317 0.0602059 0.318125 -0.599108 -0.734756 0 
0.151021 0.213311 0.0612525 0.0854032 -0.316649 -0.94469 0 
0.150857 0.213384 0.0613412 0.108625 -0.323194 -0.940078 0 
0.150995 0.21396 0.0613448 0.02887 -0.302507 -0.95271 0 
0.150814 0.214334 0.0611526 0.121794 -0.348959 -0.92919 0 
0.15064 0.213923 0.0613979 0.116571 -0.314876 -0.941947 0 
0.150294 0.213832 0.0612864 0.181454 -0.336183 -0.924151 0 
0.150719 0.212859 0.0617469 0.193345 -0.328828 -0.924386 0 
0.150475 0.213457 0.0614786 0.197746 -0.337164 -0.920444 0 
0.150588 0.214876 0.0609646 0.127706 -0.352909 -0.926901 0 
0.150396 0.214521 0.0611296 0.139376 -0.34361 -0.928712 0 
0.150233 0.214839 0.0610177 0.130658 -0.347963 -0.928359 0 
0.150005 0.214598 0.0610223 0.156796 -0.337182 -0.92829 0 
0.149877 0.214264 0.0610628 0.318696 -0.45685 -0.830494 0 
0.149815 0.215026 0.0609947 0.165634 -0.33266 -0.928387 0 
0.149687 0.214692 0.0610352 0.324022 -0.482082 -0.814007 0 
0.149297 0.214768 0.0609278 0.186459 -0.318242 -0.929492 0 
0.149469 0.214397 0.0608752 0.281782 -0.448079 -0.848425 0 
0.149133 0.214548 0.0608078 0.231178 -0.384315 -0.893789 0 
0.14925 0.214103 0.0607152 0.280288 -0.463018 -0.840865 0 
0.149005 0.214213 0.0608483 0.239735 -0.40353 -0.883001 0 
0.148759 0.214323 0.0609814 0.237173 -0.3727 -0.897131 0 
0.147967 0.213747 0.0611238 0.225171 -0.322697 -0.919328 0 
0.148048 0.213416 0.0608708 0.229296 -0.36074 -0.904041 0 
0.147703 0.213375 0.0611687 0.229271 -0.330207 -0.915641 0 
0.147857 0.213061 0.0610358 0.226101 -0.335551 -0.914485 0 
0.147539 0.213155 0.0610487 0.239099 -0.334738 -0.911473 0 
0.148786 0.213919 0.0606883 0.247668 -0.415781 -0.875092 0 
0.14865 0.214176 0.0609014 0.245489 -0.388319 -0.888225 0 
0.148322 0.213784 0.0610708 0.248568 -0.385504 -0.888595 0 
0.14734 0.213586 0.0607763 0.217425 -0.261741 -0.940329 0 
0.147121 0.213292 0.0606164 0.214681 -0.236559 -0.947603 0 
0.147756 0.212567 0.0605827 0.244318 -0.346727 -0.905587 0 
0.14742 0.213011 0.060724 0.227938 -0.269889 -0.935523 0 
0.147119 0.212509 0.0608091 0.230461 -0.289843 -0.928913 0 
0.147173 0.211945 0.0600224 0.106899 0.296942 -0.948893 0 
0.147747 0.212276 0.0601293 0.241883 -0.32589 -0.913941 0 
0.147637 0.212129 0.0600493 0.214043 -0.0779462 -0.973709 0 
0.146928 0.212055 0.0601554 0.124429 0.158924 -0.979418 0 
0.146929 0.212937 0.0607814 0.21371 -0.232766 -0.948761 0 
0.146656 0.212569 0.0605815 0.209024 -0.269932 -0.939918 0 
0.14611 0.212521 0.0614175 0.209405 -0.296539 -0.93178 0 
0.14549 0.212162 0.0619248 0.237484 -0.320964 -0.916833 0 
0.146474 0.212455 0.0607906 0.207734 -0.285808 -0.9355 0 
0.146546 0.212178 0.0607021 0.213025 -0.300492 -0.929691 0 
0.146119 0.212124 0.060635 0.223223 -0.305688 -0.925595 0 
0.145628 0.212393 0.0613104 0.228493 -0.323339 -0.918283 0 
0.14571 0.212307 0.0608568 0.224194 -0.318441 -0.92105 0 
0.145428 0.212531 0.0608294 0.231029 -0.317127 -0.919813 0 
0.146731 0.213369 0.060509 0.191858 -0.181417 -0.96451 0 
0.146548 0.21296 0.0605095 0.200132 -0.218937 -0.954994 0 
0.146238 0.212412 0.0599405 0.209405 -0.296539 -0.93178 0 
0.146057 0.212543 0.059949 0.206908 -0.30262 -0.930382 0 
0.145947 0.212789 0.0608963 0.206367 -0.30183 -0.930758 0 
0.146036 0.211866 0.0604707 0.0996093 0.0032132 -0.995021 0 
0.145181 0.211514 0.0605372 0.0271418 0.0901108 -0.995562 0 
0.144936 0.211624 0.0606702 0.188094 -0.175122 -0.966413 0 
0.144526 0.211514 0.0606833 0.14154 -0.112506 -0.983519 0 
0.144552 0.210865 0.0605909 -0.281851 0.378313 -0.881725 0 
0.144289 0.211032 0.0606437 -0.132293 0.217063 -0.967152 0 
0.144662 0.211256 0.0604703 -0.170197 0.314104 -0.934009 0 
0.14551 0.2122 0.0605764 0.236464 -0.308119 -0.921492 0 
0.14521 0.212237 0.0606695 0.24335 -0.315348 -0.917244 0 
0.145346 0.21198 0.0604565 0.22595 -0.231427 -0.94625 0 
0.1451 0.212089 0.0605895 0.251363 -0.326918 -0.911011 0 
0.144388 0.2104 0.0606716 -0.376355 0.373232 -0.847971 0 
0.143979 0.210533 0.0604841 -0.44654 0.411075 -0.794745 0 
0.144008 0.211256 0.0606164 -0.0428055 0.0845134 -0.995502 0 
0.143132 0.210227 0.0612045 0.0267127 -0.177697 -0.983723 0 
0.143578 0.210175 0.0609425 -0.578507 0.341919 -0.740554 0 
0.143414 0.209954 0.0608226 -0.607019 0.3286 -0.723567 0 
0.143732 0.210105 0.0606091 -0.546328 0.358274 -0.757077 0 
0.142968 0.210007 0.0610846 -0.145405 -0.0593253 -0.987592 0 
0.143513 0.209566 0.0606498 -0.583289 0.423757 -0.692967 0 
0.143213 0.209603 0.0607429 -0.62256 0.4167 -0.662404 0 
0.142804 0.209786 0.0609646 -0.677788 0.427989 -0.597853 0 
0.142976 0.209415 0.060912 -0.578922 0.474884 -0.662823 0 
0.14264 0.209565 0.0608446 -0.58127 0.434704 -0.687864 0 
0.143349 0.209346 0.0605298 -0.579168 0.455657 -0.675974 0 
0.142367 0.209197 0.0606447 -0.550051 0.523137 -0.650978 0 
0.14313 0.209051 0.0603699 -0.539178 0.505584 -0.673552 0 
0.142885 0.209161 0.0605029 -0.584401 0.513667 -0.628189 0 
0.142485 0.209635 0.0611781 -0.549174 0.47239 -0.689388 0 
0.142285 0.209528 0.0608977 -0.557618 0.473892 -0.681534 0 
0.142076 0.209524 0.0611912 -0.49324 0.687192 0.533368 0 
0.142967 0.209075 0.0600493 -0.567537 0.437719 -0.697355 0 
0.142175 0.209137 0.0610184 -0.503436 0.567418 -0.651605 0 
0.142011 0.208916 0.0608985 -0.478207 0.605729 -0.635932 0 
0.14193 0.209247 0.0611515 -0.430211 0.452939 -0.780874 0 
0.14111 0.208487 0.0611696 -0.474884 0.578922 -0.662823 0 
0.140946 0.208266 0.0610497 -0.470437 0.58428 -0.661291 0 
0.140592 0.208523 0.0613114 -0.464658 0.602211 -0.64918 0 
0.139936 0.208278 0.0616582 -0.492711 0.693136 -0.526115 0 
0.140218 0.208298 0.0614849 -0.495814 0.696143 -0.519186 0 
0.140782 0.208045 0.0609297 -0.463647 0.6009 -0.651115 0 
0.140373 0.208228 0.0611514 -0.457439 0.604892 -0.651809 0 
0.140209 0.208008 0.0610315 -0.450327 0.614387 -0.647869 0 
0.140045 0.207787 0.0609115 -0.44308 0.616968 -0.650408 0 
0.139827 0.20813 0.0615782 -0.492711 0.693136 -0.526115 0 
0.140182 0.208118 0.0611158 -0.450327 0.614387 -0.647869 0 
0.139644 0.207722 0.0615787 -0.521483 0.842844 -0.132927 0 
0.139836 0.207783 0.061205 -0.500184 0.752735 -0.428026 0 
0.139226 0.207665 0.0617563 -0.455221 0.698672 0.551934 0 
0.139499 0.208033 0.0619563 -0.5046 0.729602 -0.461585 0 
0.138431 0.206355 0.0625008 -0.437456 0.523297 0.731295 0 
0.139672 0.207562 0.061085 -0.518584 0.85422 0.03714 0 
0.139426 0.207672 0.0612181 -0.501122 0.832138 0.237535 0 
0.139416 0.207138 0.0609653 -0.430814 0.673666 0.600478 0 
0.139226 0.207566 0.0609377 -0.430814 0.673666 0.600478 0 
0.139062 0.207444 0.0616364 -0.430814 0.600478 0.673666 0 
0.138352 0.206782 0.0613252 -0.450899 0.557384 0.697146 0 
0.138051 0.206574 0.0616189 -0.474707 0.629029 0.61561 0 
0.138662 0.20723 0.0610756 -0.438546 0.585284 0.681997 0 
0.137693 0.205166 0.0614473 -0.428175 0.319185 0.845451 0 
0.138222 0.205958 0.061767 -0.464544 0.541136 0.700979 0 
0.137887 0.206353 0.0614989 -0.482183 0.656911 0.579627 0 
0.137723 0.206132 0.061379 -0.487973 0.662369 0.568463 0 
0.137641 0.206218 0.0618327 -0.488385 0.652858 0.579013 0 
0.137459 0.206055 0.0616325 -0.488903 0.663631 0.566187 0 
0.137505 0.206082 0.0610184 -0.488903 0.663631 0.566187 0 
0.137804 0.205801 0.061126 -0.487973 0.662369 0.568463 0 
0.138818 0.207699 0.0607501 -0.430814 0.600478 0.673666 0 
0.137341 0.205862 0.0608984 -0.469049 0.369796 0.802025 0 
0.13694 0.205846 0.0619749 -0.457653 0.346803 0.818708 0 
0.137241 0.206005 0.0612719 -0.438044 0.319569 0.840234 0 
0.13685 0.206082 0.0611645 -0.509784 0.395774 0.763861 0 
0.136531 0.205686 0.0615787 -0.492223 0.357543 0.793649 0 
0.136987 0.206069 0.0607509 -0.49551 0.369615 0.786037 0 
0.136578 0.206203 0.0605633 -0.536112 0.395116 0.745967 0 
0.137481 0.203791 0.0615161 -0.522591 0.385838 0.760281 0 
0.137211 0.204794 0.0615409 -0.490471 0.361823 0.792794 0 
0.137091 0.203867 0.0614088 -0.526882 0.38986 0.755252 0 
0.136287 0.205941 0.0606924 -0.548768 0.384957 0.742066 0 
0.136169 0.206092 0.0605764 -0.552388 0.385197 0.73925 0 
0.136276 0.204868 0.0604317 -0.562489 0.388659 0.72976 0 
0.136197 0.205932 0.0600827 -0.569065 0.423066 0.70511 0 
0.135961 0.205939 0.0596419 -0.57486 0.422448 0.700766 0 
0.135935 0.206588 0.0597343 -0.571302 0.422267 0.703778 0 
0.135718 0.206782 0.059173 -0.581947 0.422782 0.694689 0 
0.13558 0.206551 0.0597873 -0.585759 0.416503 0.695278 0 
0.135272 0.206785 0.0590257 -0.60486 0.41263 0.681088 0 
0.135087 0.2054 0.0598288 -0.648145 0.300752 0.699611 0 
0.135198 0.20628 0.0593068 -0.619093 0.354468 0.700768 0 
0.134918 0.206748 0.0590787 -0.603203 0.354729 0.714362 0 
0.1347 0.206698 0.0587182 -0.495489 0.552596 0.67017 0 
0.134618 0.206785 0.0591718 -0.589778 0.40475 0.698813 0 
0.134256 0.20719 0.0581695 -0.427459 0.583805 0.690254 0 
0.133901 0.207153 0.0582226 -0.493809 0.454172 0.741539 0 
0.1347 0.206305 0.0576909 -0.373945 0.670465 0.640813 0 
0.134478 0.205476 0.0597701 -0.697182 0.179275 0.694117 0 
0.134646 0.20677 0.0576589 -0.427459 0.583805 0.690254 0 
0.134429 0.20672 0.0572983 -0.46499 0.491467 0.736373 0 
0.133528 0.206929 0.0583961 -0.511971 0.366616 0.776839 0 
0.133683 0.207103 0.057862 -0.528932 0.263686 0.80666 0 
0.133274 0.206993 0.0578751 -0.542951 0.18905 0.818208 0 
0.134238 0.20651 0.056444 -0.498092 0.314667 0.808015 0 
0.134293 0.206928 0.057102 -0.489612 0.430662 0.758162 0 
0.133628 0.206392 0.0569954 -0.541897 0.105489 0.833798 0 
0.131484 0.206959 0.0566317 0.0662532 -0.966296 -0.248762 0 
0.131503 0.207196 0.0569206 0.0662532 -0.966296 -0.248762 0 
0.130939 0.207106 0.0568578 0.479953 0.219537 -0.849381 0 
0.130776 0.207129 0.0565372 0.476973 0.225616 -0.849467 0 
0.13064 0.207043 0.0561322 0.485959 0.20311 -0.850053 0 
0.130223 0.207474 0.0559086 0.50238 0.203668 -0.840318 0 
0.130476 0.206822 0.0560123 0.492737 0.206437 -0.845337 0 
0.130041 0.20731 0.0557084 0.141181 -0.980898 -0.133815 0 
0.129904 0.206979 0.0555041 0.565116 0.190403 -0.802739 0 
0.129931 0.207213 0.0560378 0.551929 0.0936694 -0.828614 0 
0.129623 0.207448 0.0552761 0.609742 0.0916796 -0.78728 0 
0.12933 0.206648 0.0553972 0.602389 0.0583876 -0.796064 0 
0.129405 0.207398 0.0549155 0.594062 0.0493876 -0.802901 0 
0.12875 0.207103 0.0548529 0.578659 -0.00136155 -0.815569 0 
0.128514 0.20711 0.0544122 0.578126 -0.00410019 -0.815937 0 
0.128215 0.207391 0.0543045 0.578126 -0.00410019 -0.815937 0 
0.128015 0.207284 0.0540242 0.587785 -0.0321118 -0.808379 0 
0.127769 0.20715 0.0543578 0.588999 -0.0377743 -0.80725 0 
0.127887 0.206949 0.0540646 0.588999 -0.0377743 -0.80725 0 
0.127478 0.206839 0.0540777 0.590937 -0.0321313 -0.806077 0 
0.127278 0.206732 0.0537973 0.592802 -0.0292914 -0.804816 0 
0.127115 0.206756 0.0534767 0.605505 -0.0437545 -0.794638 0 
0.126896 0.206461 0.0533168 0.615717 -0.0674562 -0.785075 0 
0.126597 0.206742 0.0532092 0.603025 -0.0524986 -0.795993 0 
0.127741 0.20569 0.0525803 0.613176 -0.0614605 -0.787552 0 
0.126469 0.206408 0.0532496 0.603025 -0.0524986 -0.795993 0 
0.12625 0.206113 0.0530897 0.596016 -0.0583214 -0.800852 0 
0.125966 0.204966 0.0528376 0.601613 -0.0671635 -0.795959 0 
0.126104 0.205836 0.05305 0.600467 -0.0613303 -0.797294 0 
0.125667 0.205247 0.05273 0.601613 -0.0671635 -0.795959 0 
0.125841 0.206247 0.0529021 0.591469 -0.058154 -0.804228 0 
0.125703 0.205427 0.0530991 0.601613 -0.0671635 -0.795959 0 
0.125422 0.205651 0.0530718 0.601613 -0.0671635 -0.795959 0 
0.125158 0.205524 0.0529159 0.577038 -0.0291995 -0.816195 0 
0.126115 0.206859 0.0529014 0.596016 -0.0583214 -0.800852 0 
0.125915 0.206508 0.0528217 0.600467 -0.0613303 -0.797294 0 
0.125487 0.206454 0.0527546 0.601613 -0.0671635 -0.795959 0 
0.125288 0.206347 0.0524742 0.580151 -0.0319987 -0.81388 0 
0.125503 0.205271 0.0524094 0.577038 -0.0291995 -0.816195 0 
0.125205 0.205796 0.0521012 0.592802 -0.0292914 -0.804816 0 
0.124642 0.205999 0.0522471 0.605505 -0.0437545 -0.794638 0 
0.124934 0.206161 0.0512993 0.615646 -0.0526072 -0.786264 0 
0.12458 0.206418 0.0515611 0.617497 -0.0496837 -0.785002 0 
0.12477 0.205941 0.0511793 0.619249 -0.0495966 -0.783627 0 
0.124361 0.206124 0.0514011 0.619249 -0.0495966 -0.783627 0 
0.124179 0.206304 0.0518189 0.619249 -0.0495966 -0.783627 0 
0.123961 0.206254 0.0514583 0.634031 -0.0736574 -0.769792 0 
0.124397 0.20596 0.0511522 0.634031 -0.0736574 -0.769792 0 
0.124179 0.205666 0.0509923 0.63343 -0.0797223 -0.769682 0 
0.124125 0.205837 0.0507516 0.629351 -0.0585111 -0.774915 0 
0.124225 0.205694 0.0503781 0.626334 -0.0556424 -0.777567 0 
0.123743 0.206204 0.0510977 0.629351 -0.0585111 -0.774915 0 
0.122969 0.205571 0.0513204 0.643985 -0.113993 -0.756498 0 
0.122787 0.205407 0.0511203 0.642758 -0.11082 -0.758011 0 
0.122023 0.204866 0.0501591 0.610625 -0.0704015 -0.788784 0 
0.121879 0.205027 0.0493088 0.573049 0.0492794 -0.818038 0 
0.122178 0.204747 0.0494163 0.578246 0.0348341 -0.815118 0 
0.121698 0.205108 0.0489079 0.552758 0.0904513 -0.828419 0 
0.121671 0.205119 0.0481736 0.564822 0.040444 -0.824221 0 
0.122015 0.205458 0.0503317 0.610625 -0.0704015 -0.788784 0 
0.12196 0.20509 0.050083 0.610625 -0.0704015 -0.788784 0 
0.12178 0.205415 0.0494815 0.573049 0.0492794 -0.818038 0 
0.121506 0.205047 0.0492816 0.552758 0.0904513 -0.828419 0 
0.12128 0.205589 0.0490936 0.563024 0.0638189 -0.823973 0 
0.121152 0.205255 0.049134 0.564238 0.0667989 -0.822906 0 
0.120934 0.205205 0.0487735 0.564822 0.040444 -0.824221 0 
0.120735 0.205098 0.0484931 0.567546 0.0178646 -0.823148 0 
0.120416 0.205241 0.0489152 0.580102 -0.0179129 -0.814347 0 
0.120144 0.205117 0.0485146 0.111943 0.913511 -0.39111 0 
0.119998 0.205084 0.0482742 -0.00120952 0.961569 -0.274561 0 
0.119534 0.2049 0.0482473 0.59622 -0.00963866 -0.802763 0 
0.118798 0.204592 0.0478199 0.59622 -0.00963866 -0.802763 0 
0.118033 0.203806 0.0470594 0.616984 -0.0704714 -0.783814 0 
0.114048 0.195835 0.0429164 0.399794 0.788258 0.467775 0 
0.114039 0.196133 0.0428804 0.131487 0.414254 0.900614 0 
0.11352 0.195925 0.0432227 0.368545 0.793418 0.48442 0 
0.113694 0.196042 0.0427689 0.0212089 0.305658 0.951905 0 
0.11429 0.194748 0.043586 0.72278 0.643701 0.251471 0 
0.114091 0.194885 0.043105 0.677746 0.684125 0.269504 0 
0.114292 0.195187 0.0427754 0.677746 0.684125 0.269504 0 
0.114365 0.195104 0.0420769 0.677746 0.684125 0.269504 0 
0.114238 0.195358 0.0425347 0.440147 0.784468 0.436898 0 
0.113436 0.195228 0.0438691 0.399794 0.788258 0.467775 0 
0.113446 0.195419 0.0435039 0.368545 0.793418 0.48442 0 
0.11342 0.195675 0.0425689 0.368545 0.793418 0.48442 0 
0.11157 0.199497 0.0468192 -0.274869 0.952082 0.134115 0 
0.111317 0.200149 0.0467155 -0.356527 0.929662 0.0928316 0 
0.111371 0.200272 0.0471648 -0.274869 0.952082 0.134115 0 
0.111189 0.200108 0.0469646 -0.274869 0.952082 0.134115 0 
0.11118 0.200062 0.0463106 -0.380005 0.924722 0.0220481 0 
0.111536 0.20005 0.0458482 -0.409578 0.912064 -0.0196283 0 
0.110935 0.200172 0.0464436 -0.31592 0.939626 0.13152 0 
0.116917 0.203961 0.0455494 -0.051692 0.839645 -0.54067 0 
0.115743 0.203065 0.044802 -0.308134 0.833681 -0.45829 0 
0.115516 0.203118 0.0450152 -0.320807 0.837227 -0.44287 0 
0.115597 0.202787 0.0447622 -0.313869 0.855022 -0.412823 0 
0.115415 0.202624 0.0445621 -0.308554 0.873982 -0.375432 0 
0.115442 0.202857 0.0450957 -0.327084 0.851038 -0.410792 0 
0.115224 0.202563 0.0449358 -0.350729 0.860598 -0.369269 0 
0.115006 0.202513 0.0445752 -0.362626 0.878497 -0.311039 0 
0.116127 0.203775 0.0444719 -0.324515 0.815246 -0.47965 0 
0.11645 0.200688 0.0422079 -0.210408 0.887245 -0.410517 0 
0.116305 0.200555 0.0411489 -0.0222319 0.916739 -0.398867 0 
0.115196 0.202085 0.0446028 -0.381213 0.881461 -0.278753 0 
0.115633 0.201642 0.0430687 -0.304967 0.897048 -0.319843 0 
0.115515 0.201793 0.0429526 -0.304967 0.897048 -0.319843 0 
0.115252 0.202254 0.0432141 -0.304967 0.897048 -0.319843 0 
0.115769 0.201091 0.042647 -0.292682 0.895875 -0.334282 0 
0.115433 0.201242 0.0425797 -0.292151 0.905815 -0.306832 0 
0.115469 0.201422 0.0429488 -0.304967 0.897048 -0.319843 0 
0.115442 0.201532 0.0430331 -0.319552 0.896232 -0.307662 0 
0.115241 0.201181 0.0429534 -0.33576 0.904646 -0.26245 0 
0.114814 0.201421 0.0430949 -0.386185 0.907747 -0.163879 0 
0.114979 0.201886 0.0430142 -0.33576 0.904646 -0.26245 0 
0.115223 0.201925 0.0441091 -0.375552 0.88726 -0.267824 0 
0.115087 0.202182 0.0443221 -0.385218 0.887934 -0.251358 0 
0.115023 0.201818 0.0438287 -0.390497 0.896533 -0.209142 0 
0.114642 0.202185 0.0441748 -0.395332 0.901358 -0.176821 0 
0.114842 0.202292 0.0444552 -0.398057 0.891588 -0.21592 0 
0.114641 0.201548 0.0433482 -0.388893 0.911162 -0.136183 0 
0.114123 0.201927 0.0441079 -0.380155 0.911524 -0.156867 0 
0.113905 0.201877 0.0437473 -0.374167 0.913533 -0.159551 0 
0.114166 0.200683 0.0440878 -0.391429 0.908625 -0.14555 0 
0.11403 0.20094 0.0443008 -0.368849 0.924164 -0.0993578 0 
0.11383 0.200834 0.0440204 -0.391429 0.908625 -0.14555 0 
0.114977 0.200465 0.0423802 -0.329941 0.795366 -0.50846 0 
0.114786 0.200943 0.0427619 -0.379754 0.893974 -0.237901 0 
0.114859 0.20091 0.0424728 -0.376294 0.890909 -0.254333 0 
0.115251 0.201078 0.0423795 -0.308058 0.88811 -0.341118 0 
0.115087 0.200857 0.0422596 -0.316826 0.887412 -0.334844 0 
0.115324 0.200995 0.0416811 -0.22358 0.886915 -0.40422 0 
0.114513 0.201213 0.0433886 -0.382 0.913721 -0.138527 0 
0.114067 0.200972 0.043442 -0.373795 0.903217 -0.210896 0 
0.113714 0.201523 0.0439124 -0.368849 0.924164 -0.0993578 0 
0.113996 0.20115 0.0427118 -0.386829 0.890744 -0.238619 0 
0.113412 0.200333 0.0427615 -0.388868 0.726871 -0.566074 0 
0.113468 0.200896 0.0424002 -0.389603 0.869349 -0.304043 0 
0.113223 0.200712 0.0423245 -0.395082 0.853687 -0.339306 0 
0.113423 0.201112 0.0428136 -0.400511 0.880525 -0.253507 0 
0.113096 0.201259 0.042991 -0.393818 0.907617 -0.145388 0 
0.11285 0.201369 0.0431241 -0.385788 0.919124 -0.079865 0 
0.112933 0.201283 0.0426704 -0.395512 0.905849 -0.151684 0 
0.113069 0.201026 0.0424574 -0.386576 0.895152 -0.221951 0 
0.11265 0.201262 0.0428436 -0.401294 0.907456 -0.124443 0 
0.112496 0.201233 0.0423585 -0.384749 0.903512 -0.188772 0 
0.113043 0.201331 0.0419317 -0.356045 0.913705 -0.195896 0 
0.112989 0.201452 0.0412817 -0.337182 0.92829 -0.156796 0 
0.11385 0.196168 0.0418254 0.0212089 0.305658 0.951905 0 
0.113014 0.200608 0.0417994 -0.358449 0.893891 -0.269208 0 
0.112986 0.200768 0.042293 -0.380351 0.877383 -0.292461 0 
0.112931 0.200057 0.0414264 -0.174976 0.777502 -0.604048 0 
0.113495 0.19618 0.0422878 0.0836628 0.341291 0.936227 0 
0.113113 0.196498 0.0422246 -0.134593 0.15188 0.979192 0 
0.113415 0.197244 0.0419389 -0.313696 -0.0393707 0.948707 0 
0.113279 0.196863 0.0413253 -0.272278 0.219218 0.936914 0 
0.11298 0.197144 0.0412177 -0.531944 -0.0232469 0.846461 0 
0.113634 0.200574 0.0402649 0.0209709 0.761944 -0.647303 0 
0.113206 0.20062 0.0410164 -0.255383 0.899006 -0.355764 0 
0.112579 0.201391 0.0417042 -0.345416 0.928907 -0.133487 0 
0.111861 0.201026 0.0413569 -0.384533 0.913092 -0.135635 0 
0.112362 0.201585 0.0411429 -0.345402 0.935628 -0.0727858 0 
0.112714 0.200251 0.0408652 -0.281366 0.894715 -0.346869 0 
0.110667 0.199404 0.040722 0.294212 -0.9305 0.218196 0 
0.110749 0.199317 0.0402683 0.346453 -0.925266 0.154443 0 
0.114531 0.195764 0.0413863 0.677746 0.684125 0.269504 0 
0.113504 0.196077 0.0417139 0.242697 0.599696 0.762537 0 
0.113168 0.195933 0.0414379 0.261858 0.677656 0.687178 0 
0.112959 0.196174 0.0415307 0.167981 0.591716 0.788451 0 
0.111999 0.197779 0.0411399 -0.669836 -0.268889 0.692111 0 
0.11047 0.197288 0.0418822 -0.687277 -0.530089 0.496645 0 
0.110466 0.198659 0.0396149 -0.57739 -0.496589 0.64809 0 
0.110067 0.199083 0.0398808 0.311606 -0.934818 0.170345 0 
0.109712 0.198458 0.0395166 0.14773 -0.988305 0.0377915 0 
0.109931 0.198703 0.0392672 0.341987 -0.939511 0.0190699 0 
0.111539 0.197686 0.0374372 -0.0642556 -0.996506 -0.0533648 0 
0.110578 0.198509 0.037239 0.196105 -0.980527 0.0104435 0 
0.110195 0.198387 0.0379864 0.264333 -0.964394 0.00844901 0 
0.110204 0.198284 0.0374125 0.290796 -0.954373 0.067895 0 
0.109742 0.198638 0.0373937 0.379269 -0.921853 0.079633 0 
0.10875 0.198543 0.0376731 0.4195 -0.901717 0.104527 0 
0.109087 0.198637 0.0375398 0.407139 -0.905219 0.121722 0 
0.109051 0.198457 0.0371707 0.416659 -0.905722 0.0778675 0 
