0.117586 0.210405 0.0185698 0.546305 -0.610576 -0.573366 2 
0.117483 0.21195 0.0183941 -0.025044 0.41784 -0.908175 2 
0.11875 0.211572 0.0181417 -0.0609519 0.418537 -0.906152 2 
0.119162 0.211243 0.0182483 -0.0609519 0.418537 -0.906152 2 
0.118949 0.211448 0.018299 -0.0609519 0.418537 -0.906152 2 
0.119145 0.210987 0.0174333 -0.0197553 0.425397 -0.904791 2 
0.119293 0.210508 0.0176293 0.0609486 0.320304 -0.945352 2 
0.119273 0.210932 0.0176075 -0.0671082 0.442367 -0.89432 2 
0.119715 0.210609 0.0178096 -0.0755538 0.435465 -0.89703 2 
0.119675 0.209803 0.0173514 0.143698 0.246527 -0.958423 2 
0.119591 0.210154 0.0173538 0.129945 0.29338 -0.947123 2 
0.119819 0.209835 0.0178292 0.093376 0.131199 -0.986949 2 
0.119677 0.210173 0.0176404 0.0369225 0.322117 -0.94598 2 
0.119649 0.209563 0.0182126 0.534595 -0.494375 -0.685421 2 
0.119282 0.210758 0.0183489 -0.00864594 0.305078 -0.952288 2 
0.119608 0.210409 0.0181688 -0.00864594 0.305078 -0.952288 2 
0.119346 0.211434 0.017657 -0.0665857 0.41718 -0.906381 2 
0.119646 0.211248 0.0178929 -0.0117984 0.42343 -0.905852 2 
0.119835 0.209276 0.0166054 0.24909 0.194644 -0.948719 2 
0.119651 0.209488 0.0167517 0.284968 0.149912 -0.946742 2 
0.119737 0.209507 0.0170383 0.278044 0.0622106 -0.958552 2 
0.119922 0.209295 0.0168921 0.175101 0.236586 -0.955702 2 
0.119908 0.209175 0.0173226 0.463734 -0.322256 -0.825289 2 
0.120057 0.208897 0.0172961 0.546923 -0.443855 -0.709836 2 
0.119995 0.209194 0.0176093 0.551016 -0.447804 -0.704168 2 
0.120215 0.208848 0.0175659 0.558219 -0.448242 -0.698191 2 
0.119882 0.209538 0.017516 0.284052 -0.0649626 -0.956606 2 
0.119968 0.209557 0.0178027 0.241339 -0.16667 -0.956021 2 
0.119862 0.209358 0.0181619 0.544003 -0.480396 -0.687954 2 
0.121721 0.19972 0.0247267 0.882068 0.421088 -0.211283 2 
0.121876 0.199502 0.0244849 0.90581 0.389427 -0.166897 2 
0.12206 0.199291 0.0243387 0.937605 0.347308 0.0165385 2 
0.122147 0.19931 0.0246253 0.921057 0.360898 -0.14631 2 
0.121963 0.199521 0.0247716 0.901945 0.386548 -0.19255 2 
0.122 0.199957 0.0249408 0.865927 0.415463 -0.278497 2 
0.122233 0.199329 0.024912 0.897732 0.379303 -0.224067 2 
0.122652 0.199261 0.0245807 0.933801 0.335733 -0.123691 2 
0.122386 0.19979 0.0254634 0.855072 0.400477 -0.329349 2 
0.122883 0.199311 0.0253451 0.889409 0.366227 -0.273549 2 
0.122428 0.199916 0.0251284 0.869342 0.39737 -0.293841 2 
0.122279 0.200194 0.0251549 0.858021 0.414377 -0.303465 2 
0.122741 0.199649 0.0251563 0.879022 0.384478 -0.281951 2 
0.122932 0.199498 0.0247948 0.912489 0.352063 -0.208364 2 
0.123045 0.199355 0.0246655 0.933801 0.335733 -0.123691 2 
0.123131 0.199374 0.0249521 0.912489 0.352063 -0.208364 2 
0.122366 0.200213 0.0254415 0.839781 0.4238 -0.339353 2 
0.122375 0.200643 0.0255152 0.842217 0.426578 -0.329699 2 
0.128926 0.197212 0.0367433 -0.0201513 0.877255 0.479602 2 
0.129204 0.197079 0.0366684 0.0666739 0.904861 0.420454 2 
0.129609 0.197092 0.0365452 0.0865323 0.905156 0.416179 2 
0.129512 0.197323 0.0369781 0.0390094 0.897216 0.439865 2 
0.129356 0.19754 0.0372199 -0.0425605 0.869057 0.492878 2 
0.129725 0.197117 0.0369274 0.0589201 0.889282 0.453548 2 
0.12998 0.196838 0.0367642 0.0647708 0.88612 0.458908 2 
0.129984 0.197174 0.0377873 0.136815 0.90411 0.404804 2 
0.129762 0.197553 0.0370966 0.0763016 0.886486 0.456422 2 
0.129757 0.198265 0.0371557 0.11136 0.966397 0.231679 2 
0.129891 0.197699 0.0370482 0.0763016 0.886486 0.456422 2 
0.130124 0.19707 0.0370194 0.0675147 0.885958 0.458824 2 
0.129975 0.197348 0.0370459 0.0589201 0.889282 0.453548 2 
0.130275 0.197162 0.0372819 0.0929177 0.900054 0.425757 2 
0.130148 0.19799 0.0369515 0.081517 0.893924 0.440744 2 
0.129964 0.197598 0.0377654 0.104367 0.928458 0.356474 2 
0.130026 0.197301 0.0374523 0.0948946 0.909063 0.405709 2 
0.130297 0.197108 0.0375927 0.149127 0.904703 0.399092 2 
0.130193 0.196834 0.036491 0.0616522 0.891902 0.448006 2 
0.130414 0.196857 0.0367365 0.0524723 0.905484 0.421124 2 
0.130558 0.19709 0.0369917 0.0497959 0.903055 0.426629 2 
0.130743 0.196878 0.0368455 0.0524723 0.905484 0.421124 2 
0.130922 0.196976 0.0372035 0.0497959 0.903055 0.426629 2 
0.130645 0.196908 0.0375009 0.15196 0.878472 0.452985 2 
0.121121 0.206075 0.0385122 0.546578 0.212813 0.809915 2 
0.123659 0.203961 0.0364211 0.711276 0.572652 0.407622 2 
0.12402 0.204685 0.0350085 -0.290129 -0.0185189 0.956808 2 
0.121638 0.204771 0.0388609 0.779888 0.47831 0.403726 2 
0.122088 0.204676 0.0393593 0.140982 0.562444 0.814728 2 
0.122798 0.203992 0.0391904 -0.836384 0.32361 0.442424 2 
0.123388 0.203392 0.039366 -0.721958 0.38647 0.573949 2 
0.122168 0.204794 0.0374437 0.741998 0.412952 0.528118 2 
0.122631 0.205423 0.0368438 0.364291 0.184288 0.912869 2 
0.122128 0.20564 0.0373999 0.521017 0.184683 0.833327 2 
0.12217 0.205163 0.0377326 -0.279273 0.225945 0.93325 2 
0.122439 0.204601 0.0375841 0.790386 0.431561 0.434793 2 
0.12282 0.204298 0.036861 0.71123 0.548758 0.439338 2 
0.122936 0.204324 0.0372432 0.764261 0.486051 0.423862 2 
0.123426 0.203986 0.0371177 0.732627 0.548235 0.403356 2 
0.122853 0.205044 0.0375345 0.133482 0.262999 0.955518 2 
0.122845 0.204614 0.0374608 0.817083 0.371112 0.441193 2 
0.123086 0.204415 0.0375057 0.618773 0.500751 0.605284 2 
0.123428 0.204356 0.0374066 0.258166 0.499326 0.827057 2 
0.123483 0.203999 0.0373087 0.655262 0.520504 0.547455 2 
0.123579 0.204447 0.0376691 0.310961 0.457847 0.832875 2 
0.123727 0.204169 0.0376426 0.316692 0.523575 0.790933 2 
0.123878 0.204261 0.037905 0.316692 0.523575 0.790933 2 
0.122939 0.205666 0.0371534 0.17698 0.200578 0.963559 2 
0.123638 0.205433 0.0374814 0.032792 0.23926 0.970402 2 
0.123751 0.205089 0.0375746 -0.00120871 0.276796 0.960928 2 
0.124343 0.20526 0.0375941 -0.0414889 0.287908 0.956759 2 
0.122068 0.205703 0.0386698 -0.743479 0.142688 0.65336 2 
0.121831 0.204989 0.0387884 0.762028 0.504211 0.406306 2 
0.122281 0.205498 0.0386191 -0.279827 0.229205 0.932288 2 
0.122764 0.2051 0.0387088 -0.885552 0.195321 0.421482 2 
0.122824 0.205884 0.0387437 0.249266 0.218969 0.943355 2 
0.122968 0.206117 0.0389989 0.10651 0.201743 0.97363 2 
0.122991 0.20421 0.0391178 0.426779 0.569592 0.702442 2 
0.123536 0.205369 0.0390863 0.163731 0.342855 0.925009 2 
0.12435 0.204716 0.0380465 -0.07403 0.305212 0.949403 2 
0.124922 0.20531 0.0380441 -0.0737815 0.299009 0.951394 2 
0.123745 0.20398 0.0367077 0.617045 0.573091 0.53928 2 
0.123974 0.203862 0.0369606 0.617045 0.573091 0.53928 2 
0.123852 0.203576 0.0370163 0.732627 0.548235 0.403356 2 
0.124091 0.203209 0.0365496 0.748471 0.570649 0.337863 2 
0.124335 0.203379 0.0368834 0.773077 0.530986 0.346997 2 
0.124102 0.203404 0.0375799 0.0432316 0.556432 0.829767 2 
0.124315 0.203199 0.0375293 0.816163 0.464341 0.343898 2 
0.124118 0.203894 0.0374383 0.351975 0.549859 0.757475 2 
0.12418 0.203597 0.0371252 0.599591 0.575945 0.555677 2 
0.124011 0.203695 0.0377975 0.655262 0.520504 0.547455 2 
0.124335 0.203178 0.037106 0.816163 0.464341 0.343898 2 
0.124062 0.203647 0.0382039 0.470174 0.57726 0.667613 2 
0.124118 0.203291 0.0381061 0.296815 0.630531 0.717169 2 
0.124333 0.203455 0.0383443 0.0766637 0.649472 0.756511 2 
0.124402 0.203017 0.0380385 0.193059 0.671844 0.71509 2 
0.124546 0.20325 0.0382936 -0.440006 0.559554 0.702349 2 
0.124377 0.203951 0.0382983 -0.445135 0.477986 0.757222 2 
0.124612 0.203692 0.0385584 -0.373783 0.5468 0.749197 2 
0.12381 0.203492 0.0395463 -0.055566 0.631173 0.77365 2 
0.124145 0.203372 0.0396625 -0.943272 -0.331962 -0.00626343 2 
0.124661 0.203074 0.0388984 -0.615208 0.412902 0.671588 2 
0.124743 0.204207 0.038799 -0.439456 0.468862 0.76619 2 
0.124878 0.203809 0.0392031 -0.580659 0.364752 0.727868 2 
0.124849 0.204406 0.0384398 -0.245753 0.465557 0.850213 2 
0.125149 0.20422 0.0386758 -0.266547 0.519065 0.812111 2 
0.124366 0.203597 0.0396855 -0.635107 0.387663 0.668099 2 
0.161686 0.214138 0.0816313 -0.398607 -0.200034 0.895041 1 
0.161737 0.214493 0.0815925 -0.41512 -0.211253 0.8849 1 
0.161487 0.213859 0.0819191 -0.415945 -0.214634 0.883698 1 
0.161758 0.213466 0.0822821 -0.385753 -0.189265 0.90298 1 
0.162292 0.213624 0.0821104 -0.348201 -0.218167 0.911679 1 
0.162157 0.213419 0.0823741 -0.35819 -0.186944 0.914741 1 
0.16252 0.213305 0.0825859 -0.334427 -0.216732 0.917162 1 
0.162684 0.213718 0.0821952 -0.332773 -0.229052 0.914766 1 
0.162742 0.21353 0.0826089 -0.332773 -0.229052 0.914766 1 
0.160805 0.214909 0.0795434 -0.532378 -0.442819 0.721447 1 
0.160985 0.215007 0.0799014 -0.484237 -0.317041 0.815475 1 
0.161007 0.214953 0.0802123 -0.434829 -0.239231 0.868154 1 
0.161384 0.21496 0.0799935 -0.380394 -0.195259 0.903977 1 
0.161484 0.214898 0.0800721 -0.369736 -0.168577 0.913716 1 
0.161471 0.214979 0.0802801 -0.369736 -0.168577 0.913716 1 
0.162018 0.214855 0.0801231 -0.368838 -0.175163 0.91284 1 
0.161158 0.215045 0.0804747 -0.42605 -0.231711 0.874523 1 
0.161437 0.215282 0.0806888 -0.397568 -0.199512 0.89562 1 
0.161777 0.214853 0.0803008 -0.373042 -0.17866 0.910451 1 
0.161621 0.215071 0.0805426 -0.369736 -0.168577 0.913716 1 
0.161992 0.215017 0.0805391 -0.368838 -0.175163 0.91284 1 
0.162176 0.214806 0.0803928 -0.327118 -0.138238 0.934818 1 
0.161865 0.215241 0.0808764 -0.378929 -0.17874 0.908 1 
0.161936 0.215173 0.0808595 -0.368838 -0.175163 0.91284 1 
0.16222 0.2149 0.0807919 -0.360113 -0.180768 0.915228 1 
0.16258 0.214449 0.0799806 -0.316093 -0.17963 0.931568 1 
0.162418 0.214607 0.0804377 -0.340064 -0.169332 0.925031 1 
0.16293 0.214216 0.0806229 -0.332773 -0.229052 0.914766 1 
0.162717 0.214421 0.0806736 -0.332773 -0.229052 0.914766 1 
0.162568 0.214699 0.0807001 -0.334427 -0.216732 0.917162 1 
0.161923 0.215254 0.0810675 -0.378929 -0.17874 0.908 1 
0.161916 0.214993 0.0815054 -0.397265 -0.212559 0.892748 1 
0.162147 0.215647 0.081602 -0.402921 -0.203658 0.892288 1 
0.162229 0.215128 0.0810882 -0.360113 -0.180768 0.915228 1 
0.162413 0.214916 0.0809419 -0.365239 -0.177645 0.913807 1 
0.162657 0.215087 0.0812757 -0.348201 -0.218167 0.911679 1 
0.162501 0.215305 0.0815175 -0.379401 -0.19475 0.904504 1 
0.162714 0.2151 0.0814668 -0.348201 -0.218167 0.911679 1 
0.162988 0.214228 0.080814 -0.332773 -0.229052 0.914766 1 
0.163201 0.214023 0.0807633 -0.32589 -0.241883 0.913941 1 
0.163529 0.213843 0.0810948 -0.32589 -0.241883 0.913941 1 
0.162783 0.214863 0.0809384 -0.334427 -0.216732 0.917162 1 
0.162968 0.214652 0.0807922 -0.332773 -0.229052 0.914766 1 
0.163083 0.214677 0.0811744 -0.332773 -0.229052 0.914766 1 
0.163296 0.214472 0.0811237 -0.32589 -0.241883 0.913941 1 
0.16287 0.214882 0.0812251 -0.332773 -0.229052 0.914766 1 
0.163085 0.215046 0.0814633 -0.332773 -0.229052 0.914766 1 
0.163546 0.214703 0.0812422 -0.32589 -0.241883 0.913941 1 
0.163333 0.214908 0.0812929 -0.332773 -0.229052 0.914766 1 
0.163509 0.214267 0.081073 -0.32589 -0.241883 0.913941 1 
0.163779 0.214074 0.0812134 -0.32589 -0.241883 0.913941 1 
0.163759 0.214497 0.0811915 -0.32589 -0.241883 0.913941 1 
0.163633 0.214721 0.0815288 -0.32589 -0.241883 0.913941 1 
0.163641 0.215151 0.0816025 -0.32589 -0.241883 0.913941 1 
0.163719 0.21474 0.0818155 -0.32589 -0.241883 0.913941 1 
0.163846 0.214516 0.0814782 -0.32589 -0.241883 0.913941 1 
0.164087 0.214318 0.081523 -0.32589 -0.241883 0.913941 1 
0.163932 0.214535 0.0817648 -0.32589 -0.241883 0.913941 1 
0.164145 0.21433 0.0817141 -0.32589 -0.241883 0.913941 1 
0.16426 0.214355 0.0820963 -0.331042 -0.289476 0.898117 1 
0.163627 0.213613 0.080662 -0.32589 -0.241883 0.913941 1 
0.163906 0.21385 0.080876 -0.32589 -0.241883 0.913941 1 
0.163992 0.213869 0.0811627 -0.32589 -0.241883 0.913941 1 
0.164205 0.213664 0.081112 -0.32589 -0.241883 0.913941 1 
0.164908 0.213322 0.0807132 0.270004 0.768959 0.579482 1 
0.164689 0.213468 0.0809791 -0.348477 -0.433625 0.830983 1 
0.164824 0.213472 0.0809381 -0.348477 -0.433625 0.830983 1 
0.165179 0.21313 0.0808536 -0.340968 -0.471012 0.813566 1 
0.165082 0.212757 0.0819542 -0.331593 -0.412545 0.848441 1 
0.164236 0.21404 0.0814965 -0.32589 -0.241883 0.913941 1 
0.164485 0.213901 0.0813261 -0.32589 -0.241883 0.913941 1 
0.164571 0.21392 0.0816127 -0.331042 -0.289476 0.898117 1 
0.164358 0.214125 0.0816634 -0.32589 -0.241883 0.913941 1 
0.164473 0.21415 0.0820456 -0.331042 -0.289476 0.898117 1 
0.164686 0.213945 0.0819949 -0.334844 -0.316826 0.887412 1 
0.164804 0.213493 0.0813613 -0.334844 -0.316826 0.887412 1 
0.165017 0.213087 0.0815332 -0.334638 -0.35603 0.872502 1 
0.165081 0.21336 0.0812865 -0.344789 -0.465545 0.8151 1 
0.164926 0.213578 0.0815282 -0.331856 -0.319843 0.887452 1 
0.163456 0.213987 0.0825727 -0.32589 -0.241883 0.913941 1 
0.163912 0.214355 0.0824107 -0.32589 -0.241883 0.913941 1 
0.164296 0.21402 0.0824217 -0.331042 -0.289476 0.898117 1 
0.164676 0.212543 0.0823 -0.331593 -0.412545 0.848441 1 
0.165004 0.212363 0.0826315 -0.315778 -0.503023 0.80452 1 
0.165332 0.212988 0.0820727 -0.333333 -0.433489 0.837244 1 
0.165041 0.213603 0.0819104 -0.334638 -0.35603 0.872502 1 
0.165478 0.212944 0.0810895 0.306202 0.75829 0.575531 1 
0.16572 0.212745 0.0811344 0.318125 0.734756 0.599108 1 
0.165991 0.212553 0.0812748 0.407166 0.812735 0.416746 1 
0.165565 0.212963 0.0813762 0.302653 0.747826 0.590895 1 
0.165807 0.212764 0.081421 -0.326635 -0.407133 0.852967 1 
0.166405 0.212995 0.0812252 0.403576 0.763036 0.504878 1 
0.166086 0.213001 0.0816351 0.350126 0.734451 0.581372 1 
0.16639 0.212908 0.0809217 0.405521 0.773584 0.486951 1 
0.165579 0.212278 0.0818359 -0.316332 -0.440995 0.839915 1 
0.165934 0.211936 0.0817514 0.39053 0.756549 0.524519 1 
0.165616 0.212915 0.0817825 -0.313868 -0.481054 0.81858 1 
0.165702 0.212934 0.0820692 -0.315781 -0.463459 0.827942 1 
0.165277 0.21254 0.0830609 0.319263 0.701729 0.636904 1 
0.166336 0.213232 0.0817536 0.3508 0.703232 0.618388 1 
0.166478 0.213296 0.0814973 0.364682 0.714645 0.5969 1 
0.166691 0.213091 0.0814466 0.431761 0.750247 0.500712 1 
0.16711 0.212822 0.0813379 0.477896 0.714347 0.511199 1 
0.163909 0.204174 0.0774327 0.755669 0.052854 -0.652818 1 
0.163987 0.204568 0.0767553 0.755669 0.052854 -0.652818 1 
0.164999 0.205241 0.0765099 -0.407432 0.714242 -0.569085 1 
0.164332 0.205247 0.0772342 -0.407432 0.714242 -0.569085 1 
0.164253 0.204685 0.0774 -0.502061 0.70889 -0.495389 1 
0.164758 0.204837 0.0771328 -0.407432 0.714242 -0.569085 1 
0.164804 0.205702 0.0773757 -0.407432 0.714242 -0.569085 1 
0.163574 0.205543 0.078176 -0.473381 0.715885 -0.513244 1 
0.163518 0.205699 0.0784965 -0.407432 0.714242 -0.569085 1 
0.164309 0.206148 0.0782281 -0.407432 0.714242 -0.569085 1 
0.163491 0.206062 0.0786899 -0.407432 0.714242 -0.569085 1 
0.164327 0.206403 0.0790432 -0.407432 0.714242 -0.569085 1 
0.164341 0.205073 0.0779756 -0.407432 0.714242 -0.569085 1 
0.164589 0.204934 0.0778052 -0.407432 0.714242 -0.569085 1 
0.163944 0.205288 0.0783951 -0.407432 0.714242 -0.569085 1 
0.164186 0.205291 0.0782174 -0.407432 0.714242 -0.569085 1 
0.164215 0.205297 0.0783129 -0.407432 0.714242 -0.569085 1 
0.164336 0.205382 0.0784798 -0.407432 0.714242 -0.569085 1 
0.164485 0.205105 0.0784533 -0.407432 0.714242 -0.569085 1 
0.164873 0.204862 0.077515 -0.407432 0.714242 -0.569085 1 
0.165276 0.205554 0.078185 -0.407432 0.714242 -0.569085 1 
0.164995 0.204947 0.0776819 -0.407432 0.714242 -0.569085 1 
0.165026 0.205323 0.0780664 -0.407432 0.714242 -0.569085 1 
0.164281 0.205538 0.0788003 -0.407432 0.714242 -0.569085 1 
0.164764 0.205342 0.0786674 -0.407432 0.714242 -0.569085 1 
0.164387 0.205737 0.0784411 -0.407432 0.714242 -0.569085 1 
0.164658 0.205746 0.0783589 -0.407432 0.714242 -0.569085 1 
0.165159 0.206207 0.078596 -0.407432 0.714242 -0.569085 1 
0.165243 0.205857 0.0785937 -0.407432 0.714242 -0.569085 1 
0.164995 0.205794 0.0789867 -0.407432 0.714242 -0.569085 1 
0.165301 0.205869 0.0787848 -0.407432 0.714242 -0.569085 1 
0.165199 0.205361 0.0786397 -0.407432 0.714242 -0.569085 1 
0.165416 0.205895 0.0791669 -0.407432 0.714242 -0.569085 1 
0.165757 0.205835 0.0790679 -0.407432 0.714242 -0.569085 1 
0.164968 0.206761 0.0785123 -0.407432 0.714242 -0.569085 1 
0.16487 0.206991 0.0789452 -0.407432 0.714242 -0.569085 1 
0.165054 0.20678 0.078799 -0.407432 0.714242 -0.569085 1 
0.165596 0.205548 0.0777751 -0.407432 0.714242 -0.569085 1 
0.16548 0.20637 0.0786976 -0.407432 0.714242 -0.569085 1 
0.165544 0.206644 0.0784509 -0.407432 0.714242 -0.569085 1 
0.165653 0.207011 0.0786032 -0.407432 0.714242 -0.569085 1 
0.166453 0.207043 0.0771037 -0.766925 0.537654 0.350363 1 
0.167311 0.207331 0.0777679 -0.769609 0.637836 0.0294386 1 
0.165149 0.207228 0.0791593 -0.407432 0.714242 -0.569085 1 
0.165333 0.207017 0.0790131 -0.407432 0.714242 -0.569085 1 
0.165613 0.207254 0.0792272 -0.407432 0.714242 -0.569085 1 
0.165821 0.207559 0.0794581 -0.394416 0.707968 -0.585848 1 
0.165322 0.207266 0.0797326 -0.407432 0.714242 -0.569085 1 
0.165907 0.207578 0.0797448 -0.394416 0.707968 -0.585848 1 
0.166313 0.207591 0.0796215 -0.644803 0.683981 -0.341174 1 
0.165653 0.206408 0.0792709 -0.407432 0.714242 -0.569085 1 
0.165961 0.206651 0.0795805 -0.407432 0.714242 -0.569085 1 
0.165961 0.207254 0.0789128 -0.648518 0.687527 -0.326697 1 
0.166211 0.207485 0.0790313 -0.644803 0.683981 -0.341174 1 
0.166839 0.207119 0.0795988 -0.394416 0.707968 -0.585848 1 
0.166419 0.207791 0.0792623 -0.644803 0.683981 -0.341174 1 
0.166488 0.207554 0.0787339 -0.706641 0.669037 -0.230324 1 
0.167003 0.207331 0.0794307 -0.642635 0.688189 -0.336773 1 
0.167338 0.207412 0.0793243 -0.714758 0.661582 -0.226783 1 
0.168328 0.211526 0.0757185 0.563093 -0.680055 -0.469522 1 
0.168736 0.211909 0.0758842 0.558673 -0.616059 -0.555297 1 
0.17213 0.21399 0.0746184 0.618504 -0.188774 0.76277 1 
0.17237 0.216047 0.07441 0.598522 -0.116175 0.792638 1 
0.172531 0.214715 0.0745542 0.641054 -0.162158 0.75017 1 
0.172735 0.21408 0.0744299 0.633707 -0.15578 0.757726 1 
0.172843 0.21485 0.0741371 0.595704 -0.122688 0.793779 1 
0.172703 0.215356 0.0744598 0.62225 -0.132806 0.771471 1 
0.172292 0.216457 0.074197 0.598724 -0.113272 0.792905 1 
0.172572 0.216694 0.0744111 0.598724 -0.113272 0.792905 1 
0.172477 0.216246 0.0740508 0.598724 -0.113272 0.792905 1 
0.172669 0.216464 0.0739782 0.598724 -0.113272 0.792905 1 
0.173251 0.215232 0.0743028 0.59992 -0.116446 0.791541 1 
0.168329 0.210319 0.0770539 0.559451 -0.623678 -0.54593 1 
0.168682 0.21001 0.0762353 0.552956 -0.55972 -0.617214 1 
0.168712 0.210789 0.0761747 0.559164 -0.579436 -0.59295 1 
0.169019 0.210662 0.0761954 0.565103 -0.541486 -0.622456 1 
0.168645 0.212199 0.0761018 0.0186402 -0.301971 0.953135 1 
0.16876 0.212225 0.076484 0.201561 -0.378471 0.903401 1 
0.168473 0.211558 0.0761962 0.561908 -0.61928 -0.548409 1 
0.169024 0.212374 0.0763945 0.339875 -0.349019 0.87331 1 
0.168987 0.21214 0.0760027 0.537574 -0.554426 -0.635315 1 
0.169413 0.211729 0.0759014 0.583779 -0.647709 -0.489567 1 
0.16925 0.212289 0.0759133 0.410716 -0.436487 0.800494 1 
0.169472 0.212514 0.0759363 0.556509 -0.261794 0.788518 1 
0.169379 0.212032 0.07631 0.513258 -0.367538 0.775553 1 
0.169295 0.212383 0.0763124 0.476154 -0.312722 0.821877 1 
0.169559 0.212533 0.0762229 0.564402 -0.21069 0.79816 1 
0.168849 0.212613 0.0770596 0.440555 -0.164299 0.882563 1 
0.169011 0.212455 0.0766025 0.400261 -0.236585 0.885335 1 
0.169 0.212705 0.0773221 0.467687 -0.109459 0.877091 1 
0.169395 0.210669 0.0759766 0.579337 -0.623251 -0.525288 1 
0.169391 0.21118 0.0762582 0.58661 -0.66683 -0.459594 1 
0.169938 0.211257 0.0758786 0.660951 -0.499497 0.560042 1 
0.170138 0.211133 0.0760359 0.664309 -0.329718 0.670806 1 
0.169807 0.212595 0.0758299 0.580329 -0.218204 0.784605 1 
0.17002 0.21239 0.0757792 0.633649 -0.290355 0.717066 1 
0.169609 0.212686 0.0764067 0.533226 -0.16878 0.828965 1 
0.169893 0.212614 0.0761166 0.580329 -0.218204 0.784605 1 
0.170086 0.212832 0.076044 0.584802 -0.214479 0.782308 1 
0.170307 0.213459 0.0756218 0.559056 -0.131282 0.81867 1 
0.170492 0.213247 0.0754756 0.603632 -0.187966 0.774788 1 
0.170188 0.213341 0.076189 0.535186 -0.123953 0.83559 1 
0.169512 0.212917 0.0768396 0.504341 -0.138877 0.852264 1 
0.169968 0.213285 0.0766776 0.500163 -0.119635 0.857627 1 
0.169638 0.212693 0.0765023 0.533226 -0.16878 0.828965 1 
0.169831 0.212911 0.0764297 0.515711 -0.142518 0.844826 1 
0.169995 0.213123 0.0762616 0.522563 -0.13613 0.841663 1 
0.170208 0.212314 0.0768786 0.576407 -0.228388 0.784598 1 
0.170241 0.214065 0.0764392 0.505032 -0.0685501 0.860374 1 
0.170639 0.212198 0.0756053 0.634692 -0.286171 0.717825 1 
0.17029 0.212198 0.0759196 0.634511 -0.293963 0.714829 1 
0.170862 0.213194 0.0754721 0.660178 -0.251723 0.707673 1 
0.171131 0.212632 0.0753235 0.650751 -0.258084 0.714084 1 
0.170654 0.212084 0.0761314 0.634511 -0.293963 0.714829 1 
0.169279 0.212942 0.0775361 0.466172 -0.118325 0.876746 1 
0.169166 0.212682 0.0781106 0.710554 -0.104884 0.695782 1 
0.170041 0.213385 0.0771722 0.487867 -0.113025 0.86557 1 
0.170277 0.213126 0.0774323 0.515493 -0.145395 0.844469 1 
0.171091 0.215701 0.0757606 0.506381 -0.0203638 0.862069 1 
0.170161 0.214106 0.0759373 0.507373 -0.0716788 0.85874 1 
0.170382 0.214532 0.0757377 0.506251 -0.0687155 0.859644 1 
0.170666 0.214258 0.0756701 0.524122 -0.0899718 0.846878 1 
0.170943 0.214327 0.0753727 0.557708 -0.130966 0.81964 1 
0.170963 0.213904 0.0753945 0.605913 -0.184674 0.773799 1 
0.170797 0.214974 0.0756881 0.500631 -0.0540848 0.86397 1 
0.170881 0.214624 0.0756858 0.501755 -0.0569861 0.86313 1 
0.171324 0.215073 0.0757318 0.543933 -0.0813759 0.835173 1 
0.171434 0.213989 0.0752471 0.657856 -0.255217 0.708583 1 
0.171606 0.214631 0.0751527 0.657322 -0.223271 0.719776 1 
0.171094 0.214419 0.0756351 0.555643 -0.121684 0.822468 1 
0.170832 0.214437 0.0762361 0.507373 -0.0716788 0.85874 1 
0.170998 0.215421 0.0759118 0.505655 -0.0369991 0.861942 1 
0.171085 0.21544 0.0761985 0.505704 -0.0342618 0.862026 1 
0.171438 0.213479 0.0749654 0.657856 -0.255217 0.708583 1 
0.171646 0.215436 0.0756109 0.584161 -0.112733 0.803771 1 
0.172012 0.214644 0.0750294 0.635109 -0.189149 0.748906 1 
0.17185 0.215204 0.0750413 0.64349 -0.1889 0.74178 1 
0.171644 0.215067 0.0753219 0.630348 -0.188644 0.753044 1 
0.171666 0.215013 0.0756327 0.627399 -0.185612 0.756253 1 
0.172036 0.215362 0.0751841 0.636004 -0.162416 0.754401 1 
0.171994 0.215436 0.0752965 0.636004 -0.162416 0.754401 1 
0.172122 0.215381 0.0754707 0.655266 -0.175654 0.734692 1 
0.172151 0.21599 0.0748985 0.653947 -0.162349 0.738915 1 
0.172044 0.215791 0.0752577 0.645523 -0.152688 0.748323 1 
0.172166 0.216078 0.0752021 0.653686 -0.152476 0.741246 1 
0.172078 0.215689 0.0746265 0.647576 -0.149441 0.747203 1 
0.171971 0.21549 0.0749857 0.641054 -0.162158 0.75017 1 
0.172442 0.215375 0.0750608 0.645523 -0.152688 0.748323 1 
0.172734 0.21533 0.0752895 0.648436 -0.142927 0.747732 1 
0.171887 0.215237 0.0756557 0.648869 -0.205966 0.732494 1 
0.172351 0.215263 0.0757236 0.655266 -0.175654 0.734692 1 
0.172464 0.214919 0.0758168 0.654635 -0.179373 0.734356 1 
0.172131 0.21581 0.0755444 0.645523 -0.152688 0.748323 1 
0.172253 0.216097 0.0754887 0.653686 -0.152476 0.741246 1 
0.172074 0.214347 0.0747163 0.624807 -0.191894 0.756831 1 
0.172781 0.214946 0.0746728 0.647576 -0.149441 0.747203 1 
0.173449 0.214337 0.0746162 0.595704 -0.122688 0.793779 1 
0.17242 0.214423 0.0758628 0.64349 -0.1889 0.74178 1 
0.17225 0.216331 0.074532 0.598724 -0.113272 0.792905 1 
0.172301 0.216686 0.0744933 0.598724 -0.113272 0.792905 1 
0.172388 0.216704 0.0747799 0.598724 -0.113272 0.792905 1 
0.172629 0.216707 0.0746022 0.598724 -0.113272 0.792905 1 
0.172401 0.216221 0.0750171 0.628173 -0.126229 0.767767 1 
0.172417 0.216309 0.0753206 0.628173 -0.126229 0.767767 1 
0.172609 0.216527 0.0752481 0.598724 -0.113272 0.792905 1 
0.172816 0.216664 0.0749675 0.598724 -0.113272 0.792905 1 
0.173035 0.21672 0.074479 0.602806 -0.0823979 0.793622 1 
0.165974 0.218266 0.0752507 0.678771 -0.220015 -0.700616 1 
0.166174 0.21794 0.0756306 0.692865 -0.210195 -0.689751 1 
0.166402 0.217823 0.0758834 0.692865 -0.210195 -0.689751 1 
0.166347 0.217978 0.0762039 0.692865 -0.210195 -0.689751 1 
0.166744 0.217763 0.0757844 0.692865 -0.210195 -0.689751 1 
0.165633 0.21732 0.0764627 0.692865 -0.210195 -0.689751 1 
0.166019 0.217756 0.0763175 0.692865 -0.210195 -0.689751 1 
0.166077 0.217769 0.0765086 0.692865 -0.210195 -0.689751 1 
0.166234 0.217719 0.0767784 0.692865 -0.210195 -0.689751 1 
0.166086 0.217595 0.07725 0.692865 -0.210195 -0.689751 1 
0.166314 0.217276 0.0777255 0.692865 -0.210195 -0.689751 1 
0.166902 0.21711 0.0767219 0.692865 -0.210195 -0.689751 1 
0.166374 0.216609 0.0771233 0.692865 -0.210195 -0.689751 1 
0.166512 0.216983 0.0773712 0.692865 -0.210195 -0.689751 1 
0.166746 0.217328 0.0769636 0.692865 -0.210195 -0.689751 1 
0.166385 0.217207 0.0777086 0.692865 -0.210195 -0.689751 1 
0.166753 0.216784 0.0774161 0.692865 -0.210195 -0.689751 1 
0.166598 0.217002 0.0776579 0.692865 -0.210195 -0.689751 1 
0.167024 0.216793 0.0773339 0.692865 -0.210195 -0.689751 1 
0.167685 0.216526 0.0770475 0.549556 0.436656 0.712264 1 
0.167578 0.216327 0.0774067 0.534856 0.409782 0.738924 1 
0.167501 0.216738 0.0771938 0.570552 0.584096 0.577324 1 
0.166661 0.216102 0.0780124 0.710544 0.500875 0.494219 1 
0.166918 0.216393 0.0779157 0.859272 0.508322 -0.0570991 1 
0.166833 0.216743 0.077918 0.692865 -0.210195 -0.689751 1 
0.166855 0.216891 0.0780063 0.692865 -0.210195 -0.689751 1 
0.16709 0.217034 0.0778213 0.692865 -0.210195 -0.689751 1 
0.167352 0.216412 0.077888 0.616875 0.532372 0.579694 1 
0.167215 0.215435 0.0783078 0.710075 0.425383 0.561108 1 
0.167927 0.215724 0.0777601 0.450286 0.203594 0.869363 1 
0.1681 0.216365 0.0776657 0.508301 0.366299 0.779394 1 
0.168177 0.215955 0.0778786 0.45232 0.2209 0.864066 1 
0.166347 0.217978 0.0762039 0.692865 -0.210195 -0.689751 1 
0.166491 0.21801 0.0766816 0.692865 -0.210195 -0.689751 1 
0.16676 0.217649 0.0763105 0.692865 -0.210195 -0.689751 1 
0.166511 0.217587 0.0767035 0.692865 -0.210195 -0.689751 1 
0.166875 0.217674 0.0766927 0.692865 -0.210195 -0.689751 1 
0.167095 0.217328 0.0766493 0.692865 -0.210195 -0.689751 1 
0.166868 0.217614 0.076908 0.692865 -0.210195 -0.689751 1 
0.166855 0.217494 0.0773385 0.692865 -0.210195 -0.689751 1 
0.167081 0.217409 0.0768573 0.692865 -0.210195 -0.689751 1 
0.167267 0.217366 0.0772226 0.692865 -0.210195 -0.689751 1 
0.167141 0.21759 0.0775599 0.692865 -0.210195 -0.689751 1 
0.167594 0.217018 0.0770425 0.549406 0.739647 0.388684 1 
0.167751 0.216968 0.0773123 0.561108 0.710075 0.425383 1 
0.167079 0.217887 0.0778731 0.692865 -0.210195 -0.689751 1 
0.167689 0.217265 0.0776254 0.50718 0.753384 0.418547 1 
0.163043 0.210272 0.0727906 0.045054 0.998522 0.0303853 1 
0.163343 0.209885 0.0732492 -0.249641 0.916312 0.313133 1 
0.163886 0.209869 0.0738189 -0.249641 0.916312 0.313133 1 
0.164117 0.20992 0.0745833 -0.249641 0.916312 0.313133 1 
0.163043 0.211278 0.0716778 0.203226 0.96694 -0.154037 1 
0.163313 0.211287 0.0715956 0.19226 0.976187 -0.100472 1 
0.162253 0.211198 0.0722351 -0.269542 0.910615 0.313252 1 
0.162511 0.211087 0.0725835 -0.248329 0.920108 0.302875 1 
0.162617 0.211085 0.0724469 -0.248329 0.920108 0.302875 1 
0.163445 0.209949 0.0716443 0.298526 0.944206 -0.139132 1 
0.163433 0.210801 0.0716961 0.299059 0.943185 -0.144793 1 
0.163511 0.210391 0.0719091 0.2956 0.93676 -0.187352 1 
0.163256 0.210469 0.0722948 0.296364 0.931228 -0.21209 1 
0.163597 0.21041 0.0721957 0.313783 0.92431 -0.217234 1 
0.163961 0.210296 0.0724075 0.299536 0.927001 -0.225717 1 
0.16381 0.210205 0.072145 0.297441 0.934216 -0.196898 1 
0.163917 0.2098 0.0724535 0.299536 0.927001 -0.225717 1 
0.163684 0.210429 0.0724824 0.246527 0.95243 -0.17917 1 
0.163963 0.210666 0.0726964 0.246527 0.95243 -0.17917 1 
0.164147 0.210454 0.0725502 0.282669 0.937123 -0.204691 1 
0.16436 0.210249 0.0724995 0.295164 0.933055 -0.205636 1 
0.16438 0.209826 0.0725214 0.320335 0.917911 -0.234146 1 
0.164263 0.210479 0.0729324 0.245384 0.953379 -0.175658 1 
0.164418 0.210262 0.0726906 0.299536 0.927001 -0.225717 1 
0.164613 0.210849 0.072907 0.163098 0.982214 -0.0930265 1 
0.164697 0.210499 0.0729047 0.274958 0.940935 -0.197583 1 
0.164624 0.210198 0.0726326 0.299536 0.927001 -0.225717 1 
0.164839 0.210362 0.0728709 0.282669 0.937123 -0.204691 1 
0.164136 0.210704 0.0732697 0.045054 0.998522 0.0303853 1 
0.164263 0.209876 0.0736001 -0.249641 0.916312 0.313133 1 
0.164343 0.210036 0.0738795 -0.249641 0.916312 0.313133 1 
0.164608 0.211159 0.0734113 0.045054 0.998522 0.0303853 1 
0.164763 0.210941 0.0731695 0.0492412 0.998443 0.0261921 1 
0.165043 0.211178 0.0733836 -0.0550931 0.997077 0.0529326 1 
0.164666 0.211171 0.0736024 -0.310057 0.891227 0.331027 1 
0.164976 0.210736 0.0731188 0.163098 0.982214 -0.0930265 1 
0.16509 0.210593 0.0729894 0.274958 0.940935 -0.197583 1 
0.165063 0.210755 0.0734054 -0.0234337 0.999496 0.0213959 1 
0.165176 0.210612 0.0732761 0.0683663 0.994113 -0.0840569 1 
0.165345 0.210313 0.0728263 0.299536 0.927001 -0.225717 1 
0.165487 0.210176 0.0727925 0.232866 0.938434 -0.255176 1 
0.16546 0.210338 0.0732085 0.19271 0.958232 -0.211316 1 
0.164458 0.210061 0.0742617 -0.249641 0.916312 0.313133 1 
0.164713 0.209983 0.073876 -0.249641 0.916312 0.313133 1 
0.164657 0.210138 0.0741964 -0.310057 0.891227 0.331027 1 
0.164963 0.210213 0.0739945 -0.310057 0.891227 0.331027 1 
0.16448 0.210008 0.0745725 -0.310057 0.891227 0.331027 1 
0.164944 0.210033 0.0746403 -0.522017 0.599728 0.606486 1 
0.165122 0.211137 0.0738855 -0.290058 0.936789 0.195685 1 
0.16508 0.21101 0.0742205 -0.228328 0.959505 0.164977 1 
0.165342 0.210992 0.0736195 -0.198418 0.977483 0.07182 1 
0.165364 0.210938 0.0739303 -0.228328 0.959505 0.164977 1 
0.165291 0.210637 0.0736583 -0.0980279 0.994598 0.0341446 1 
0.165573 0.211042 0.0743839 -0.278333 0.946331 0.164284 1 
0.165593 0.210619 0.0744058 -0.253729 0.955135 0.152769 1 
0.164666 0.209964 0.0749378 -0.534714 0.575198 0.619054 1 
0.164974 0.210811 0.0745797 -0.205787 0.96681 0.151428 1 
0.165466 0.210843 0.0747431 -0.278451 0.948346 0.152004 1 
0.165708 0.210846 0.0745654 -0.320731 0.931647 0.170779 1 
0.165382 0.210145 0.0736632 -0.0537546 0.998149 0.0284583 1 
0.165241 0.210081 0.0739196 -0.157251 0.974958 0.157251 1 
0.165469 0.210164 0.0739499 -0.15746 0.978235 0.135143 1 
0.165748 0.210401 0.074164 -0.226144 0.96531 0.130517 1 
0.165884 0.210003 0.074568 -0.351053 0.891825 0.285324 1 
0.165835 0.21042 0.0744506 -0.278451 0.948346 0.152004 1 
0.165999 0.210029 0.0749502 0.329499 0.693084 -0.641143 1 
0.165979 0.210452 0.0749284 0.407296 0.515254 -0.754071 1 
0.165185 0.210914 0.0667646 0.900239 -0.0555035 -0.431844 1 
0.166249 0.210492 0.0658435 0.877528 0.310696 -0.365258 1 
0.166059 0.210442 0.0664276 0.90728 0.206923 -0.366095 1 
0.166487 0.210401 0.0666151 0.916423 0.222992 -0.332329 1 
0.166393 0.210523 0.0663212 0.911049 0.260924 -0.319231 1 
0.166799 0.210536 0.066198 0.897516 0.298183 -0.324886 1 
0.164994 0.210864 0.0673487 0.900239 -0.0555035 -0.431844 1 
0.1654 0.210877 0.0672255 0.900239 -0.0555035 -0.431844 1 
0.165748 0.210274 0.0675789 0.924159 0.110899 -0.365556 1 
0.165593 0.210693 0.0675981 0.923412 0.0654807 -0.378184 1 
0.16587 0.21056 0.0675232 0.923412 0.0654807 -0.378184 1 
0.165591 0.210323 0.0673091 0.910216 0.077552 -0.406808 1 
0.165243 0.209719 0.0682912 0.41908 -0.907789 0.0170785 1 
0.165678 0.209739 0.0682635 0.922451 0.378407 -0.0767587 1 
0.165309 0.210765 0.0678882 0.635186 0.771995 -0.0237322 1 
0.165715 0.210778 0.067765 0.902627 0.299891 -0.308755 1 
0.165815 0.210716 0.0678436 0.902749 0.325461 -0.281281 1 
0.165715 0.210175 0.0684327 0.607909 0.79323 0.0350987 1 
0.165766 0.210731 0.0681714 0.636234 0.771485 0.00414035 1 
0.166101 0.210611 0.0682876 0.952468 0.156735 -0.261225 1 
0.166123 0.210112 0.0668485 0.924159 0.110899 -0.365556 1 
0.166068 0.210268 0.067169 0.924159 0.110899 -0.365556 1 
0.166287 0.20972 0.0673481 0.940205 0.0398719 -0.338268 1 
0.165953 0.209237 0.0678996 0.921535 -0.18544 -0.341152 1 
0.166017 0.20931 0.0678755 0.945368 0.00624417 -0.325946 1 
0.165891 0.209534 0.0682128 0.977964 0.0616516 -0.199461 1 
0.166097 0.209268 0.0683774 0.982822 0.0267514 -0.182607 1 
0.165968 0.209726 0.067758 0.940205 0.0398719 -0.338268 1 
0.165436 0.209334 0.0688863 0.587212 -0.781408 0.21115 1 
0.165555 0.207876 0.0693656 0.602782 -0.737806 0.303802 1 
0.165421 0.208643 0.0692505 0.471072 -0.838663 0.273376 1 
0.165636 0.208808 0.0694888 0.784134 -0.52436 0.331934 1 
0.165827 0.208656 0.0691273 0.734474 0.673146 0.086151 1 
0.16572 0.208457 0.0694865 0.853597 -0.410532 0.32068 1 
0.165962 0.208258 0.0695313 0.910504 -0.299604 0.284989 1 
0.166581 0.208066 0.0693574 0.993047 -0.0937689 0.071174 1 
0.165715 0.209571 0.0691004 0.834092 -0.493082 0.247309 1 
0.165839 0.210026 0.0695563 0.860216 -0.421674 0.286739 1 
0.166595 0.210409 0.0694077 0.845188 -0.449634 0.28894 1 
0.166532 0.208684 0.0690174 0.989149 -0.087587 0.11795 1 
0.166469 0.209584 0.0686628 0.991433 0.125198 -0.037221 1 
0.16647 0.208981 0.0693305 0.165302 -0.970026 0.178116 1 
0.166492 0.20933 0.0691962 0.373929 -0.911362 0.172036 1 
0.165684 0.210805 0.0669353 0.895472 0.28364 -0.343042 1 
0.166063 0.210778 0.0674506 0.902627 0.299891 -0.308755 1 
0.16612 0.210791 0.0676417 0.902749 0.325461 -0.281281 1 
0.166722 0.210343 0.0666527 0.929523 0.183109 -0.320091 1 
0.163387 0.209333 0.0721209 0.330207 0.915641 -0.229271 1 
0.162956 0.21146 0.0711685 0.1617 0.983373 -0.0826465 1 
0.167215 0.208565 0.0688193 0.999936 -0.00695089 -0.00893687 1 
0.15567 0.20748 0.0667217 -0.0644277 0.625664 0.777427 1 
0.156737 0.206824 0.0667573 -0.0333904 0.431404 0.901541 1 
0.156788 0.206978 0.0669411 -0.0333904 0.431404 0.901541 1 
0.15703 0.206779 0.0669859 -0.0853302 0.383309 0.91967 1 
0.156462 0.206722 0.0677888 -0.025232 0.4316 0.901712 1 
0.156974 0.206331 0.0679741 -0.0648992 0.358932 0.931105 1 
0.15669 0.207208 0.0673739 -0.0333904 0.431404 0.901541 1 
0.157118 0.206966 0.0677841 -0.132155 0.37699 0.91674 1 
0.158068 0.206117 0.0669259 -0.193341 0.264644 0.944766 1 
0.158401 0.204823 0.0676434 -0.201866 0.147864 0.968187 1 
0.157437 0.207161 0.0671516 -0.144633 0.433898 0.889277 1 
0.158896 0.207404 0.0663816 -0.119697 0.604398 0.787639 1 
0.158976 0.207363 0.0668835 -0.11056 0.623558 0.77392 1 
0.15902 0.207456 0.0672826 -0.11056 0.623558 0.77392 1 
0.159573 0.206621 0.0670665 -0.185672 0.279195 0.942112 1 
0.159923 0.206991 0.0670411 -0.142669 0.399755 0.905451 1 
0.158763 0.206964 0.0676019 -0.185655 0.314078 0.931068 1 
0.159021 0.206853 0.0679503 -0.186199 0.288264 0.939273 1 
0.159149 0.207401 0.0674568 -0.144048 0.484526 0.862835 1 
0.159568 0.207131 0.0673481 -0.152301 0.359094 0.920791 1 
0.159072 0.207208 0.0679116 -0.172495 0.340783 0.924182 1 
0.159609 0.206285 0.0673919 -0.185553 0.253272 0.949433 1 
0.160016 0.206667 0.0675576 -0.191968 0.280356 0.940505 1 
0.160238 0.206892 0.0675806 -0.166063 0.333522 0.928001 1 
0.160451 0.206687 0.0675299 -0.164526 0.319374 0.933237 1 
0.158879 0.206386 0.0686518 -0.197771 0.249601 0.947938 1 
0.159043 0.206598 0.0684837 -0.185672 0.279195 0.942112 1 
0.159242 0.206876 0.0681959 -0.186199 0.288264 0.939273 1 
0.159091 0.204361 0.0676752 -0.278277 0.04118 0.959618 1 
0.159432 0.204301 0.0675761 -0.282951 0.033655 0.958544 1 
0.159629 0.205862 0.0674137 -0.193402 0.242091 0.950782 1 
0.160037 0.206244 0.0675794 -0.193402 0.242091 0.950782 1 
0.160256 0.206099 0.0673135 -0.193402 0.242091 0.950782 1 
0.16044 0.205888 0.0671672 -0.193402 0.242091 0.950782 1 
0.160343 0.206118 0.0676001 -0.193402 0.242091 0.950782 1 
0.158918 0.207954 0.0660247 -0.122464 0.58576 0.801179 1 
0.158962 0.208449 0.0659786 -0.120461 0.697482 0.706405 1 
0.158634 0.208026 0.0663149 -0.128628 0.578087 0.805773 1 
0.158792 0.208178 0.066362 -0.122464 0.58576 0.801179 1 
0.158863 0.207908 0.0665677 -0.119697 0.604398 0.787639 1 
0.159262 0.208263 0.0662146 -0.131759 0.575891 0.806839 1 
0.158829 0.209217 0.0658635 -0.123562 0.67438 0.727973 1 
0.159106 0.208682 0.0662338 -0.126859 0.65519 0.744737 1 
0.159157 0.209037 0.066195 -0.120431 0.685415 0.718125 1 
0.159135 0.208487 0.0665519 -0.126643 0.660031 0.740487 1 
0.159468 0.207998 0.0663792 -0.131759 0.575891 0.806839 1 
0.159517 0.207581 0.0664966 -0.119697 0.604398 0.787639 1 
0.159575 0.207594 0.0666877 -0.119697 0.604398 0.787639 1 
0.159249 0.207741 0.0670903 -0.119697 0.604398 0.787639 1 
0.159198 0.207587 0.0669065 -0.119697 0.604398 0.787639 1 
0.160559 0.207054 0.0676822 -0.157797 0.393783 0.905558 1 
0.160375 0.207266 0.0678284 -0.14519 0.438445 0.886953 1 
0.161045 0.207227 0.0678383 -0.173289 0.48432 0.857558 1 
0.16094 0.208001 0.0678187 -0.183034 0.558177 0.809282 1 
0.160914 0.206712 0.0675977 -0.180851 0.329458 0.926688 1 
0.1612 0.20701 0.0675965 -0.105483 0.448652 0.88746 1 
0.161415 0.207174 0.0678348 -0.11601 0.485522 0.866493 1 
0.161542 0.20695 0.0674975 -0.0700918 0.446663 0.891952 1 
0.161395 0.207396 0.0680355 -0.134467 0.481478 0.866082 1 
0.161694 0.207411 0.0680489 -0.277184 0.581294 0.765027 1 
0.161686 0.206981 0.0679752 -0.169216 0.543587 0.822119 1 
0.161588 0.207614 0.0679629 -0.242461 0.580343 0.777441 1 
0.161972 0.207279 0.067974 -0.25834 0.686266 0.679926 1 
0.162005 0.206975 0.0675653 -0.0318418 0.549617 0.834809 1 
0.162861 0.207497 0.0672727 -0.281137 0.802576 0.52615 1 
0.161162 0.207622 0.0685095 -0.205044 0.52704 0.824734 1 
0.161801 0.207007 0.0683574 -0.236632 0.533581 0.811971 1 
0.161632 0.207708 0.068362 -0.297023 0.614918 0.730516 1 
0.162477 0.206827 0.0683745 -0.121651 0.0279016 0.992181 1 
0.162296 0.209545 0.0649005 0.0615617 -0.639955 -0.765942 1 
0.162835 0.210443 0.0653068 0.292351 -0.889045 -0.35232 1 
0.162786 0.211061 0.0649668 0.130399 0.945054 -0.299782 1 
0.163049 0.21121 0.0648774 0.279999 0.876321 -0.391998 1 
0.16342 0.210755 0.065319 0.416885 0.844699 -0.335694 1 
0.163535 0.211383 0.0650335 0.295904 0.911033 -0.287158 1 
0.163421 0.209505 0.0644594 0.608858 -0.264102 -0.748025 1 
0.163434 0.21007 0.0657787 0.457292 -0.811017 -0.364878 1 
0.164006 0.209616 0.0646941 0.791128 0.194339 -0.579956 1 
0.164398 0.20971 0.0647789 0.810946 0.193227 -0.552295 1 
0.163879 0.20984 0.0650315 0.801766 -0.0436814 -0.59604 1 
0.164258 0.210216 0.0651016 0.82118 0.24589 -0.514977 1 
0.163626 0.210288 0.0657062 0.444227 -0.823638 -0.352536 1 
0.164285 0.209853 0.0649082 0.810946 0.193227 -0.552295 1 
0.163981 0.21055 0.0649539 0.712657 0.463476 -0.526602 1 
0.1646 0.210358 0.06478 0.765033 0.31275 -0.562949 1 
0.164813 0.210153 0.0647293 0.810946 0.193227 -0.552295 1 
0.16509 0.209819 0.064877 0.829927 0.198034 -0.521539 1 
0.165376 0.210116 0.0648758 0.813519 0.311191 -0.491271 1 
0.165716 0.209084 0.0651555 0.872413 0.143232 -0.467312 1 
0.165964 0.208543 0.0654302 0.906635 0.0608026 -0.417512 1 
0.166179 0.208707 0.0656685 0.910216 0.077552 -0.406808 1 
0.165875 0.209806 0.0652691 0.880355 0.16734 -0.443815 1 
0.16586 0.209316 0.0654107 0.910216 0.077552 -0.406808 1 
0.166159 0.208929 0.0658692 0.910216 0.077552 -0.406808 1 
0.166081 0.20934 0.0656562 0.910216 0.077552 -0.406808 1 
0.165043 0.210807 0.064826 0.728369 0.479496 -0.489451 1 
0.165192 0.210529 0.0647995 0.74057 0.486566 -0.463475 1 
0.165371 0.210627 0.0651575 0.747891 0.498046 -0.438872 1 
0.165797 0.210217 0.0650561 0.821447 0.309417 -0.479047 1 
0.165655 0.210353 0.0650899 0.813519 0.311191 -0.491271 1 
0.165955 0.210167 0.0653258 0.865099 0.288366 -0.410426 1 
0.166119 0.209977 0.0656029 0.896144 0.236912 -0.375233 1 
0.165229 0.207133 0.0662685 0.495572 -0.782907 -0.376118 1 
0.16557 0.207073 0.0661694 0.667358 -0.65424 -0.355815 1 
0.165611 0.206227 0.0662131 0.700961 -0.66615 -0.254751 1 
0.165875 0.206377 0.0661237 0.775051 -0.569844 -0.273083 1 
0.165936 0.207933 0.0660024 0.928935 -0.0272073 -0.369242 1 
0.165948 0.206879 0.0661732 0.866203 -0.390941 -0.31122 1 
0.145008 0.193702 0.0403923 -0.0292593 0.0856105 0.995899 1 
0.145614 0.193591 0.0404264 0.114581 0.283159 0.952204 1 
0.146166 0.188966 0.043705 0.0737732 0.672638 0.736285 1 
0.146508 0.188907 0.0436059 0.0737732 0.672638 0.736285 1 
0.144774 0.191907 0.0401629 -0.380417 0.428169 0.819728 1 
0.145831 0.192875 0.040094 0.259838 0.436102 0.861568 1 
0.145994 0.192315 0.0400821 0.220104 0.546413 0.808076 1 
0.14608 0.192334 0.0403687 0.383355 0.52691 0.758554 1 
0.146207 0.19211 0.0400314 0.322668 0.547412 0.772156 1 
0.145711 0.193159 0.040216 0.177281 0.396359 0.900817 1 
0.14694 0.192547 0.0395719 0.224269 0.561447 0.796543 1 
0.146679 0.192565 0.0401729 0.378389 0.5213 0.764898 1 
0.147219 0.192784 0.039786 0.31749 0.524896 0.789737 1 
0.147304 0.192433 0.0397837 0.0352673 0.641865 0.766006 1 
0.147575 0.192241 0.0399241 -0.018086 0.638573 0.769349 1 
0.14798 0.192254 0.0398008 0.0380569 0.635691 0.771005 1 
0.148153 0.192895 0.0397064 0.1648 0.609307 0.775619 1 
0.146236 0.190306 0.0421301 -0.0675101 0.636319 0.768466 1 
0.146485 0.190167 0.0419597 -0.0796901 0.630277 0.77227 1 
0.145741 0.192763 0.0407567 0.27956 0.461814 0.841768 1 
0.145947 0.1929 0.0404762 0.389789 0.477127 0.787664 1 
0.146003 0.192141 0.0408235 0.381472 0.551743 0.74166 1 
0.14628 0.192009 0.0407486 0.229548 0.607443 0.760474 1 
0.146451 0.191476 0.0412555 -0.21254 0.634516 0.743113 1 
0.147327 0.191575 0.0409848 -0.21254 0.634516 0.743113 1 
0.145567 0.189942 0.0425654 -0.968892 -0.173706 0.176279 1 
0.146052 0.190316 0.0424989 -0.122915 0.6205 0.774514 1 
0.146423 0.190263 0.0424954 -0.0796901 0.630277 0.77227 1 
0.146338 0.190211 0.0429428 0.052921 0.667948 0.742324 1 
0.146379 0.189968 0.0423189 -0.107295 0.630542 0.768703 1 
0.146862 0.189772 0.042186 -0.152354 0.62601 0.764788 1 
0.146593 0.190133 0.0425571 -0.129391 0.626131 0.768907 1 
0.147013 0.189863 0.0424485 -0.139154 0.632925 0.761605 1 
0.146758 0.189741 0.0430567 0.0238148 0.671016 0.74106 1 
0.147211 0.188968 0.042762 0.0587702 0.675141 0.735344 1 
0.147359 0.18869 0.0427354 0.0859665 0.671704 0.735815 1 
0.147204 0.189511 0.0423095 -0.129592 0.639025 0.75819 1 
0.147319 0.189536 0.0426917 -0.470594 0.523806 0.710048 1 
0.146913 0.18892 0.0434827 0.0737732 0.672638 0.736285 1 
0.1471 0.189279 0.0434028 0.0859665 0.671704 0.735815 1 
0.147481 0.188775 0.0429024 0.0859665 0.671704 0.735815 1 
0.147461 0.189198 0.0428805 -0.453129 0.522841 0.722019 1 
0.147718 0.189087 0.0432289 0.0859665 0.671704 0.735815 1 
0.148131 0.188959 0.0431129 0.076813 0.673925 0.734796 1 
0.149199 0.189276 0.0427697 -0.868376 0.14982 0.472734 1 
0.14755 0.193376 0.0399613 0.357263 0.41707 0.835713 1 
0.147749 0.193252 0.0401186 0.259893 0.524455 0.810804 1 
0.147597 0.192187 0.0402349 -0.0855548 0.610484 0.787394 1 
0.147413 0.192197 0.0406037 -0.13292 0.628757 0.766157 1 
0.147925 0.192007 0.0405664 -0.13292 0.628757 0.766157 1 
0.147519 0.192598 0.0400219 0.0352673 0.641865 0.766006 1 
0.148003 0.1922 0.0401117 -0.0855548 0.610484 0.787394 1 
0.148493 0.191862 0.0399861 -0.0438426 0.618039 0.784924 1 
0.148601 0.192431 0.0399158 0.0524986 0.603025 0.795993 1 
0.148574 0.192392 0.0405544 -0.0438426 0.618039 0.784924 1 
0.14873 0.192174 0.0403126 -0.0524898 0.614272 0.787347 1 
0.149122 0.192469 0.0401748 0.0820156 0.588498 0.804328 1 
0.145674 0.188331 0.0442093 0.0739865 0.691991 0.718104 1 
0.146315 0.188085 0.0443462 0.0799247 0.696072 0.71351 1 
0.146592 0.187953 0.0442713 0.0799247 0.696072 0.71351 1 
0.148229 0.187521 0.0440155 0.0799247 0.696072 0.71351 1 
0.147896 0.188614 0.0435205 0.0677504 0.676063 0.733723 1 
0.148359 0.18864 0.0435884 0.0677504 0.676063 0.733723 1 
0.148659 0.188655 0.0436017 0.0677504 0.676063 0.733723 1 
0.148588 0.188522 0.0438412 0.0799247 0.696072 0.71351 1 
0.14869 0.188829 0.0442088 0.0799247 0.696072 0.71351 1 
0.14855 0.188086 0.043672 0.0799247 0.696072 0.71351 1 
0.148743 0.188304 0.0435994 0.0799247 0.696072 0.71351 1 
0.149149 0.188317 0.0434762 0.0799247 0.696072 0.71351 1 
0.14883 0.188323 0.0438861 0.0799247 0.696072 0.71351 1 
0.149171 0.188263 0.043787 0.0799247 0.696072 0.71351 1 
0.149193 0.188009 0.0443204 0.0799247 0.696072 0.71351 1 
0.14945 0.188501 0.0440011 0.0770314 0.693282 0.716537 1 
0.149663 0.188698 0.0435052 0.0770314 0.693282 0.716537 1 
0.149685 0.188644 0.0438161 0.0770314 0.693282 0.716537 1 
0.149947 0.188625 0.0432151 0.0708185 0.698068 0.712521 1 
0.149841 0.188426 0.0435743 0.0768828 0.700649 0.709352 1 
0.139976 0.188369 0.0378669 -0.119006 -0.303532 0.94536 1 
0.139501 0.188593 0.0385186 -0.118502 -0.299583 0.946682 1 
0.139785 0.188521 0.0382285 -0.118502 -0.299583 0.946682 1 
0.139634 0.188831 0.0375209 -0.118502 -0.299583 0.946682 1 
0.140255 0.188606 0.038081 -0.121222 -0.297061 0.947132 1 
0.140108 0.189254 0.0383965 -0.121222 -0.297061 0.947132 1 
0.140179 0.189185 0.0383796 -0.121222 -0.297061 0.947132 1 
0.140727 0.189062 0.0382226 -0.121222 -0.297061 0.947132 1 
0.140199 0.190414 0.0388159 -0.129488 -0.28701 0.949135 1 
0.140476 0.190483 0.0385185 -0.129717 -0.290191 0.948136 1 
0.141006 0.189299 0.0384366 -0.121222 -0.297061 0.947132 1 
0.141286 0.189536 0.0386507 -0.121222 -0.297061 0.947132 1 
0.140114 0.190965 0.0385957 -0.165231 -0.32352 0.931683 1 
0.140799 0.191216 0.0386865 -0.211432 -0.319277 0.923774 1 
0.140724 0.190344 0.038348 -0.126092 -0.280058 0.951666 1 
0.14074 0.190632 0.038429 -0.135657 -0.291462 0.946915 1 
0.140983 0.191004 0.0385402 -0.214898 -0.317365 0.923633 1 
0.141003 0.190581 0.0385621 -0.135657 -0.291462 0.946915 1 
0.141478 0.189754 0.0385782 -0.176017 -0.306297 0.935521 1 
0.141538 0.190739 0.0383905 -0.187198 -0.29813 0.935989 1 
0.141992 0.190335 0.0383847 -0.177589 -0.290475 0.940259 1 
0.14062 0.190514 0.0389962 -0.168366 -0.324209 0.930882 1 
0.140226 0.192273 0.0391033 -0.341722 -0.253725 0.904903 1 
0.14061 0.192139 0.0388918 -0.244303 -0.272546 0.93061 1 
0.140761 0.19223 0.0391543 -0.288687 -0.262835 0.92064 1 
0.140909 0.191952 0.0391278 -0.242093 -0.276071 0.930148 1 
0.140845 0.192081 0.0389294 -0.247796 -0.270452 0.930297 1 
0.141271 0.191671 0.038828 -0.238101 -0.295131 0.925314 1 
0.141358 0.19169 0.0391147 -0.220258 -0.284793 0.932941 1 
0.14111 0.190177 0.0388706 -0.180397 -0.287809 0.940544 1 
0.140906 0.190811 0.038995 -0.212351 -0.323514 0.922088 1 
0.141311 0.190824 0.0388718 -0.212351 -0.323514 0.922088 1 
0.141496 0.190613 0.0387255 -0.190701 -0.30206 0.93402 1 
0.141582 0.190632 0.0390122 -0.205972 -0.328135 0.921902 1 
0.141895 0.190365 0.0390401 -0.18306 -0.287665 0.940073 1 
0.141562 0.191055 0.0389903 -0.210889 -0.309965 0.927064 1 
0.141324 0.192395 0.0390782 -0.245755 -0.259798 0.933868 1 
0.141816 0.192427 0.0392416 -0.228588 -0.250754 0.940675 1 
0.141721 0.191978 0.0388813 -0.244303 -0.272546 0.93061 1 
0.141491 0.187652 0.0376668 -0.117349 -0.327768 0.937442 1 
0.141428 0.188149 0.0377573 -0.11598 -0.305282 0.945173 1 
0.141195 0.188778 0.0377861 -0.121222 -0.297061 0.947132 1 
0.14128 0.188427 0.0377838 -0.121222 -0.297061 0.947132 1 
0.141834 0.187961 0.0378566 -0.113926 -0.314973 0.942238 1 
0.14094 0.188856 0.0381719 -0.121222 -0.297061 0.947132 1 
0.141346 0.188869 0.0380486 -0.121222 -0.297061 0.947132 1 
0.141495 0.188592 0.0380221 -0.121222 -0.297061 0.947132 1 
0.141219 0.189093 0.0383859 -0.121222 -0.297061 0.947132 1 
0.141625 0.189106 0.0382627 -0.121222 -0.297061 0.947132 1 
0.141499 0.189331 0.0386 -0.121222 -0.297061 0.947132 1 
0.141838 0.188901 0.038212 -0.121222 -0.297061 0.947132 1 
0.14186 0.188848 0.0385228 -0.121222 -0.297061 0.947132 1 
0.141621 0.188166 0.0379073 -0.11598 -0.305282 0.945173 1 
0.141829 0.188472 0.0381383 -0.121222 -0.297061 0.947132 1 
0.142242 0.188344 0.0380224 -0.121222 -0.297061 0.947132 1 
0.141844 0.18694 0.0372933 -0.0989037 -0.359034 0.928069 1 
0.141604 0.187307 0.03776 -0.112186 -0.33926 0.933979 1 
0.141895 0.186893 0.0376997 -0.104205 -0.353213 0.929721 1 
0.142057 0.186735 0.0372426 -0.104042 -0.349958 0.93097 1 
0.142017 0.186978 0.0378666 -0.106983 -0.35074 0.930342 1 
0.141854 0.187538 0.0378785 -0.114398 -0.327042 0.93806 1 
0.142301 0.188927 0.0382798 -0.121222 -0.297061 0.947132 1 
0.142643 0.188867 0.0381808 -0.176017 -0.306297 0.935521 1 
