0.1594 0.2001 0.0454 -0.544453 0.387493 0.743922 1 
0.1534 0.1951 0.0371 -0.037295 -0.526274 0.849497 1 
0.1528 0.1948 0.0376 -0.0400173 -0.522985 0.851402 1 
0.1531 0.195 0.0374 -0.0400173 -0.522985 0.851402 1 
0.1529 0.1953 0.0367 -0.0400173 -0.522985 0.851402 1 
0.1534 0.1954 0.0374 -0.042935 -0.522145 0.851775 1 
0.1528 0.1957 0.0377 -0.042935 -0.522145 0.851775 1 
0.1529 0.1957 0.0377 -0.042935 -0.522145 0.851775 1 
0.1534 0.196 0.0377 -0.042935 -0.522145 0.851775 1 
0.152 0.1965 0.0382 -0.0573165 -0.521441 0.85136 1 
0.1522 0.1968 0.038 -0.0544496 -0.523554 0.850251 1 
0.1534 0.1963 0.038 -0.042935 -0.522145 0.851775 1 
0.1534 0.1966 0.0383 -0.042935 -0.522145 0.851775 1 
0.1516 0.1969 0.038 -0.0520146 -0.566537 0.822393 1 
0.1519 0.1975 0.0383 -0.0881353 -0.59094 0.801887 1 
0.1525 0.1969 0.0379 -0.0599902 -0.5148 0.855209 1 
0.1523 0.1971 0.038 -0.0574208 -0.527991 0.847307 1 
0.1522 0.1975 0.0382 -0.0912125 -0.592158 0.800643 1 
0.1525 0.1972 0.0382 -0.0574208 -0.527991 0.847307 1 
0.1534 0.1969 0.0383 -0.0725713 -0.562072 0.823898 1 
0.1528 0.1977 0.0382 -0.0878045 -0.562813 0.821908 1 
0.1534 0.1977 0.0383 -0.0876022 -0.552899 0.828631 1 
0.1522 0.1968 0.0385 -0.0550723 -0.56908 0.820436 1 
0.1507 0.1978 0.0386 -0.223054 -0.622366 0.750271 1 
0.1511 0.198 0.0385 -0.144744 -0.580468 0.801315 1 
0.1511 0.1981 0.0388 -0.18153 -0.599507 0.779512 1 
0.1514 0.198 0.0388 -0.141237 -0.581303 0.801336 1 
0.1513 0.1981 0.0386 -0.148017 -0.581604 0.799892 1 
0.1519 0.1981 0.0386 -0.122327 -0.591004 0.797339 1 
0.1519 0.1981 0.0389 -0.119035 -0.574601 0.809731 1 
0.1528 0.1969 0.0385 -0.0904513 -0.552758 0.828419 1 
0.1522 0.1972 0.0386 -0.0853183 -0.594336 0.799678 1 
0.1525 0.1975 0.0386 -0.0851717 -0.596202 0.798304 1 
0.1528 0.1975 0.0385 -0.087726 -0.568062 0.818297 1 
0.1528 0.1975 0.0388 -0.0790698 -0.593742 0.800761 1 
0.1532 0.1975 0.0389 -0.0935203 -0.553928 0.827295 1 
0.1525 0.1978 0.0388 -0.0943458 -0.584944 0.805568 1 
0.1514 0.1986 0.0389 -0.153917 -0.572331 0.805448 1 
0.1517 0.1989 0.0392 -0.15044 -0.555584 0.817737 1 
0.152 0.1986 0.0388 -0.144744 -0.580468 0.801315 1 
0.155 0.1956 0.0373 -0.017742 -0.539085 0.842064 1 
0.1546 0.1959 0.0374 -0.0344549 -0.525093 0.850347 1 
0.154 0.1962 0.0374 -0.042935 -0.522145 0.851775 1 
0.1543 0.196 0.0374 -0.042935 -0.522145 0.851775 1 
0.155 0.196 0.0376 -0.0232807 -0.529978 0.847692 1 
0.1537 0.196 0.0377 -0.042935 -0.522145 0.851775 1 
0.154 0.1963 0.0377 -0.042935 -0.522145 0.851775 1 
0.1543 0.1962 0.0377 -0.042935 -0.522145 0.851775 1 
0.1537 0.1963 0.038 -0.042935 -0.522145 0.851775 1 
0.154 0.1966 0.038 -0.042935 -0.522145 0.851775 1 
0.1537 0.1966 0.0383 -0.042935 -0.522145 0.851775 1 
0.1543 0.1966 0.038 -0.042935 -0.522145 0.851775 1 
0.1543 0.1965 0.0383 -0.042935 -0.522145 0.851775 1 
0.1547 0.196 0.0376 -0.0344549 -0.525093 0.850347 1 
0.1546 0.1963 0.0379 -0.042935 -0.522145 0.851775 1 
0.155 0.1965 0.0379 -0.042935 -0.522145 0.851775 1 
0.1558 0.1954 0.037 0.0178258 -0.549857 0.835069 1 
0.1553 0.1954 0.0374 -0.00679461 -0.544928 0.838455 1 
0.1558 0.1953 0.0374 0.00951977 -0.548067 0.83638 1 
0.1561 0.1954 0.037 0.00953396 -0.54616 0.837627 1 
0.1558 0.1954 0.0376 0.00679999 -0.548079 0.836399 1 
0.1553 0.1957 0.0376 -0.0149787 -0.537872 0.842893 1 
0.1546 0.1969 0.0382 -0.042935 -0.522145 0.851775 1 
0.1549 0.1971 0.0382 -0.0725713 -0.562072 0.823898 1 
0.1552 0.1972 0.0382 -0.0727418 -0.563392 0.822981 1 
0.1556 0.1969 0.0382 -0.0232807 -0.529978 0.847692 1 
0.1555 0.1975 0.0383 -0.069791 -0.56545 0.821825 1 
0.154 0.1966 0.0385 -0.042935 -0.522145 0.851775 1 
0.154 0.1966 0.0388 -0.0725713 -0.562072 0.823898 1 
0.1537 0.1968 0.0386 -0.0725713 -0.562072 0.823898 1 
0.154 0.1966 0.0392 -0.0725713 -0.562072 0.823898 1 
0.1537 0.1974 0.0389 -0.0725713 -0.562072 0.823898 1 
0.1546 0.1969 0.0386 -0.0725713 -0.562072 0.823898 1 
0.1549 0.1974 0.0385 -0.0725713 -0.562072 0.823898 1 
0.1552 0.1974 0.0385 -0.0727418 -0.563392 0.822981 1 
0.1495 0.1995 0.0395 0.150712 -0.294636 0.94365 1 
0.1493 0.1995 0.04 0.14652 -0.28363 0.947674 1 
0.1495 0.1998 0.0398 0.0747024 -0.326332 0.942299 1 
0.1496 0.1995 0.0394 0.14756 -0.296474 0.943573 1 
0.1498 0.1996 0.0394 0.0726718 -0.342218 0.936806 1 
0.1486 0.2008 0.0398 0.0743857 -0.253416 0.964493 1 
0.149 0.2001 0.04 0.128104 -0.268094 0.954838 1 
0.1493 0.2002 0.0398 0.062803 -0.298635 0.952299 1 
0.1492 0.2007 0.0398 0.0184089 -0.276133 0.960943 1 
0.1496 0.2007 0.0397 0.013594 -0.295361 0.955289 1 
0.1489 0.201 0.0398 0.0385562 -0.272381 0.961417 1 
0.149 0.2011 0.04 -0.0387916 -0.286558 0.957277 1 
0.1496 0.2013 0.04 -0.0577457 -0.304127 0.95088 1 
0.1499 0.2011 0.0398 -0.0851203 -0.310362 0.9468 1 
0.1487 0.1995 0.0403 0.190797 -0.242217 0.951277 1 
0.1493 0.1992 0.04 0.207466 -0.256928 0.9439 1 
0.1496 0.1995 0.0406 0.0585028 -0.328916 0.942545 1 
0.1493 0.1987 0.0409 0.251998 -0.216195 0.943269 1 
0.1486 0.2001 0.0401 0.116221 -0.265089 0.957194 1 
0.1486 0.2002 0.0403 0.107088 -0.254173 0.961212 1 
0.1483 0.2008 0.0406 -0.0373286 -0.222768 0.974157 1 
0.1487 0.201 0.0404 -0.0183038 -0.269675 0.962777 1 
0.1481 0.2013 0.0406 -0.233838 -0.180389 0.955395 1 
0.1487 0.2013 0.0404 -0.116327 -0.223706 0.96769 1 
0.149 0.2004 0.0403 0.0259517 -0.278054 0.960215 1 
0.1496 0.2001 0.0401 0.0632215 -0.310947 0.948322 1 
0.149 0.2007 0.0401 -0.00611174 -0.289697 0.957099 1 
0.149 0.2001 0.0406 0.0362662 -0.288879 0.956678 1 
0.149 0.201 0.0403 -0.0387916 -0.286558 0.957277 1 
0.1489 0.2016 0.0401 -0.152916 -0.220878 0.963239 1 
0.1501 0.2013 0.0401 -0.158997 -0.322142 0.933244 1 
0.1504 0.2002 0.0395 0.237547 -0.243104 0.940464 1 
0.1484 0.2023 0.04 -0.250091 -0.185202 0.950345 1 
0.1487 0.2025 0.04 -0.250091 -0.185202 0.950345 1 
0.1478 0.2019 0.0403 -0.233838 -0.180389 0.955395 1 
0.1481 0.2022 0.04 -0.233838 -0.180389 0.955395 1 
0.1487 0.2016 0.0404 -0.189013 -0.20223 0.960925 1 
0.1487 0.2025 0.0403 -0.250091 -0.185202 0.950345 1 
0.1484 0.2026 0.0403 -0.250091 -0.185202 0.950345 1 
0.1481 0.2028 0.0403 -0.234528 -0.204703 0.950312 1 
0.1495 0.2016 0.0403 -0.116933 -0.271969 0.955175 1 
0.149 0.202 0.0401 -0.201103 -0.206431 0.957572 1 
0.1492 0.2022 0.0403 -0.201103 -0.206431 0.957572 1 
0.1495 0.2019 0.0406 -0.185421 -0.225439 0.95645 1 
0.1499 0.2017 0.0401 -0.101943 -0.305829 0.946613 1 
0.149 0.2025 0.0403 -0.250091 -0.185202 0.950345 1 
0.149 0.2025 0.0403 -0.250091 -0.185202 0.950345 1 
0.149 0.2029 0.0403 -0.250091 -0.185202 0.950345 1 
0.1489 0.2026 0.0406 -0.250091 -0.185202 0.950345 1 
0.1493 0.2026 0.0404 -0.250091 -0.185202 0.950345 1 
0.1498 0.2028 0.0403 -0.237947 -0.186863 0.953133 1 
0.1501 0.2026 0.0406 -0.225652 -0.204033 0.952603 1 
0.149 0.2019 0.0409 -0.250091 -0.185202 0.950345 1 
0.149 0.2022 0.0409 -0.250091 -0.185202 0.950345 1 
0.149 0.2022 0.0412 -0.250091 -0.185202 0.950345 1 
0.1504 0.2031 0.0409 -0.237831 -0.202496 0.949964 1 
0.1481 0.2037 0.0404 -0.239051 -0.19043 0.952151 1 
0.1483 0.2044 0.0403 -0.269455 -0.184652 0.945144 1 
0.1487 0.2043 0.0404 -0.273639 -0.172896 0.946165 1 
0.1483 0.2044 0.0406 -0.269455 -0.184652 0.945144 1 
0.1486 0.2047 0.0406 -0.268988 -0.200016 0.942146 1 
0.1489 0.2034 0.0404 -0.234528 -0.204703 0.950312 1 
0.1493 0.2034 0.0406 -0.237831 -0.202496 0.949964 1 
0.149 0.2038 0.0406 -0.240524 -0.199757 0.949866 1 
0.1496 0.2038 0.0407 -0.251254 -0.18878 0.949333 1 
0.1496 0.2034 0.0406 -0.243577 -0.202754 0.948452 1 
0.1499 0.2035 0.0407 -0.24088 -0.205497 0.94855 1 
0.1493 0.2037 0.0409 -0.249695 -0.17951 0.95154 1 
0.149 0.2043 0.0409 -0.273639 -0.172896 0.946165 1 
0.1496 0.2044 0.041 -0.271134 -0.19406 0.942776 1 
0.1499 0.2043 0.041 -0.261951 -0.19612 0.944944 1 
0.1501 0.2041 0.0409 -0.249601 -0.197771 0.947938 1 
0.1499 0.2046 0.0413 -0.266277 -0.202812 0.942318 1 
0.1502 0.2046 0.0412 -0.262344 -0.201909 0.943615 1 
0.1504 0.2022 0.0406 -0.210284 -0.226564 0.951025 1 
0.151 0.2023 0.0411 -0.200809 -0.200809 0.958828 1 
0.1508 0.2028 0.041 -0.22194 -0.203109 0.953671 1 
0.151 0.2031 0.0413 -0.208625 -0.214009 0.954293 1 
0.1507 0.2034 0.0413 -0.242217 -0.190797 0.951277 1 
0.1507 0.2046 0.0415 -0.25655 -0.201673 0.945257 1 
0.151 0.2041 0.0418 -0.239278 -0.211932 0.94754 1 
0.1507 0.2052 0.0418 -0.301099 -0.216282 0.928742 1 
0.1335 0.1838 0.034 0.941153 -0.294538 -0.165764 2 
0.1337 0.1841 0.0344 0.93004 -0.326696 -0.168214 2 
0.1341 0.1847 0.0343 0.912381 -0.368653 -0.177921 2 
0.1332 0.185 0.0343 0.912381 -0.368653 -0.177921 2 
0.1332 0.1844 0.0347 0.93004 -0.326696 -0.168214 2 
0.1335 0.1844 0.0346 0.93004 -0.326696 -0.168214 2 
0.1329 0.1847 0.0346 0.93004 -0.326696 -0.168214 2 
0.1335 0.1844 0.035 0.93004 -0.326696 -0.168214 2 
0.1334 0.1846 0.035 0.93004 -0.326696 -0.168214 2 
0.1344 0.1846 0.0346 0.912804 -0.370516 -0.171772 2 
0.1341 0.1843 0.035 0.93004 -0.326696 -0.168214 2 
0.1329 0.185 0.035 0.93004 -0.326696 -0.168214 2 
0.1332 0.1847 0.0353 0.93004 -0.326696 -0.168214 2 
0.1341 0.1841 0.0355 0.947148 -0.27042 -0.172579 2 
0.1341 0.1844 0.0358 0.947148 -0.27042 -0.172579 2 
0.1337 0.1846 0.0356 0.935223 -0.313583 -0.164389 2 
0.1341 0.1843 0.0362 0.955511 -0.226482 -0.188958 2 
0.1337 0.1853 0.0374 0.719465 -0.694416 0.0125245 2 
0.1341 0.1855 0.0374 0.955511 -0.226482 -0.188958 2 
0.1344 0.1838 0.0362 0.719465 -0.694416 0.0125245 2 
0.1344 0.1841 0.0364 0.9564 -0.220708 -0.19128 2 
0.1344 0.1853 0.037 0.955511 -0.226482 -0.188958 2 
0.1344 0.1858 0.0365 0.920993 -0.354659 -0.161209 2 
0.1344 0.1856 0.0374 0.955511 -0.226482 -0.188958 2 
0.1278 0.2013 0.0316 -0.771842 -0.145376 0.618972 1 
0.1275 0.2022 0.0308 -0.850198 -0.139017 0.507777 1 
0.1269 0.2029 0.0306 -0.88895 -0.204238 0.409945 1 
0.1266 0.2028 0.031 -0.88895 -0.204238 0.409945 1 
0.1269 0.2031 0.0309 -0.88895 -0.204238 0.409945 1 
0.1275 0.2029 0.0308 -0.871033 -0.265097 0.413551 1 
0.1272 0.2028 0.0308 -0.871033 -0.265097 0.413551 1 
0.1273 0.2031 0.031 -0.861266 -0.343582 0.374396 1 
0.1272 0.2031 0.0311 -0.871033 -0.265097 0.413551 1 
0.1275 0.2019 0.0316 -0.802966 -0.1739 0.570091 1 
0.1273 0.202 0.0313 -0.805527 -0.0789732 0.587273 1 
0.1278 0.2016 0.032 -0.770129 -0.181476 0.611529 1 
0.1275 0.2022 0.0317 -0.812189 -0.163639 0.559975 1 
0.1269 0.2025 0.0314 -0.853776 -0.107619 0.509396 1 
0.127 0.2029 0.0313 -0.859767 -0.0892345 0.502829 1 
0.1276 0.2031 0.0313 -0.805815 -0.150997 0.572592 1 
0.1275 0.2025 0.0316 -0.55793 -0.818396 -0.137633 1 
0.1273 0.2034 0.0314 -0.861266 -0.343582 0.374396 1 
0.1278 0.2005 0.0332 -0.686778 -0.0296146 0.726264 1 
0.127 0.201 0.0331 -0.770129 -0.181476 0.611529 1 
0.1273 0.2011 0.0331 -0.770129 -0.181476 0.611529 1 
0.1278 0.201 0.0328 -0.478091 -0.840887 -0.25365 1 
0.1278 0.1995 0.0338 -0.528668 -0.00134521 0.848828 1 
0.1278 0.2025 0.0332 0.590233 -0.1947 -0.783401 1 
0.1276 0.2035 0.0328 -0.55793 -0.818396 -0.137633 1 
0.1276 0.2017 0.034 -0.478091 -0.840887 -0.25365 1 
0.1281 0.2029 0.0311 -0.500539 -0.848093 -0.173777 1 
0.1281 0.1983 0.0326 -0.195221 -0.00808608 0.980726 1 
0.1288 0.1978 0.0328 -0.235855 -0.0326569 0.971239 1 
0.1281 0.1996 0.0329 -0.654859 -0.0468771 0.754296 1 
0.1288 0.1998 0.0329 -0.654789 -0.101529 0.748961 1 
0.1302 0.199 0.0332 -0.306222 -0.0658959 0.949677 1 
0.1281 0.2001 0.0326 -0.668016 -0.0739019 0.740469 1 
0.1282 0.201 0.032 -0.478091 -0.840887 -0.25365 1 
0.1284 0.201 0.0323 -0.739959 -0.192297 0.64458 1 
0.1287 0.2011 0.0323 -0.478091 -0.840887 -0.25365 1 
0.1284 0.2008 0.0325 -0.714909 -0.156339 0.681516 1 
0.1284 0.2013 0.0326 -0.478091 -0.840887 -0.25365 1 
0.1296 0.2013 0.0322 -0.751998 -0.2402 0.613844 1 
0.1293 0.2016 0.0328 -0.478091 -0.840887 -0.25365 1 
0.1284 0.2001 0.0332 -0.65259 -0.035237 0.756892 1 
0.1281 0.2002 0.0332 -0.66025 -0.032379 0.750348 1 
0.1287 0.2001 0.0332 -0.64993 -0.0294785 0.759422 1 
0.1294 0.2004 0.0334 -0.64523 -0.0707299 0.760707 1 
0.1287 0.2016 0.0328 -0.478091 -0.840887 -0.25365 1 
0.1285 0.2016 0.0332 -0.478091 -0.840887 -0.25365 1 
0.1297 0.201 0.0331 -0.705619 -0.159333 0.690445 1 
0.13 0.2011 0.0332 -0.670604 -0.129939 0.730346 1 
0.13 0.2011 0.0335 -0.683033 -0.143241 0.716204 1 
0.1281 0.1998 0.0337 -0.601533 0.00137023 0.798847 1 
0.1284 0.1998 0.0337 -0.550533 -0.0150269 0.834678 1 
0.1311 0.1993 0.0341 -0.40643 -0.130789 0.904272 1 
0.1311 0.1998 0.0347 -0.431335 -0.113805 0.894985 1 
0.1281 0.2014 0.0338 -0.478091 -0.840887 -0.25365 1 
0.1297 0.201 0.0338 -0.658195 -0.0828192 0.748279 1 
0.1303 0.201 0.0337 -0.568335 -0.0968918 0.817072 1 
0.1302 0.2013 0.0338 -0.583578 -0.0941255 0.806583 1 
0.1306 0.2013 0.0337 -0.536533 -0.0574356 0.841923 1 
0.1305 0.2013 0.034 -0.51674 -0.0484877 0.854768 1 
0.1306 0.2013 0.034 -0.494823 -0.0340787 0.868325 1 
0.1311 0.201 0.0343 -0.437527 -0.078672 0.895757 1 
0.1306 0.2001 0.0344 -0.438765 -0.0756492 0.895412 1 
0.1302 0.2016 0.0346 -0.471484 0.0942967 0.876819 1 
0.1309 0.2014 0.0346 -0.392363 -0.00385931 0.919802 1 
0.1314 0.2007 0.0344 -0.438855 -0.0729132 0.895595 1 
0.1282 0.2017 0.0322 -0.478091 -0.840887 -0.25365 1 
0.1285 0.2022 0.0328 -0.489786 -0.853031 -0.180134 1 
0.1294 0.2016 0.0326 -0.478091 -0.840887 -0.25365 1 
0.129 0.202 0.0326 -0.478091 -0.840887 -0.25365 1 
0.1285 0.2019 0.0329 -0.478091 -0.840887 -0.25365 1 
0.129 0.2019 0.0329 -0.478091 -0.840887 -0.25365 1 
0.1294 0.2023 0.0329 -0.489786 -0.853031 -0.180134 1 
0.1282 0.2025 0.0331 0.587752 -0.190829 -0.786214 1 
0.1281 0.2028 0.0328 0.496827 -0.377071 -0.781653 1 
0.1297 0.2017 0.0334 -0.764943 -0.270818 0.584397 1 
0.1282 0.2017 0.0337 -0.478091 -0.840887 -0.25365 1 
0.1284 0.2016 0.034 -0.478091 -0.840887 -0.25365 1 
0.1291 0.2019 0.034 -0.478091 -0.840887 -0.25365 1 
0.1288 0.2025 0.0338 -0.520779 -0.846807 -0.108195 1 
0.1344 0.1969 0.0413 0.333227 0.684334 -0.648573 1 
0.1341 0.1978 0.0415 0.28723 0.691598 -0.662715 1 
0.1356 0.1968 0.0407 0.682729 0.514983 -0.518337 1 
0.1347 0.1968 0.0412 0.520782 0.621904 -0.584826 1 
0.1368 0.196 0.0409 0.940206 0.214627 -0.264476 1 
0.1368 0.1966 0.0415 0.770834 0.474234 -0.425344 1 
0.1371 0.1963 0.0415 0.804686 0.441694 -0.396721 1 
0.135 0.1969 0.0409 0.521808 0.62313 -0.582602 1 
0.1347 0.1969 0.0415 0.402316 0.65066 -0.644037 1 
0.1353 0.1969 0.0409 0.570395 0.597476 -0.563625 1 
0.1353 0.1971 0.0411 0.542271 0.630115 -0.555785 1 
0.1356 0.1974 0.041 0.523914 0.655314 -0.54413 1 
0.1362 0.1971 0.0412 0.661536 0.581147 -0.473961 1 
0.1352 0.1972 0.0416 0.402303 0.640705 -0.653949 1 
0.1371 0.1975 0.0421 0.948877 0.0579368 0.310284 1 
0.1364 0.1981 0.0419 0.186727 0.557144 -0.80915 1 
0.1371 0.198 0.0422 0.908389 0.285243 0.305722 1 
0.1368 0.198 0.0424 0.866965 0.389905 0.310395 1 
0.1367 0.1983 0.0431 0.866965 0.389905 0.310395 1 
0.1371 0.1978 0.0427 0.942541 0.22494 0.24702 1 
0.1374 0.1977 0.0424 0.949691 0.221459 0.221459 1 
0.1374 0.1981 0.0433 0.940418 0.274807 0.200236 1 
0.1377 0.1977 0.0427 0.949691 0.221459 0.221459 1 
0.1332 0.1999 0.0415 0.437564 0.277892 -0.855169 1 
0.1341 0.1993 0.0415 0.300625 0.551941 -0.777808 1 
0.1326 0.2001 0.0409 0.320335 0.234146 -0.917911 1 
0.1329 0.2001 0.0409 0.392409 0.269124 -0.879538 1 
0.1334 0.2002 0.0415 0.437564 0.277892 -0.855169 1 
0.1338 0.2001 0.0411 0.383839 0.399635 -0.832442 1 
0.1341 0.1992 0.0419 0.35668 0.52453 -0.773077 1 
0.1344 0.1993 0.0416 0.239128 0.526082 -0.816122 1 
0.1338 0.2007 0.0419 0.432071 0.242381 -0.868658 1 
0.1347 0.1998 0.0418 0.300625 0.551941 -0.777808 1 
0.1347 0.1995 0.0422 0.33846 0.514908 -0.787601 1 
0.1356 0.1995 0.0418 0.239128 0.526082 -0.816122 1 
0.1361 0.1986 0.0421 0.239128 0.526082 -0.816122 1 
0.1362 0.1998 0.0424 0.245416 0.507811 -0.825772 1 
0.1365 0.1987 0.0425 0.158046 0.503678 -0.849311 1 
0.1365 0.1989 0.0427 0.158046 0.503678 -0.849311 1 
0.137 0.1987 0.0431 0.860973 0.431249 0.269721 1 
0.1374 0.1992 0.043 0.90534 0.336017 0.259717 1 
0.1361 0.1996 0.0425 0.239128 0.526082 -0.816122 1 
0.1365 0.1995 0.0431 0.396431 0.507367 -0.765128 1 
0.1364 0.1998 0.043 0.400822 0.515343 -0.757472 1 
0.1368 0.1998 0.0431 0.394758 0.498727 -0.771646 1 
0.135 0.2002 0.0418 0.386421 0.529902 -0.754906 1 
0.1347 0.2007 0.0424 0.427317 0.252163 -0.868225 1 
0.1353 0.2002 0.0418 0.304578 0.546965 -0.779783 1 
0.1356 0.2004 0.0419 0.372089 0.534574 -0.758802 1 
0.1356 0.2004 0.0422 0.421948 0.504039 -0.753595 1 
0.1353 0.201 0.0419 0.426048 0.308304 -0.850548 1 
0.1347 0.2004 0.0425 0.440818 0.281079 -0.852452 1 
0.1347 0.2011 0.0424 0.439907 0.213243 -0.872358 1 
0.1341 0.1909 0.0376 -0.587458 0.288157 0.756213 1 
0.1337 0.1915 0.037 -0.580917 0.299261 0.756953 1 
0.1338 0.1915 0.0374 -0.576599 0.316407 0.753273 1 
0.1338 0.1918 0.0374 -0.58833 0.291773 0.754146 1 
0.1341 0.1919 0.0374 -0.582723 0.29216 0.758338 1 
0.1344 0.1906 0.0382 -0.602822 0.289419 0.743534 1 
0.1341 0.1912 0.038 -0.588229 0.306136 0.74851 1 
0.1341 0.1912 0.0377 -0.588229 0.306136 0.74851 1 
0.1341 0.1916 0.0377 -0.595866 0.289147 0.749225 1 
0.1341 0.1919 0.0376 -0.593201 0.278312 0.755417 1 
0.1341 0.1915 0.0383 -0.603973 0.285254 0.744209 1 
0.1341 0.1916 0.038 -0.598468 0.285669 0.748484 1 
0.1341 0.1919 0.038 -0.599623 0.281521 0.749132 1 
0.1344 0.1906 0.0379 -0.593562 0.284846 0.752693 1 
0.1323 0.1951 0.0344 -0.422541 -0.837228 -0.347143 1 
0.1316 0.1941 0.035 -0.602906 0.267431 0.751655 1 
0.1314 0.1945 0.0349 -0.534746 -0.801335 -0.268157 1 
0.132 0.1922 0.0358 -0.734427 0.0296026 0.678041 1 
0.1316 0.193 0.0358 -0.82431 -0.156514 0.544074 1 
0.1317 0.1931 0.0358 -0.852687 -0.337037 0.399163 1 
0.1323 0.1931 0.0355 -0.864692 -0.399442 0.304555 1 
0.1317 0.1921 0.0361 -0.509436 -0.835959 -0.204077 1 
0.132 0.1921 0.0362 -0.499307 -0.848077 -0.177366 1 
0.1323 0.1924 0.0362 -0.837496 -0.253554 0.484057 1 
0.1323 0.1927 0.0362 -0.755705 -0.0411171 0.653621 1 
0.1326 0.1922 0.0365 -0.596736 0.232151 0.768122 1 
0.1326 0.1925 0.0365 -0.506305 -0.843841 -0.177729 1 
0.1329 0.1927 0.0365 -0.576563 0.281134 0.767163 1 
0.1329 0.1931 0.0364 -0.781665 -0.110405 0.61385 1 
0.1335 0.193 0.0368 -0.592299 0.228525 0.772631 1 
0.1335 0.1933 0.0364 -0.606002 0.229003 0.761787 1 
0.1344 0.193 0.0368 -0.576853 0.24231 0.780081 1 
0.132 0.1938 0.0353 -0.727629 -0.685731 -0.0181558 1 
0.1319 0.1942 0.0352 -0.802966 -0.570091 0.1739 1 
0.1325 0.1938 0.0356 -0.848441 -0.331593 0.412545 1 
0.1325 0.1941 0.0356 -0.854681 -0.300293 0.423491 1 
0.1331 0.1922 0.037 -0.560606 0.28745 0.776591 1 
0.1335 0.1924 0.037 -0.569498 0.280783 0.77255 1 
0.1335 0.1927 0.0368 -0.594066 0.211395 0.776143 1 
0.1341 0.1924 0.0376 -0.589236 0.249836 0.768364 1 
0.1338 0.1925 0.0373 -0.576864 0.218064 0.787195 1 
0.1341 0.1927 0.0374 -0.582741 0.207573 0.785701 1 
0.1338 0.1928 0.037 -0.570864 0.180193 0.801027 1 
0.1341 0.193 0.0368 -0.572516 0.231178 0.786627 1 
0.1341 0.193 0.0371 -0.578388 0.235408 0.781057 1 
0.1341 0.1933 0.037 -0.572385 0.238624 0.784496 1 
0.1341 0.193 0.0374 -0.586853 0.245696 0.771516 1 
0.1341 0.1934 0.0374 -0.582273 0.249545 0.773748 1 
0.1341 0.1924 0.0379 -0.589236 0.249836 0.768364 1 
0.1341 0.1927 0.0377 -0.581344 0.221686 0.782876 1 
0.1341 0.1922 0.0382 -0.591825 0.291925 0.751347 1 
0.1344 0.1933 0.0377 -0.582273 0.249545 0.773748 1 
0.1344 0.1936 0.0379 -0.594724 0.232582 0.769551 1 
0.1329 0.1953 0.0358 -0.376684 -0.893701 -0.243737 1 
0.1337 0.1953 0.0356 -0.633811 0.282581 0.720022 1 
0.1347 0.1921 0.0364 -0.503151 0.627677 0.594021 1 
0.1347 0.1933 0.0365 -0.549194 0.304046 0.778423 1 
0.1347 0.1934 0.0373 -0.58972 0.256331 0.765849 1 
0.1344 0.1936 0.0376 -0.59077 0.24289 0.769412 1 
0.1344 0.1927 0.0379 -0.576864 0.218064 0.787195 1 
0.1346 0.1924 0.0382 -0.584175 0.256659 0.769978 1 
0.135 0.1924 0.0382 -0.535788 0.236241 0.81063 1 
0.1347 0.193 0.0382 -0.588604 0.260374 0.765343 1 
0.1349 0.1933 0.0382 -0.619573 0.229413 0.750666 1 
0.1368 0.1924 0.0377 0.126859 -0.744737 0.65519 1 
0.1352 0.1936 0.037 -0.352023 0.271815 0.895654 1 
0.1355 0.1939 0.0371 -0.168087 -0.128244 0.977395 1 
0.1346 0.1939 0.0376 -0.60359 0.23239 0.762676 1 
0.1344 0.1939 0.038 -0.640183 0.178762 0.747135 1 
0.1353 0.1936 0.0379 -0.520615 0.111045 0.84654 1 
0.1353 0.1936 0.0382 -0.597181 0.100747 0.795754 1 
0.1356 0.1939 0.038 -0.393726 -0.0771215 0.915987 1 
0.1356 0.1939 0.0383 -0.55939 -0.00680523 0.828877 1 
0.1358 0.1942 0.038 -0.268149 -0.253962 0.929301 1 
0.1365 0.1936 0.0382 0.104385 -0.302583 0.94739 1 
0.1364 0.1948 0.0376 0.131 -0.473616 0.870935 1 
0.1365 0.1951 0.0382 -0.123823 -0.445479 0.886688 1 
0.1371 0.1948 0.0382 0.0484164 -0.504913 0.861811 1 
0.1347 0.1966 0.0368 -0.692968 0.055954 0.718793 1 
0.1344 0.1968 0.0374 -0.822802 0.242364 0.514058 1 
0.1359 0.1966 0.0371 -0.856983 0.0835735 0.508524 1 
0.1353 0.1962 0.0373 -0.788719 0.0525813 0.612501 1 
0.1347 0.1966 0.0379 -0.828123 0.0606632 0.557255 1 
0.1349 0.1965 0.0382 -0.889696 0.0788688 0.449691 1 
0.1353 0.1966 0.0377 -0.898782 0.0812069 0.43081 1 
0.1371 0.1954 0.0376 0.300402 -0.498574 0.813131 1 
0.1367 0.1966 0.0371 -0.947337 0.300763 0.109971 1 
0.1364 0.1965 0.0374 -0.847307 0.0040541 0.531087 1 
0.1368 0.1954 0.0376 0.105377 -0.52977 0.84157 1 
0.1365 0.1953 0.0379 -0.130231 -0.456522 0.880129 1 
0.1367 0.1954 0.0379 0.0120703 -0.492198 0.870399 1 
0.1371 0.1957 0.0379 0.0746545 -0.508496 0.857822 1 
0.1344 0.1972 0.037 -0.716925 -0.0677978 0.693845 1 
0.135 0.1969 0.0374 -0.877095 0.097455 0.470326 1 
0.1352 0.1971 0.0374 -0.891465 0.00924482 0.452996 1 
0.1353 0.1969 0.0377 -0.937558 0.105961 0.331297 1 
0.1344 0.191 0.0385 -0.62114 0.28582 0.72972 1 
0.1353 0.1916 0.0388 -0.541661 0.317966 0.778139 1 
0.1359 0.1918 0.0391 -0.38971 0.205802 0.897648 1 
0.135 0.1921 0.0386 -0.104063 -0.622911 0.775341 1 
0.135 0.1924 0.0386 -0.595313 0.29207 0.74853 1 
0.1359 0.1927 0.0391 -0.323421 -0.0610472 0.944284 1 
0.135 0.1928 0.0385 -0.564303 0.25167 0.786273 1 
0.1352 0.1933 0.0385 -0.599578 0.161599 0.783831 1 
0.1353 0.193 0.0386 -0.535602 0.172533 0.826658 1 
0.1356 0.1931 0.0388 -0.441054 0.0335147 0.896855 1 
0.1362 0.1934 0.0392 -0.143248 -0.317874 0.937249 1 
0.1365 0.1922 0.0394 -0.0139072 -0.342623 0.93937 1 
0.1364 0.1927 0.0392 -0.0338244 -0.291892 0.955853 1 
0.1374 0.1924 0.0398 -0.0323681 -0.363818 0.930908 1 
0.1364 0.193 0.0392 -0.0695381 -0.331946 0.940732 1 
0.1368 0.193 0.0398 -0.0142456 -0.389812 0.920784 1 
0.1371 0.1936 0.04 0.00391064 -0.428867 0.903359 1 
0.1368 0.1948 0.0385 0.0256427 -0.481812 0.875899 1 
0.1371 0.1945 0.0386 0.155575 -0.455094 0.876747 1 
0.1371 0.1939 0.0395 0.0275625 -0.402937 0.914812 1 
0.1371 0.1939 0.0398 0.0145786 -0.446636 0.894597 1 
0.137 0.193 0.0403 -0.0248718 -0.396639 0.917638 1 
0.1371 0.1939 0.0401 0.0387699 -0.429143 0.902404 1 
0.1358 0.1954 0.0386 -0.860374 0.0685501 0.505032 1 
0.1362 0.1954 0.0388 -0.850074 -0.0176815 0.526366 1 
0.1371 0.1965 0.0398 0.9173 0.213226 -0.336296 1 
0.1368 0.1968 0.04 0.852366 0.355541 -0.383487 1 
0.1365 0.1969 0.0392 0.88429 0.283753 -0.370831 1 
0.1365 0.1969 0.0395 0.861339 0.322039 -0.392919 1 
0.137 0.1971 0.0394 0.862372 0.350194 -0.365621 1 
0.1371 0.1972 0.0395 0.826012 0.42014 -0.375748 1 
0.1368 0.1971 0.0398 0.821215 0.408225 -0.398695 1 
0.1371 0.1972 0.0398 0.797903 0.449727 -0.401369 1 
0.137 0.1978 0.0394 0.64024 0.603271 -0.475559 1 
0.1371 0.1981 0.0394 0.602306 0.639216 -0.478154 1 
0.1371 0.1977 0.0397 0.651809 0.604892 -0.457439 1 
0.1216 0.2008 0.003 0.3872 0.912785 0.129998 0 
0.1212 0.201 0.0032 0.3872 0.912785 0.129998 0 
0.1216 0.201 0.0034 0.401405 0.899204 0.174086 0 
0.1216 0.2011 0.0037 0.380955 0.90887 0.169789 0 
0.121 0.2016 0.0053 0.385806 0.904994 0.179278 0 
0.1207 0.2014 0.0058 0.378047 0.907026 0.18543 0 
0.1213 0.2013 0.0056 0.377346 0.909903 0.172298 0 
0.1207 0.2016 0.005 0.405909 0.897044 0.174786 0 
0.1218 0.2008 0.0034 0.393683 0.903323 0.170357 0 
0.1222 0.2013 0.0038 0.360675 0.913804 0.186752 0 
0.1219 0.2013 0.0043 0.37096 0.909497 0.187628 0 
0.1222 0.2016 0.0044 0.358737 0.913279 0.192946 0 
0.1227 0.2016 0.004 0.356516 0.916146 0.183229 0 
0.1228 0.201 0.0047 0.310258 0.933557 0.179477 0 
0.1227 0.2016 0.0046 0.348983 0.91979 0.179437 0 
0.1219 0.2014 0.0053 0.359177 0.915688 0.180298 0 
0.1222 0.2014 0.0054 0.308955 0.935177 0.173181 0 
0.1227 0.2016 0.005 0.310258 0.933557 0.179477 0 
0.123 0.201 0.0054 0.811689 -0.0292375 -0.583358 0 
0.1227 0.2016 0.0053 0.306856 0.937079 0.1665 0 
0.1224 0.2004 0.006 0.821545 -0.0290935 -0.569401 0 
0.1227 0.2007 0.0058 0.816126 -0.0319777 -0.576989 0 
0.123 0.2005 0.0058 0.819121 -0.0207198 -0.573247 0 
0.1227 0.2002 0.006 0.819121 -0.0207198 -0.573247 0 
0.1225 0.2002 0.0064 0.823734 -0.029073 -0.566231 0 
0.123 0.2002 0.006 0.81846 -0.0123386 -0.57443 0 
0.1233 0.2007 0.0053 0.81162 -0.0320193 -0.583308 0 
0.1233 0.2007 0.0058 0.818121 -0.00682905 -0.575006 0 
0.1237 0.2007 0.0058 0.815925 0.00683354 -0.578118 0 
0.1233 0.2004 0.006 0.821564 -0.00956896 -0.570037 0 
0.1233 0.2004 0.0064 0.818133 0.00409749 -0.575015 0 
0.124 0.2004 0.0061 0.819894 0.0377123 -0.571272 0 
0.1237 0.2007 0.0061 0.82121 0.00136187 -0.570625 0 
0.1222 0.2016 0.0048 0.343829 0.921122 0.182526 0 
0.1222 0.2019 0.0052 0.351638 0.919342 0.176525 0 
0.1219 0.2019 0.0056 0.359177 0.915688 0.180298 0 
0.1263 0.1983 0.0118 0.850604 -0.1265 -0.510363 0 
0.1266 0.1981 0.0121 0.867825 -0.0624834 -0.492925 0 
0.1269 0.1983 0.0121 0.874395 0.381692 -0.299575 0 
0.1231 0.1998 0.0064 0.82121 0.00136187 -0.570625 0 
0.1228 0.1999 0.0066 0.82121 0.00136187 -0.570625 0 
0.1228 0.1995 0.007 0.819406 0.00683978 -0.573173 0 
0.1228 0.1999 0.007 0.821582 -0.00683512 -0.570049 0 
0.1231 0.1998 0.0072 0.815662 0.0521235 -0.576176 0 
0.1231 0.1998 0.0076 0.807688 0.0551661 -0.587024 0 
0.1236 0.1998 0.0069 0.812549 0.0581405 -0.579987 0 
0.1233 0.1999 0.0075 0.80778 0.0610449 -0.586315 0 
0.124 0.1999 0.0072 0.814841 0.0727791 -0.575098 0 
0.1234 0.1995 0.0078 0.808045 0.0700782 -0.584938 0 
0.1234 0.1999 0.0078 0.803007 0.0552333 -0.593404 0 
0.124 0.1998 0.0076 0.809548 0.0377509 -0.585839 0 
0.1243 0.1999 0.0075 0.81698 0.0608841 -0.573443 0 
0.1246 0.1998 0.0072 0.822653 0.105915 -0.558591 0 
0.1248 0.1998 0.0076 0.825784 0.124674 -0.550034 0 
0.1245 0.1995 0.0078 0.826242 0.136971 -0.54641 0 
0.1243 0.1999 0.0078 0.825784 0.124674 -0.550034 0 
0.1237 0.2004 0.0064 0.820571 0.0319343 -0.570651 0 
0.1237 0.2001 0.0069 0.812549 0.0581405 -0.579987 0 
0.124 0.2002 0.0069 0.809231 0.0730456 -0.582932 0 
0.1243 0.2004 0.0064 0.813509 0.0580067 -0.578652 0 
0.1243 0.2001 0.0069 0.815047 0.0759182 -0.5744 0 
0.124 0.2001 0.0072 0.807569 0.0493279 -0.587707 0 
0.1243 0.2001 0.0072 0.813747 0.0610665 -0.578002 0 
0.1246 0.2001 0.0069 0.814841 0.0727791 -0.575098 0 
0.1246 0.2001 0.0078 0.826809 0.127766 -0.547779 0 
0.1242 0.1992 0.0084 0.824369 0.289389 -0.486487 0 
0.1242 0.1992 0.0088 0.808479 0.361982 -0.464038 0 
0.1239 0.1993 0.0082 0.82437 0.172682 -0.539069 0 
0.1237 0.1998 0.0081 0.809125 0.0611465 -0.584447 0 
0.124 0.1998 0.0088 0.812863 0.334335 -0.476943 0 
0.124 0.1995 0.0084 0.828965 0.16878 -0.533226 0 
0.1245 0.1995 0.0082 0.82487 0.292696 -0.483652 0 
0.1243 0.1998 0.0082 0.825989 0.146809 -0.544233 0 
0.1248 0.1999 0.0082 0.81409 0.33484 -0.474489 0 
0.124 0.1995 0.0087 0.812863 0.334335 -0.476943 0 
0.1243 0.1996 0.0084 0.820853 0.313531 -0.477387 0 
0.1248 0.1999 0.0085 0.785466 0.419455 -0.455084 0 
0.1242 0.1992 0.009 0.802915 0.383027 -0.456748 0 
0.124 0.1995 0.009 0.808479 0.361982 -0.464038 0 
0.1242 0.1998 0.009 0.79425 0.39793 -0.45915 0 
0.1248 0.1996 0.0088 0.792493 0.414808 -0.447089 0 
0.124 0.1995 0.0093 0.802915 0.383027 -0.456748 0 
0.1243 0.1993 0.0096 0.76619 0.468862 -0.439456 0 
0.1243 0.1996 0.0094 0.784369 0.427099 -0.449835 0 
0.1248 0.2007 0.0087 0.735465 0.544606 -0.403107 0 
0.1249 0.1996 0.0072 0.819063 0.143669 -0.555423 0 
0.1251 0.1998 0.007 0.829483 0.139966 -0.540711 0 
0.1251 0.1998 0.0073 0.831087 0.152588 -0.5348 0 
0.1251 0.1999 0.0078 0.81643 0.306751 -0.489229 0 
0.1254 0.2001 0.0078 0.804156 0.353317 -0.478017 0 
0.1251 0.1998 0.009 0.712592 0.587518 -0.38345 0 
0.1254 0.1998 0.0091 0.720464 -0.428966 -0.544903 0 
0.126 0.1999 0.009 0.753849 -0.366341 -0.545441 0 
0.1257 0.1998 0.0094 0.820654 -0.176177 -0.543589 0 
0.126 0.1998 0.0093 0.796041 -0.254921 -0.54894 0 
0.1266 0.1995 0.0096 0.822532 -0.166304 -0.54386 0 
0.1251 0.2002 0.0081 0.810916 0.338014 -0.477663 0 
0.1251 0.2001 0.0084 0.785466 0.419455 -0.455084 0 
0.1252 0.2004 0.0082 0.802025 0.369796 -0.469049 0 
0.1255 0.2004 0.0084 0.703572 0.591528 -0.393803 0 
0.1251 0.2001 0.0088 0.714608 0.589757 -0.376196 0 
0.1254 0.2001 0.0084 0.703572 0.591528 -0.393803 0 
0.1255 0.2002 0.0088 0.51651 0.826109 -0.225303 0 
0.1252 0.2001 0.0088 0.718553 0.580433 -0.383119 0 
0.1257 0.2001 0.009 0.751094 -0.366586 -0.549065 0 
0.1246 0.1992 0.0099 0.631697 0.703149 -0.326404 0 
0.1251 0.1992 0.0096 0.6641 0.657541 -0.355826 0 
0.1254 0.1989 0.01 0.790143 -0.275998 -0.547265 0 
0.1251 0.1987 0.0102 0.580443 0.761732 -0.287836 0 
0.1261 0.1984 0.0102 0.479036 0.85078 -0.216095 0 
0.126 0.1995 0.01 0.846053 -0.0573358 -0.530007 0 
0.1263 0.1995 0.0099 0.843325 -0.0720429 -0.532552 0 
0.1257 0.1998 0.0097 0.839123 -0.0721674 -0.539133 0 
0.126 0.1996 0.0096 0.829974 -0.127351 -0.54307 0 
0.126 0.1995 0.0102 0.843325 -0.0720429 -0.532552 0 
0.1263 0.1995 0.0102 0.839645 -0.051692 -0.54067 0 
0.1257 0.1984 0.0106 0.827037 -0.18228 -0.531774 0 
0.126 0.1986 0.0106 0.852601 -0.0746906 -0.517197 0 
0.126 0.1992 0.0106 0.849522 -0.0631876 -0.523755 0 
0.1263 0.1987 0.0108 0.857361 -0.0657357 -0.5105 0 
0.126 0.1989 0.0112 0.860032 -0.0924001 -0.501804 0 
0.1263 0.1993 0.0106 0.844879 0.00134749 -0.534955 0 
0.1269 0.1984 0.0102 0.760507 -0.376182 -0.529261 0 
0.1266 0.1995 0.0099 0.842456 -0.086954 -0.531702 0 
0.1266 0.1995 0.0102 0.839505 -0.0261057 -0.542724 0 
0.1264 0.1987 0.0106 0.855388 -0.065799 -0.513793 0 
0.1266 0.1995 0.0106 0.838099 -0.0346322 -0.544418 0 
0.127 0.1995 0.0106 0.828093 -0.446382 -0.339124 0 
0.1264 0.1993 0.0109 0.836233 0.0233431 -0.547877 0 
0.1266 0.1995 0.0108 0.841806 -0.420122 -0.338909 0 
0.1266 0.1995 0.0112 0.869534 -0.261616 -0.418889 0 
0.127 0.1993 0.0109 0.844189 -0.344854 -0.410391 0 
0.1264 0.2004 0.0096 0.840353 -0.0430594 -0.540326 0 
0.1257 0.1987 0.0114 0.861004 -0.107446 -0.497119 0 
0.1258 0.199 0.0114 0.872855 -0.00935679 -0.48789 0 
0.1263 0.1987 0.0118 0.829104 -0.228349 -0.510336 0 
0.1266 0.1989 0.0115 0.841609 -0.223719 -0.491573 0 
0.1266 0.1989 0.0118 0.852481 -0.132608 -0.50566 0 
0.127 0.1995 0.0114 0.865357 -0.134804 -0.482686 0 
0.1267 0.1996 0.0115 0.885987 -0.108805 -0.450765 0 
0.127 0.1996 0.0117 0.870606 -0.00399972 -0.491965 0 
0.1272 0.1999 0.012 0.874569 0.0284743 -0.484064 0 
0.1275 0.1996 0.0112 0.871167 -0.156139 -0.465498 0 
0.1275 0.1998 0.0115 0.880452 -0.00663991 -0.474089 0 
0.1267 0.1984 0.0123 0.885078 0.345286 -0.312114 0 
0.1276 0.1986 0.012 0.876192 -0.106506 -0.470048 0 
0.1267 0.2004 0.0118 0.890692 -0.053196 -0.451484 0 
0.1275 0.2001 0.0118 0.885961 0.0337124 -0.462533 0 
0.1278 0.2004 0.0118 0.887744 0.044863 -0.458147 0 
0.1275 0.1983 0.0132 0.917162 -0.0142699 -0.398259 0 
0.1278 0.1978 0.0142 0.61299 0.788535 -0.0495489 0 
0.1276 0.1975 0.015 0.867525 0.319776 -0.380977 0 
0.1279 0.1977 0.0145 0.899687 0.125308 -0.418164 0 
0.1278 0.1978 0.0148 0.89812 0.156132 -0.411101 0 
0.1278 0.1977 0.0151 0.864413 0.379236 -0.330105 0 
0.1276 0.1972 0.0153 0.830452 0.387544 -0.400199 0 
0.1279 0.1972 0.0153 0.820636 0.376191 -0.430159 0 
0.1278 0.1972 0.0153 0.820636 0.376191 -0.430159 0 
0.1278 0.1987 0.015 0.91869 0.0941896 -0.383584 0 
0.1287 0.1966 0.0153 -0.323371 0.895605 0.305489 0 
0.1282 0.1971 0.0147 0.855989 0.379236 -0.351373 0 
0.1282 0.1975 0.015 0.856104 0.373094 -0.357613 0 
0.1296 0.1971 0.0147 -0.32251 0.896192 0.304676 0 
0.129 0.1974 0.015 0.806211 0.421538 -0.415126 0 
0.1282 0.1981 0.0147 0.895605 0.193684 -0.400474 0 
0.1285 0.1983 0.0148 0.0597722 0.925806 0.373244 0 
0.1288 0.1981 0.015 0.86648 0.366529 -0.338924 0 
0.1291 0.1981 0.015 0.831216 0.441534 -0.337829 0 
0.1282 0.1972 0.0154 0.81315 0.381813 -0.439325 0 
0.1282 0.1971 0.0155 -0.323371 0.895605 0.305489 0 
0.1281 0.1975 0.0155 0.819098 0.367401 -0.440563 0 
0.1287 0.1975 0.0153 -0.323371 0.895605 0.305489 0 
0.1282 0.1972 0.0157 -0.323371 0.895605 0.305489 0 
0.1281 0.1975 0.0159 -0.323371 0.895605 0.305489 0 
0.1287 0.1978 0.0153 0.806211 0.421538 -0.415126 0 
0.1287 0.1977 0.0155 -0.323371 0.895605 0.305489 0 
0.1284 0.1977 0.0159 -0.31336 0.898498 0.30742 0 
0.129 0.198 0.0153 0.798201 0.44022 -0.411195 0 
0.1293 0.1981 0.0153 -0.31336 0.898498 0.30742 0 
0.129 0.1977 0.0156 -0.31336 0.898498 0.30742 0 
0.129 0.1977 0.0159 -0.304442 0.898474 0.316322 0 
0.1293 0.198 0.0156 -0.310393 0.898506 0.310393 0 
0.1293 0.1978 0.0159 -0.117716 0.970837 0.20885 0 
0.1282 0.1969 0.0162 -0.305805 0.902643 0.302851 0 
0.1282 0.1975 0.0162 -0.309566 0.899076 0.309566 0 
0.1285 0.1969 0.0166 0.797948 0.364455 -0.480053 0 
0.1282 0.1975 0.0168 0.725658 0.530606 -0.438039 0 
0.1284 0.1974 0.0165 -0.308188 0.894786 0.323076 0 
0.1284 0.1978 0.0162 -0.309566 0.899076 0.309566 0 
0.1284 0.1978 0.0166 -0.308188 0.894786 0.323076 0 
0.1296 0.198 0.0162 0.768309 0.425751 -0.47795 0 
0.1293 0.1978 0.0162 0.768309 0.425751 -0.47795 0 
0.1293 0.1977 0.0166 0.802272 0.373112 -0.46599 0 
0.1284 0.1978 0.0168 0.768309 0.425751 -0.47795 0 
0.1281 0.1978 0.0171 0.793978 0.375247 -0.478319 0 
0.1281 0.1978 0.0174 0.815843 0.340595 -0.467328 0 
0.1296 0.1978 0.0168 0.824491 0.306239 -0.475849 0 
0.1296 0.1978 0.0165 0.802926 0.352776 -0.480478 0 
0.1299 0.1977 0.0166 0.825367 0.288645 -0.485235 0 
0.1299 0.1977 0.0169 0.82206 0.26884 -0.501938 0 
0.1296 0.1977 0.0171 0.829474 0.301485 -0.470191 0 
0.1302 0.1978 0.0169 0.829908 0.237774 -0.504694 0 
0.1299 0.1977 0.0172 0.836272 0.240908 -0.492557 0 
0.1299 0.1977 0.0175 0.839554 0.230077 -0.492152 0 
0.1302 0.1978 0.0172 0.835619 0.237653 -0.495239 0 
0.1306 0.1978 0.0175 0.842362 0.217041 -0.493275 0 
0.1302 0.1968 0.0186 0.844519 0.105025 -0.525127 0 
0.1299 0.1975 0.0179 0.843789 0.213598 -0.492337 0 
0.1302 0.1975 0.0179 0.842362 0.217041 -0.493275 0 
0.1302 0.1975 0.0183 0.843667 0.190312 -0.502004 0 
0.1305 0.1975 0.0178 0.842362 0.217041 -0.493275 0 
0.1306 0.1975 0.0181 0.846714 0.203031 -0.491786 0 
0.1311 0.1975 0.0183 0.847394 0.0400888 -0.529449 0 
0.1302 0.1977 0.0177 0.843789 0.213598 -0.492337 0 
0.1306 0.1975 0.0185 0.852264 0.138877 -0.504341 0 
0.1311 0.1975 0.0186 0.842523 0.0067836 -0.538618 0 
0.1306 0.1972 0.0189 0.843799 0.0516042 -0.534173 0 
0.1311 0.1972 0.0191 0.826755 -0.00681018 -0.562521 0 
0.1314 0.1972 0.0189 0.269265 0.953703 0.133969 0 
0.1285 0.199 0.0145 0.91066 -0.0117252 -0.412989 0 
0.1288 0.1984 0.0145 0.830541 0.547435 -0.102554 0 
0.1294 0.1984 0.0147 0.0891738 0.938321 0.334069 0 
0.1338 0.1942 0.0207 0.372926 0.92786 0.00127278 0 
0.1308 0.1957 0.0203 0.416659 0.905722 0.0778675 0 
0.1308 0.1957 0.0207 0.412892 0.908361 0.0663334 0 
0.1302 0.1966 0.0207 0.327768 0.937442 0.117349 0 
0.1305 0.1963 0.0203 0.350055 0.931228 0.101367 0 
0.1311 0.1963 0.0201 0.404533 0.911222 0.0776377 0 
0.1311 0.1969 0.0195 0.323194 0.940078 0.108625 0 
0.1311 0.1969 0.0198 0.324868 0.939844 0.105615 0 
0.1317 0.1968 0.0192 0.373533 0.923718 0.0849551 0 
0.1314 0.1968 0.0197 0.383396 0.919879 0.0826401 0 
0.1314 0.1966 0.02 0.417103 0.906214 0.0692907 0 
0.1317 0.1965 0.0197 0.412519 0.908087 0.0721568 0 
0.1317 0.1968 0.02 0.41158 0.908737 0.0692759 0 
0.1325 0.1963 0.02 0.403615 0.911871 0.0747435 0 
0.1322 0.1968 0.0197 0.371296 0.92348 0.0965642 0 
0.1322 0.1965 0.02 0.377469 0.922851 0.0765684 0 
0.1325 0.1966 0.0197 0.373734 0.922783 0.0937733 0 
0.1314 0.1965 0.0203 0.417579 0.906781 0.0581096 0 
0.1317 0.1968 0.0203 0.41202 0.909145 0.0607898 0 
0.1314 0.1963 0.0207 0.415057 0.908854 0.0413722 0 
0.1317 0.1966 0.0207 0.411795 0.910215 0.0439782 0 
0.1322 0.1963 0.0203 0.405516 0.912075 0.0606254 0 
0.1322 0.1966 0.0207 0.388499 0.920544 0.0408253 0 
0.1314 0.1969 0.0192 0.342791 0.934272 0.0981322 0 
0.1314 0.1959 0.021 0.402571 0.914695 0.0356375 0 
0.1326 0.1954 0.0215 0.361855 0.932128 -0.014065 0 
0.1317 0.1965 0.0209 0.409936 0.911411 0.0358196 0 
0.1317 0.1963 0.0213 0.384467 0.922459 0.0354287 0 
0.1322 0.1966 0.0209 0.384934 0.922537 0.0274021 0 
0.1322 0.1966 0.0213 0.393281 0.919374 0.00902611 0 
0.1323 0.1962 0.0218 0.362688 0.931712 -0.0192238 0 
0.1326 0.1962 0.0216 0.369746 0.928875 -0.0219013 0 
0.1323 0.1962 0.0221 0.341831 0.93972 -0.00882958 0 
0.1326 0.1963 0.0221 0.339592 0.940504 -0.0113618 0 
0.1326 0.1962 0.0224 0.327513 0.944602 -0.021497 0 
0.1335 0.1954 0.0209 0.373752 0.927268 -0.0219854 0 
0.1323 0.196 0.0225 0.325969 0.94493 -0.0291723 0 
0.1325 0.196 0.0231 0.320695 0.946995 -0.0188644 0 
0.1326 0.196 0.0227 0.31319 0.949552 -0.016221 0 
0.1328 0.1963 0.0227 0.315384 0.948664 -0.0238737 0 
0.1326 0.196 0.0233 0.323658 0.946173 0.00124007 0 
0.1326 0.196 0.0237 0.307228 0.951537 0.0136822 0 
0.1329 0.196 0.023 0.304962 0.952227 -0.0161816 0 
0.1329 0.196 0.0237 0.299872 0.953915 0.0111064 0 
0.1329 0.196 0.0233 0.30956 0.950879 0.00123331 0 
0.1332 0.196 0.0233 0.308835 0.951115 0.00123042 0 
0.1329 0.196 0.0239 0.316186 0.948558 0.0162467 0 
0.1332 0.1963 0.0237 0.306512 0.951801 0.0111685 0 
0.1337 0.1963 0.0239 0.338212 0.940612 0.0293542 0 
0.1323 0.196 0.0242 0.102457 0.991181 0.0840374 0 
0.1326 0.1959 0.024 0.308766 0.951098 0.00868017 0 
0.1326 0.196 0.0245 0.0593452 0.987924 0.143127 0 
0.1319 0.196 0.0243 -0.0214362 0.989449 0.143284 0 
0.1323 0.196 0.0245 0.0260541 0.988922 0.146129 0 
0.1326 0.196 0.0248 0.12885 0.980485 0.148484 0 
0.132 0.1956 0.0254 0.0909767 0.973326 0.210617 0 
0.1313 0.1959 0.0255 -0.0299162 0.975269 0.218987 0 
0.1317 0.196 0.0254 0.00117072 0.975213 0.221267 0 
0.1329 0.196 0.0243 0.350971 0.936344 0.0088693 0 
0.1332 0.1962 0.024 0.332049 0.943119 0.0164131 0 
0.1332 0.1962 0.0243 0.361855 0.932128 0.014065 0 
0.1329 0.196 0.0246 0.179482 0.97523 0.129278 0 
0.1332 0.1962 0.0246 0.179482 0.97523 0.129278 0 
0.1335 0.1962 0.0246 0.370408 0.927983 0.0405747 0 
0.1337 0.1963 0.0243 0.370075 0.928434 0.0324627 0 
0.134 0.1965 0.0246 0.381623 0.923026 0.0488583 0 
0.1332 0.1962 0.025 0.206655 0.965692 0.157266 0 
0.1334 0.1963 0.0254 0.182513 0.96246 0.200896 0 
0.1335 0.1965 0.0254 0.182513 0.96246 0.200896 0 
0.1337 0.1963 0.0249 0.233701 0.96222 0.139698 0 
0.134 0.1966 0.025 0.221721 0.961665 0.161371 0 
0.1343 0.1965 0.0248 0.342838 0.935133 0.0893779 0 
0.134 0.1963 0.0254 0.260874 0.946521 0.189851 0 
0.1343 0.1963 0.0252 0.27745 0.944424 0.176311 0 
0.1343 0.1963 0.0255 0.266127 0.941788 0.205456 0 
0.135 0.1934 0.0218 0.351717 0.933045 -0.0756523 0 
0.1353 0.1938 0.0216 0.36065 0.929109 -0.081783 0 
0.134 0.1918 0.0294 -0.36923 0.598973 0.710563 0 
0.1337 0.1907 0.03 -0.924655 -0.016765 -0.380437 0 
0.1338 0.191 0.0302 -0.372045 0.491229 0.787576 0 
0.1334 0.1913 0.0297 -0.956372 0.138509 -0.257231 0 
0.1343 0.1912 0.0298 -0.629885 0.528563 0.569092 0 
0.1341 0.1916 0.0297 -0.502775 0.553221 0.664201 0 
0.1341 0.1916 0.03 -0.576551 0.539354 0.613748 0 
0.1344 0.1904 0.0311 -0.578551 0.471225 0.665752 0 
0.1344 0.1904 0.0316 -0.627949 0.450449 0.634647 0 
0.1347 0.1909 0.0296 -0.572385 0.525108 0.629792 0 
0.1347 0.1909 0.0302 -0.624991 0.493591 0.604776 0 
0.135 0.1915 0.0303 -0.727936 0.509058 0.459313 0 
0.1347 0.19 0.031 -0.480593 0.500548 0.720057 0 
0.1347 0.1895 0.0314 -0.438846 0.541519 0.717057 0 
0.1347 0.1904 0.0306 -0.558729 0.484903 0.672824 0 
0.135 0.1907 0.0308 -0.674926 0.467257 0.571092 0 
0.1341 0.1876 0.0325 0.845517 0.180437 0.502538 0 
0.1343 0.1874 0.0328 0.50857 0.403912 0.760402 0 
0.1343 0.1874 0.0332 0.50857 0.403912 0.760402 0 
0.1341 0.1873 0.0335 0.917518 -0.339238 -0.207551 0 
0.1344 0.1877 0.0326 0.845517 0.180437 0.502538 0 
0.1344 0.1883 0.032 -0.493488 0.536982 0.684192 0 
0.1346 0.1876 0.0328 0.592543 0.379162 0.710724 0 
0.1349 0.1879 0.0331 0.572003 0.375326 0.729345 0 
0.1344 0.1879 0.0332 0.474345 0.418923 0.774274 0 
0.1349 0.1879 0.0334 0.550405 0.380547 0.743128 0 
0.1353 0.1882 0.0328 0.821788 0.30326 0.482388 0 
0.1353 0.1882 0.0332 0.473857 0.50711 0.71993 0 
0.1346 0.1874 0.0337 0.911428 -0.345216 -0.223885 0 
0.1406 0.1919 0.0379 0.20016 0.967223 0.156254 0 
0.1406 0.1918 0.0383 0.285113 0.952567 0.106425 0 
0.1409 0.1919 0.0382 0.24386 0.958304 0.148952 0 
0.1326 0.1951 0.0269 -0.803009 0.240747 0.545176 0 
0.1343 0.1951 0.0267 -0.825751 0.169346 0.538012 0 
0.1338 0.1948 0.0272 -0.118316 0.822366 0.556521 0 
0.1341 0.1951 0.0269 -0.825751 0.169346 0.538012 0 
0.1344 0.1948 0.027 -0.823457 0.169491 0.541472 0 
0.1332 0.1948 0.0273 -0.00673904 0.853162 0.521602 0 
0.1338 0.1948 0.0274 -0.211512 0.773484 0.597482 0 
0.1338 0.1948 0.0278 -0.106478 0.812445 0.573233 0 
0.1317 0.1956 0.0258 0.07708 0.964132 0.253985 0 
0.1313 0.1957 0.026 -0.0109432 0.961787 0.27358 0 
0.1317 0.1954 0.0261 0.127085 0.957723 0.2581 0 
0.1343 0.1959 0.026 -0.822972 0.176029 0.540122 0 
0.1344 0.1956 0.0263 -0.806992 0.19679 0.55681 0 
0.1337 0.196 0.0261 -0.836779 0.149056 0.526861 0 
0.1338 0.1959 0.0263 -0.821191 0.166033 0.545965 0 
0.1332 0.1965 0.0257 0.151144 0.960749 0.23263 0 
0.1337 0.1963 0.0257 0.248414 0.94562 0.209985 0 
0.134 0.1965 0.0257 0.243308 0.944363 0.221314 0 
0.1341 0.196 0.0261 -0.827533 0.155998 0.539308 0 
0.1338 0.1954 0.0267 -0.799764 0.2376 0.551293 0 
0.1341 0.1953 0.0264 -0.798179 0.230929 0.556401 0 
0.1338 0.1921 0.0293 -0.27189 0.612149 0.742529 0 
0.1338 0.1927 0.0293 -0.423663 0.60642 0.672877 0 
0.1338 0.193 0.0291 -0.667367 0.466655 0.580392 0 
0.135 0.1951 0.0267 -0.83028 0.124469 0.54327 0 
0.1347 0.1951 0.0269 -0.825642 0.153227 0.542989 0 
0.135 0.1951 0.027 -0.827233 0.140084 0.544116 0 
0.1347 0.1942 0.0279 -0.475237 0.589428 0.653241 0 
0.1352 0.1944 0.0278 -0.513271 0.570488 0.641168 0 
0.1347 0.1948 0.0272 -0.825256 0.159679 0.541714 0 
0.1349 0.1948 0.0275 -0.830736 0.136741 0.539611 0 
0.135 0.1948 0.0274 -0.831067 0.133853 0.539826 0 
0.1355 0.1945 0.0273 -0.194348 0.781983 0.592226 0 
0.1353 0.1945 0.0278 -0.485247 0.596065 0.63972 0 
0.1352 0.1942 0.0282 0.65791 0.723234 0.209971 0 
0.1352 0.1939 0.0285 0.8277 0.559709 0.0404777 0 
0.1349 0.1939 0.0287 0.862638 0.505777 0.00670792 0 
0.1353 0.1942 0.0281 0.65791 0.723234 0.209971 0 
0.1358 0.1944 0.0282 0.524778 0.815806 0.243039 0 
0.1355 0.1939 0.0284 0.8277 0.559709 0.0404777 0 
0.1359 0.1942 0.0285 0.540137 0.824419 0.169073 0 
0.1362 0.1944 0.028 -0.649472 0.468224 0.599126 0 
0.1362 0.1942 0.0284 -0.0308727 0.889938 0.455036 0 
0.1362 0.1941 0.0287 -0.638417 0.530611 0.557562 0 
0.1347 0.1957 0.0261 -0.806262 0.189798 0.560284 0 
0.1347 0.1956 0.0264 -0.807634 0.190121 0.558195 0 
0.1347 0.1927 0.0296 -0.604108 0.563495 0.563495 0 
0.1349 0.1927 0.0296 -0.625759 0.548171 0.554918 0 
0.135 0.193 0.0291 -0.556861 0.587327 0.587327 0 
0.1352 0.1934 0.029 -0.638272 0.523754 0.564172 0 
0.1353 0.193 0.0293 -0.626916 0.555944 0.545805 0 
0.1355 0.1931 0.0296 -0.681549 0.517441 0.517441 0 
0.135 0.1921 0.0299 -0.687438 0.520178 0.506797 0 
0.1353 0.1927 0.0297 -0.691581 0.514081 0.507383 0 
0.1355 0.1939 0.0288 -0.642604 0.521167 0.561646 0 
0.1356 0.1936 0.0291 -0.654112 0.522954 0.546495 0 
0.1358 0.1939 0.029 -0.644658 0.523469 0.557132 0 
0.1359 0.1938 0.0293 -0.663437 0.52571 0.532429 0 
0.1359 0.1936 0.0296 -0.797435 0.34678 0.493802 0 
0.1362 0.1941 0.0291 -0.669536 0.525225 0.525225 0 
0.1362 0.1939 0.0294 -0.801298 0.318932 0.506166 0 
0.1365 0.1941 0.0296 -0.68148 0.527435 0.507343 0 
0.1362 0.1939 0.0298 -0.770144 0.377776 0.513969 0 
0.1365 0.1941 0.0299 -0.726571 0.455141 0.514724 0 
0.1362 0.1939 0.0302 -0.772185 0.361001 0.522884 0 
0.1365 0.1939 0.0302 -0.737705 0.430741 0.519859 0 
0.1368 0.1939 0.0302 -0.728145 0.466079 0.502569 0 
0.1373 0.1936 0.031 -0.708701 0.515267 0.481916 0 
0.137 0.1936 0.0313 -0.720057 0.480593 0.500548 0 
0.1374 0.1934 0.0314 -0.716098 0.503429 0.483491 0 
0.1371 0.1933 0.0316 -0.711711 0.501698 0.491697 0 
0.1374 0.1934 0.0317 -0.721653 0.499351 0.479443 0 
0.1365 0.1939 0.0306 -0.744242 0.42223 0.517519 0 
0.1368 0.1939 0.0304 -0.73736 0.447035 0.506419 0 
0.137 0.1936 0.0308 -0.738591 0.447781 0.50396 0 
0.1376 0.1939 0.0316 -0.692141 0.565387 0.448641 0 
0.1376 0.1939 0.032 -0.680666 0.58747 0.43769 0 
0.1368 0.1934 0.0322 -0.727217 0.485364 0.485364 0 
0.1373 0.1936 0.032 -0.699893 0.556922 0.4472 0 
0.1374 0.1933 0.0325 -0.703747 0.540704 0.460846 0 
0.1368 0.1936 0.0332 -0.399457 0.910872 0.103665 0 
0.1365 0.1936 0.0326 -0.722736 0.503423 0.473517 0 
0.1365 0.1936 0.0328 -0.635851 0.697648 0.330122 0 
0.1371 0.1936 0.0332 -0.479811 0.85283 0.206063 0 
0.1377 0.1936 0.0323 -0.681656 0.588324 0.434993 0 
0.1377 0.1936 0.0328 -0.685744 0.562277 0.462168 0 
0.1385 0.193 0.0328 -0.69381 0.540002 0.476472 0 
0.1391 0.1925 0.0332 -0.71993 0.50711 0.473857 0 
0.1379 0.1934 0.0329 -0.68763 0.550439 0.473478 0 
0.1377 0.1933 0.0331 -0.698501 0.535129 0.475114 0 
0.138 0.1934 0.0334 -0.702687 0.529102 0.475691 0 
0.1388 0.1931 0.0332 -0.710425 0.510774 0.484154 0 
0.1385 0.1934 0.0334 -0.710268 0.517315 0.477393 0 
0.1388 0.1936 0.0334 -0.713129 0.513653 0.477082 0 
0.1379 0.1941 0.0322 -0.652163 0.635568 0.413202 0 
0.1379 0.1939 0.0326 -0.665841 0.605765 0.43555 0 
0.1377 0.1941 0.0334 -0.69381 0.540002 0.476472 0 
0.1379 0.1942 0.0334 -0.692835 0.535904 0.48248 0 
0.1385 0.1936 0.0329 -0.691093 0.537145 0.483598 0 
0.1379 0.1934 0.0337 -0.522958 0.780414 0.342738 0 
0.1385 0.1933 0.0344 -0.42705 0.846336 0.318346 0 
0.1388 0.1933 0.0344 -0.646945 0.640292 0.414111 0 
0.1391 0.1933 0.0347 -0.596412 0.698843 0.394855 0 
0.1388 0.193 0.0352 -0.0202933 0.972887 0.230389 0 
0.1391 0.1931 0.0352 -0.238746 0.922103 0.304509 0 
0.1388 0.1933 0.0349 -0.160351 0.958132 0.237214 0 
0.1385 0.1936 0.0337 -0.715663 0.519728 0.466593 0 
0.1388 0.1936 0.0338 -0.721336 0.512397 0.465966 0 
0.1385 0.1936 0.034 -0.688542 0.588994 0.42308 0 
0.1388 0.1936 0.034 -0.727018 0.501791 0.46867 0 
0.1388 0.1927 0.0356 0.0670075 0.962127 0.264237 0 
0.1391 0.193 0.0358 0.162785 0.951146 0.262339 0 
0.1394 0.1933 0.0352 -0.373094 0.856104 0.357613 0 
0.14 0.1924 0.0362 -0.527435 0.68148 0.507343 0 
0.1395 0.1925 0.0361 0.265874 0.892683 0.363906 0 
0.1395 0.1925 0.0364 0.292461 0.877383 0.380351 0 
0.1392 0.1927 0.0362 0.246086 0.910082 0.333454 0 
0.14 0.1924 0.0365 -0.342158 0.785517 0.515646 0 
0.1392 0.1924 0.0367 0.32984 0.900774 0.282509 0 
0.1395 0.1924 0.0368 0.369889 0.880184 0.297421 0 
0.14 0.1924 0.0368 0.443877 0.845996 0.295403 0 
0.1397 0.1922 0.037 0.356308 0.906041 0.228328 0 
0.14 0.1924 0.0371 0.334141 0.902327 0.272317 0 
0.1392 0.1924 0.037 0.340166 0.906622 0.249649 0 
0.14 0.1924 0.0376 0.355205 0.918439 0.174065 0 
0.1392 0.1924 0.0374 0.328149 0.925294 0.190129 0 
0.1395 0.1924 0.0374 0.389222 0.901431 0.189547 0 
0.1403 0.1922 0.037 0.316292 0.920253 0.230421 0 
0.1403 0.1924 0.0373 0.330207 0.915641 0.229271 0 
0.1406 0.1922 0.0373 0.890692 0.053196 -0.451484 0 
0.1392 0.1927 0.0376 0.316123 0.910492 0.266592 0 
0.1403 0.1921 0.0376 0.33174 0.935642 0.12051 0 
0.1403 0.1921 0.0379 0.331946 0.940732 0.0695381 0 
0.1406 0.1921 0.0376 0.172732 0.961234 0.214926 0 
0.141 0.1918 0.0386 0.307538 0.946372 0.0989929 0 
0.141 0.1918 0.0389 0.306237 0.947626 0.0906882 0 
0.1415 0.1918 0.0388 0.30997 0.948067 0.071332 0 
0.1421 0.1915 0.0392 0.427163 0.903562 -0.0332681 0 
0.1418 0.1916 0.0391 0.428192 0.903072 -0.0333483 0 
0.141 0.1918 0.0392 0.308323 0.948387 0.0741537 0 
0.1415 0.1918 0.0392 0.309265 0.9485 0.0685818 0 
0.1415 0.1918 0.0395 0.308819 0.949523 0.0551005 0 
0.1415 0.1918 0.0398 0.300617 0.952589 0.0469318 0 
0.1421 0.1915 0.0394 0.421998 0.906171 -0.0277804 0 
0.1416 0.1918 0.0394 0.308819 0.949523 0.0551005 0 
0.1421 0.1913 0.0398 0.678915 0.678915 -0.279553 0 
0.1418 0.1916 0.0398 0.496964 0.860736 -0.110277 0 
0.1425 0.1912 0.04 0.875906 0.0395043 -0.480863 0 
0.1425 0.1912 0.0395 0.475196 0.876535 -0.0766446 0 
