0.0879 0.2618 0.0123 -0.148332 0.30619 0.940343 1 
0.0876 0.2617 0.0127 -0.0884573 0.213045 0.97303 1 
0.0861 0.2639 0.0112 0.0927364 0.199074 0.975587 1 
0.0852 0.263 0.012 0.147834 0.170578 0.974191 1 
0.0856 0.2632 0.0118 0.1447 0.198483 0.969364 1 
0.0856 0.263 0.0112 0.161129 0.192066 0.968064 1 
0.0862 0.2627 0.012 0.00117422 0.228974 0.973432 1 
0.0856 0.2635 0.0114 0.149634 0.188002 0.970703 1 
0.085 0.263 0.0123 0.228497 0.147544 0.962299 1 
0.0852 0.2626 0.0126 0.142062 0.142062 0.979611 1 
0.0858 0.263 0.0121 0.0529597 0.240166 0.969286 1 
0.0858 0.263 0.0124 0.0252719 0.237074 0.971163 1 
0.0859 0.263 0.0126 0.00835332 0.242246 0.970179 1 
0.0856 0.2636 0.012 0.119108 0.191826 0.974175 1 
0.0853 0.2633 0.0123 0.135408 0.186028 0.973169 1 
0.085 0.2636 0.0123 0.197062 0.176182 0.964431 1 
0.0853 0.2636 0.0121 0.142983 0.180943 0.973044 1 
0.0856 0.2636 0.0123 0.129733 0.187672 0.973627 1 
0.0853 0.2633 0.0126 0.165972 0.183985 0.968815 1 
0.085 0.2638 0.0124 0.187791 0.169659 0.967445 1 
0.0856 0.2632 0.012 0.107071 0.212882 0.971194 1 
0.0856 0.2638 0.012 0.131015 0.202247 0.970531 1 
0.0858 0.2639 0.0123 0.0931394 0.202423 0.974859 1 
0.0847 0.2641 0.0123 0.373693 0.108138 0.921227 1 
0.0856 0.2642 0.0115 0.146275 0.158777 0.976419 1 
0.0862 0.2642 0.0115 0.0830622 0.214474 0.973191 1 
0.0858 0.2647 0.0115 0.153148 0.145677 0.977407 1 
0.0859 0.2644 0.012 0.113881 0.19147 0.974869 1 
0.0861 0.2644 0.0118 0.1012 0.206149 0.973273 1 
0.0861 0.2644 0.012 0.0830622 0.214474 0.973191 1 
0.0862 0.2647 0.0117 0.119634 0.195192 0.973441 1 
0.0861 0.2645 0.0118 0.1012 0.206149 0.973273 1 
0.0862 0.2645 0.012 0.0830622 0.214474 0.973191 1 
0.0856 0.2651 0.0118 0.188542 0.116122 0.975176 1 
0.0855 0.2653 0.012 0.179482 0.129278 0.97523 1 
0.0859 0.2648 0.0114 0.153148 0.145677 0.977407 1 
0.0859 0.265 0.0115 0.196807 0.133321 0.971336 1 
0.0862 0.2653 0.0114 0.190941 0.149934 0.970083 1 
0.0856 0.265 0.0117 0.188947 0.118874 0.974766 1 
0.0859 0.265 0.0117 0.158118 0.140688 0.977346 1 
0.0859 0.2648 0.0118 0.153148 0.145677 0.977407 1 
0.0856 0.2654 0.0118 0.203755 0.101252 0.973772 1 
0.0849 0.2641 0.012 0.308472 0.116178 0.944112 1 
0.0853 0.2644 0.0123 0.165195 0.150063 0.974778 1 
0.0855 0.2645 0.0123 0.169096 0.139034 0.975744 1 
0.0855 0.2641 0.0124 0.145298 0.173094 0.974129 1 
0.0861 0.2641 0.0121 0.0678244 0.220738 0.972972 1 
0.0856 0.2645 0.0121 0.156604 0.151593 0.975958 1 
0.0862 0.2645 0.012 0.0830622 0.214474 0.973191 1 
0.0862 0.2644 0.0123 0.080405 0.214001 0.973519 1 
0.0861 0.2654 0.012 0.209301 0.120507 0.970397 1 
0.0888 0.2653 0.0111 0.179386 0.541172 0.821556 1 
0.0865 0.2629 0.012 0.0108512 0.259223 0.965756 1 
0.0879 0.2639 0.0118 0.0431658 0.364947 0.930027 1 
0.0871 0.263 0.0121 0.00364657 0.283217 0.959049 1 
0.0874 0.263 0.0121 -0.0286596 0.292827 0.955736 1 
0.0877 0.2626 0.0126 -0.0658436 0.308561 0.948923 1 
0.0876 0.263 0.0124 -0.0286122 0.289854 0.956643 1 
0.0865 0.2633 0.0123 0.015702 0.25244 0.967485 1 
0.0876 0.2635 0.0121 -0.00611606 0.287455 0.957775 1 
0.0879 0.2636 0.012 0.0343245 0.319091 0.947102 1 
0.0879 0.2632 0.0123 0.0239494 0.321426 0.946632 1 
0.0882 0.2638 0.012 0.0373849 0.346778 0.937202 1 
0.0882 0.2629 0.0126 -0.0267394 0.337426 0.940972 1 
0.0883 0.263 0.0126 -0.00381292 0.369854 0.929082 1 
0.0882 0.2635 0.0123 0.047432 0.316641 0.947359 1 
0.0885 0.2636 0.0123 0.0398442 0.332892 0.942123 1 
0.0891 0.2638 0.0121 0.00929718 0.468844 0.883232 1 
0.0892 0.2636 0.0121 0.0118 0.428733 0.903354 1 
0.0868 0.2644 0.0114 0.0952277 0.285683 0.953581 1 
0.0865 0.2647 0.0114 0.115666 0.253425 0.960415 1 
0.087 0.2644 0.012 0.0599005 0.291856 0.954585 1 
0.0865 0.2644 0.012 0.0527995 0.232072 0.971265 1 
0.0868 0.2645 0.012 0.0436266 0.272978 0.961031 1 
0.0874 0.2644 0.0112 0.061341 0.332808 0.940997 1 
0.0873 0.2644 0.0115 0.0668675 0.334337 0.940078 1 
0.0874 0.2644 0.0114 0.0665969 0.330373 0.941498 1 
0.0874 0.2647 0.0115 0.0971758 0.390072 0.915642 1 
0.0877 0.2647 0.0114 0.0982446 0.410967 0.906341 1 
0.0873 0.2642 0.0118 0.0608496 0.317195 0.946406 1 
0.0865 0.2648 0.0114 0.133898 0.232697 0.963288 1 
0.0867 0.2653 0.0115 0.148138 0.339195 0.928979 1 
0.0868 0.2654 0.0115 0.157563 0.347196 0.924461 1 
0.0865 0.2648 0.0117 0.0921833 0.23109 0.968556 1 
0.0865 0.2651 0.0117 0.148199 0.232135 0.961327 1 
0.0871 0.265 0.0117 0.122249 0.361252 0.92442 1 
0.0868 0.2653 0.0117 0.148138 0.339195 0.928979 1 
0.0874 0.265 0.0123 0.0966099 0.376915 0.921196 1 
0.0874 0.2654 0.0121 0.122701 0.421696 0.898397 1 
0.0874 0.2653 0.0123 0.125627 0.419226 0.899148 1 
0.088 0.2647 0.0114 0.0874343 0.442723 0.892385 1 
0.0885 0.2642 0.012 0.0848846 0.455037 0.886418 1 
0.0883 0.2644 0.0117 0.0762048 0.458615 0.885362 1 
0.0886 0.2647 0.0117 0.122433 0.48541 0.865672 1 
0.0891 0.2647 0.0112 0.0750962 0.537009 0.840227 1 
0.0891 0.2647 0.0115 0.0784164 0.546064 0.834066 1 
0.0895 0.2644 0.0115 -0.0579381 0.563837 0.823852 1 
0.0891 0.2644 0.0118 0.107724 0.512769 0.851742 1 
0.0894 0.2642 0.0118 -0.0971898 0.572985 0.813783 1 
0.0894 0.2644 0.0118 0.0663755 0.538065 0.840286 1 
0.0888 0.2644 0.0118 0.0711406 0.489615 0.869032 1 
0.0894 0.2647 0.0117 0.0521351 0.56785 0.82148 1 
0.0883 0.2648 0.0114 0.093969 0.46143 0.882186 1 
0.0889 0.2648 0.0117 0.205228 0.530553 0.822433 1 
0.0888 0.2641 0.0121 0.0422878 0.47335 0.879859 1 
0.0856 0.2656 0.0118 0.186166 0.097398 0.977679 1 
0.0859 0.2657 0.0118 0.213404 0.107333 0.97105 1 
0.0859 0.2657 0.012 0.193849 0.0926028 0.976651 1 
0.0862 0.2659 0.0117 0.232627 0.192287 0.953368 1 
0.0879 0.2659 0.0108 0.169791 0.479845 0.860767 1 
0.0883 0.2659 0.0103 0.216806 0.548935 0.807258 1 
0.0883 0.2659 0.0106 0.139599 0.530477 0.836126 1 
0.0885 0.2657 0.0106 0.182598 0.53874 0.822446 1 
0.0882 0.2657 0.0108 0.14238 0.512273 0.846938 1 
0.0885 0.2656 0.0108 0.14257 0.524717 0.839253 1 
0.088 0.2666 0.0106 0.335184 0.574832 0.746472 1 
0.0865 0.2659 0.0114 0.284213 0.255649 0.924049 1 
0.087 0.2659 0.0115 0.202374 0.324082 0.92413 1 
0.0873 0.2659 0.0114 0.178046 0.406755 0.896019 1 
0.0898 0.2641 0.0114 0.0520516 0.569754 0.820165 1 
0.0847 0.2608 0.013 -0.0165616 -0.120348 0.992594 1 
0.0838 0.2614 0.0129 -0.0180856 -0.249582 0.968185 1 
0.0847 0.2612 0.013 -0.0834827 -0.00105674 0.996509 1 
0.0844 0.2614 0.0129 -0.151899 0.0308366 0.987915 1 
0.0844 0.2615 0.0139 0.280504 -0.249179 0.926945 1 
0.0849 0.2614 0.0129 0.0670643 0.0244838 0.997448 1 
0.0871 0.2614 0.013 -0.0340098 0.0932527 0.995061 1 
0.0894 0.2639 0.0061 0.26058 0.343023 0.90246 1 
0.0892 0.2638 0.0064 0.291119 0.299896 0.908467 1 
0.0891 0.2656 0.0055 0.603653 0.0613643 0.794882 1 
0.0895 0.2647 0.0056 0.342929 0.345977 0.873326 1 
0.0895 0.2647 0.0058 0.33933 0.345416 0.874953 1 
0.0892 0.2644 0.006 0.305531 0.305531 0.901833 1 
0.0894 0.2642 0.0063 0.281758 0.328963 0.90133 1 
0.0891 0.2647 0.0061 0.372823 0.294334 0.879983 1 
0.0891 0.2647 0.0063 0.345201 0.291404 0.892143 1 
0.0892 0.2645 0.006 0.31336 0.30742 0.898498 1 
0.0894 0.2644 0.0061 0.283546 0.312929 0.906464 1 
0.0885 0.2653 0.0063 0.51633 0.188167 0.835462 1 
0.0885 0.2656 0.0063 0.544928 0.169633 0.821145 1 
0.0889 0.265 0.0058 0.519702 0.228424 0.823245 1 
0.0894 0.2651 0.0058 0.374135 0.301428 0.87702 1 
0.0888 0.2654 0.0059 0.60273 0.142083 0.785194 1 
0.0892 0.2653 0.0058 0.484484 0.236893 0.842115 1 
0.0888 0.265 0.0061 0.471055 0.225682 0.852746 1 
0.0889 0.2651 0.006 0.514253 0.221266 0.828604 1 
0.0894 0.2654 0.0061 0.455769 0.268551 0.84862 1 
0.0895 0.2657 0.0055 0.414073 0.251455 0.874822 1 
0.0894 0.2662 0.0055 0.435651 0.242698 0.866779 1 
0.0885 0.2662 0.0059 0.56312 0.166683 0.809391 1 
0.0882 0.2659 0.006 0.578895 0.190928 0.792734 1 
0.088 0.266 0.0063 0.607743 0.0947322 0.788463 1 
0.0885 0.2663 0.006 0.513823 0.191365 0.836281 1 
0.0891 0.2659 0.0058 0.577477 0.100368 0.810214 1 
0.0888 0.2657 0.0058 0.576431 0.187074 0.795444 1 
0.0891 0.2662 0.0058 0.470691 0.165695 0.8666 1 
0.0885 0.2665 0.0059 0.471745 0.146604 0.869462 1 
0.0889 0.2665 0.0058 0.450062 0.177386 0.875202 1 
0.0889 0.2666 0.0058 0.450062 0.177386 0.875202 1 
0.0892 0.2665 0.0056 0.441439 0.209572 0.872474 1 
0.0894 0.2666 0.0058 0.441439 0.209572 0.872474 1 
0.0853 0.2617 0.0073 0.793944 -0.530881 -0.296342 1 
0.0879 0.2614 0.007 0.718572 -0.443092 0.536025 1 
0.0876 0.2617 0.0072 0.472541 -0.330305 0.81707 1 
0.0879 0.2618 0.0072 0.607388 -0.358539 0.708893 1 
0.0877 0.262 0.007 0.519945 -0.316419 0.793433 1 
0.0879 0.2624 0.007 0.391429 -0.14555 0.908625 1 
0.0877 0.2623 0.007 0.415064 -0.200932 0.887327 1 
0.0871 0.2612 0.0073 0.654955 -0.409554 0.635058 1 
0.087 0.2612 0.0072 0.645945 -0.406829 0.645945 1 
0.087 0.2612 0.0078 0.600839 -0.408836 0.68691 1 
0.0879 0.2612 0.0072 0.809591 -0.448708 0.378448 1 
0.0871 0.2618 0.0075 0.454049 -0.292885 0.841462 1 
0.0871 0.2623 0.0075 0.333695 -0.138696 0.932422 1 
0.0874 0.2617 0.0073 0.413284 -0.302665 0.858831 1 
0.0876 0.2618 0.0073 0.535448 -0.339278 0.773425 1 
0.0874 0.2618 0.0076 0.48442 -0.285044 0.827096 1 
0.0874 0.2621 0.0072 0.403817 -0.236926 0.883628 1 
0.0874 0.2624 0.0073 0.350115 -0.142537 0.925798 1 
0.0874 0.2624 0.0076 0.34527 -0.0866507 0.934495 1 
0.0882 0.2615 0.0069 0.647355 -0.402321 0.647355 1 
0.088 0.262 0.0069 0.496135 -0.289543 0.818545 1 
0.0882 0.262 0.0069 0.438902 -0.256659 0.861099 1 
0.0879 0.2632 0.007 0.403545 0.0357237 0.914262 1 
0.0877 0.2632 0.007 0.430757 0.0144903 0.902351 1 
0.0879 0.2633 0.0069 0.412365 0.0550716 0.909353 1 
0.0876 0.2632 0.0072 0.400462 -0.00907196 0.916268 1 
0.0876 0.2635 0.007 0.423123 0.0554251 0.904375 1 
0.0874 0.2638 0.007 0.440842 0.0787711 0.894122 1 
0.0879 0.2636 0.0069 0.420858 0.101395 0.901442 1 
0.0873 0.2624 0.0076 0.342791 -0.0981322 0.934272 1 
0.0874 0.2626 0.0075 0.333398 -0.0777488 0.939575 1 
0.0876 0.2624 0.0072 0.416913 -0.156163 0.895431 1 
0.0879 0.2638 0.0073 0.421914 0.101649 0.900919 1 
0.0877 0.2632 0.0076 0.367651 0.00636075 0.929942 1 
0.0882 0.2629 0.0066 0.383969 0.00642089 0.923324 1 
0.088 0.263 0.0067 0.383969 0.00642089 0.923324 1 
0.088 0.2629 0.0069 0.413957 -0.0143644 0.910183 1 
0.0895 0.263 0.0064 0.258638 0.214379 0.941885 1 
0.0895 0.263 0.0067 0.269538 0.20319 0.941309 1 
0.0892 0.263 0.007 0.306975 0.148713 0.940027 1 
0.0882 0.2633 0.0066 0.420532 0.086864 0.90311 1 
0.0888 0.2633 0.0064 0.309454 0.179012 0.933913 1 
0.0891 0.2632 0.0064 0.284805 0.198669 0.937772 1 
0.0891 0.2633 0.0064 0.282224 0.239677 0.928927 1 
0.0891 0.2636 0.0067 0.298893 0.244549 0.92242 1 
0.0892 0.2633 0.0066 0.282224 0.239677 0.928927 1 
0.0889 0.2636 0.0066 0.31412 0.236666 0.919412 1 
0.0891 0.2633 0.007 0.303931 0.200287 0.931403 1 
0.0889 0.2636 0.007 0.311887 0.207454 0.927194 1 
0.0888 0.263 0.0072 0.353319 0.0813299 0.931961 1 
0.0874 0.2641 0.0072 0.434696 0.132547 0.89077 1 
0.0871 0.2641 0.0073 0.40916 0.0747634 0.909395 1 
0.087 0.2642 0.0073 0.382997 0.126737 0.915014 1 
0.087 0.2644 0.0075 0.402889 0.118497 0.907546 1 
0.0874 0.2644 0.0072 0.419556 0.165804 0.892458 1 
0.0886 0.2647 0.0064 0.46984 0.2251 0.853569 1 
0.0882 0.2642 0.007 0.418048 0.182077 0.889991 1 
0.0886 0.2641 0.007 0.36074 0.229296 0.904041 1 
0.0885 0.2644 0.007 0.423581 0.221451 0.878373 1 
0.0894 0.2642 0.0066 0.296182 0.33488 0.894501 1 
0.0885 0.2644 0.0072 0.41103 0.227031 0.882899 1 
0.0897 0.2638 0.0061 0.205403 0.354787 0.912105 1 
0.0907 0.2638 0.0059 0.0882381 0.384175 0.919034 1 
0.091 0.2638 0.0061 0.0798954 0.391352 0.916766 1 
0.0912 0.2636 0.0061 0.0470561 0.428883 0.902134 1 
0.0918 0.2639 0.0063 -0.0171454 0.43391 0.900793 1 
0.0897 0.2645 0.0058 0.257892 0.383112 0.886971 1 
0.09 0.2644 0.0061 0.192836 0.390023 0.900387 1 
0.0921 0.2654 0.0052 0.0178125 0.554928 0.831707 1 
0.0918 0.2642 0.0056 -0.0880809 0.587687 0.80428 1 
0.0918 0.2644 0.0059 -0.0880809 0.587687 0.80428 1 
0.0912 0.2644 0.0058 0.0762101 0.453104 0.888194 1 
0.0916 0.2647 0.0058 0.0805262 0.512825 0.854708 1 
0.0915 0.2644 0.006 0.0501702 0.446108 0.893572 1 
0.0921 0.2644 0.0056 0.469057 0.291408 0.833707 1 
0.0921 0.2644 0.0059 0.24999 0.434831 0.865117 1 
0.0924 0.2647 0.0058 0.147282 0.557886 0.816745 1 
0.0927 0.2647 0.0058 0.147282 0.557886 0.816745 1 
0.0921 0.2642 0.0063 -0.0225515 0.433785 0.900734 1 
0.0924 0.2645 0.006 0.496145 0.24116 0.834076 1 
0.0927 0.2647 0.006 0.36786 0.415224 0.832027 1 
0.0928 0.2645 0.0058 0.36786 0.415224 0.832027 1 
0.093 0.2644 0.0056 0.224946 0.518752 0.8248 1 
0.0931 0.2645 0.0058 0.338646 0.448902 0.826925 1 
0.093 0.2647 0.0059 0.224946 0.518752 0.8248 1 
0.0934 0.2644 0.0058 -0.0207768 0.596986 0.801983 1 
0.0904 0.266 0.0047 0.330852 0.330852 0.883784 1 
0.0907 0.2662 0.0046 0.317871 0.341975 0.884314 1 
0.0909 0.2663 0.0046 0.295056 0.434087 0.851182 1 
0.091 0.2668 0.0046 0.324886 0.298183 0.897516 1 
0.091 0.2665 0.0046 0.297487 0.423881 0.855469 1 
0.0906 0.2669 0.0047 0.348184 0.234551 0.907609 1 
0.0918 0.2656 0.0044 0.239633 0.612396 0.753357 1 
0.0918 0.2659 0.0047 0.21896 0.600976 0.76869 1 
0.0924 0.266 0.004 0.230863 0.565537 0.791752 1 
0.0921 0.266 0.0043 0.268718 0.624888 0.733011 1 
0.0924 0.2663 0.0043 0.229075 0.593724 0.771373 1 
0.0925 0.2662 0.0042 0.230863 0.565537 0.791752 1 
0.0921 0.2662 0.0046 0.26532 0.630732 0.729234 1 
0.0924 0.2663 0.0046 0.28365 0.66185 0.6939 1 
0.0927 0.2663 0.0044 0.362101 0.68324 0.634086 1 
0.0924 0.2665 0.0041 0.265432 0.303143 0.915232 1 
0.0924 0.2668 0.0041 0.275914 0.310951 0.909495 1 
0.0924 0.2671 0.0043 0.275914 0.310951 0.909495 1 
0.0927 0.2665 0.0047 0.362101 0.68324 0.634086 1 
0.0898 0.2662 0.0052 0.42605 0.231711 0.874523 1 
0.0903 0.2662 0.0049 0.340464 0.325333 0.882181 1 
0.0903 0.2663 0.0048 0.352384 0.278041 0.893599 1 
0.0897 0.2656 0.0055 0.333574 0.348805 0.875821 1 
0.0901 0.2656 0.0054 0.300967 0.370538 0.878704 1 
0.0898 0.266 0.0053 0.366859 0.315103 0.875286 1 
0.0897 0.2663 0.0054 0.42249 0.231399 0.876331 1 
0.0906 0.2663 0.0052 0.311525 0.366231 0.876828 1 
0.0909 0.2663 0.0048 0.316071 0.374094 0.871868 1 
0.09 0.2665 0.005 0.402313 0.187359 0.896126 1 
0.0907 0.2666 0.0049 0.31712 0.387591 0.865568 1 
0.0906 0.2666 0.0052 0.336964 0.304017 0.891083 1 
0.091 0.2665 0.0053 0.303403 0.446547 0.841749 1 
0.0897 0.2659 0.0056 0.363996 0.303581 0.880537 1 
0.0921 0.266 0.0048 0.264619 0.625895 0.733644 1 
0.0898 0.2632 0.0064 0.19137 0.308706 0.931707 1 
0.09 0.263 0.0066 0.184515 0.271989 0.944445 1 
0.0903 0.2629 0.0066 0.105431 0.373802 0.921497 1 
0.0907 0.2626 0.0064 0.115291 0.398656 0.909825 1 
0.0906 0.2632 0.0066 0.11607 0.409741 0.904787 1 
0.091 0.2629 0.0064 0.102206 0.372029 0.922577 1 
0.0918 0.2638 0.0064 -0.0171454 0.43391 0.900793 1 
0.0787 0.2751 0.0142 0.0534387 0.469987 0.881054 1 
0.0788 0.2751 0.0141 -0.0199728 0.448721 0.893448 1 
0.0775 0.2722 0.0159 0.190129 0.328149 0.925294 1 
0.0779 0.2728 0.0159 0.201482 0.46117 0.864134 1 
0.0793 0.2727 0.0159 0.310594 0.454185 0.835014 1 
0.0785 0.2731 0.0154 0.265414 0.49513 0.827286 1 
0.0788 0.2731 0.0159 0.277258 0.47552 0.834871 1 
0.0785 0.2736 0.0159 0.226326 0.534252 0.814464 1 
0.079 0.2734 0.0157 0.251845 0.508325 0.823517 1 
0.0788 0.2734 0.0159 0.265953 0.502356 0.822744 1 
0.0799 0.2736 0.0153 0.125503 0.580268 0.804697 1 
0.0799 0.2736 0.0154 0.0943458 0.584944 0.805568 1 
0.0797 0.2731 0.0157 0.159404 0.534822 0.829793 1 
0.0796 0.2734 0.0159 0.248454 0.501537 0.828693 1 
0.0793 0.2734 0.0159 0.392055 0.433661 0.811314 1 
0.0794 0.2736 0.0159 0.31737 0.487897 0.813162 1 
0.0796 0.2736 0.0156 0.223552 0.556567 0.800161 1 
0.079 0.274 0.015 0.260568 0.535178 0.803548 1 
0.0787 0.2743 0.0148 0.194566 0.511302 0.837087 1 
0.0799 0.274 0.0147 0.0807211 0.514066 0.853944 1 
0.0796 0.274 0.015 -0.107883 0.510647 0.852996 1 
0.0796 0.274 0.0151 -0.0660809 0.521618 0.850616 1 
0.079 0.2749 0.0144 0.126062 0.505696 0.853452 1 
0.079 0.2751 0.0145 0.0717145 0.516063 0.853543 1 
0.0791 0.2749 0.0147 0.144965 0.50518 0.850752 1 
0.0791 0.2749 0.0147 0.144965 0.50518 0.850752 1 
0.0788 0.2745 0.0148 0.145615 0.513331 0.845746 1 
0.079 0.2746 0.0148 0.194266 0.513525 0.835795 1 
0.0791 0.2749 0.0148 0.144965 0.50518 0.850752 1 
0.0796 0.2746 0.0147 0.0798922 0.480755 0.873208 1 
0.0793 0.2751 0.0145 0.178082 0.513297 0.839532 1 
0.0793 0.2751 0.0147 0.129421 0.504598 0.853599 1 
0.0796 0.2749 0.0144 0.126246 0.503534 0.854702 1 
0.0793 0.2746 0.0148 0.327344 0.479155 0.814406 1 
0.0796 0.2745 0.015 -0.065143 0.475405 0.877352 1 
0.0791 0.2739 0.0154 0.196483 0.549848 0.811826 1 
0.0784 0.2737 0.0156 0.233711 0.543261 0.806379 1 
0.0785 0.2737 0.0156 0.233711 0.543261 0.806379 1 
0.0784 0.2737 0.0159 0.216632 0.545422 0.809682 1 
0.0796 0.2739 0.0155 -0.177636 0.512009 0.840412 1 
0.0797 0.274 0.0153 0.209887 0.546932 0.81044 1 
0.0799 0.2737 0.0154 0.140982 0.562444 0.814728 1 
0.0796 0.2739 0.0154 -0.252995 0.476858 0.841784 1 
0.0794 0.274 0.0153 0.18567 0.541916 0.819667 1 
0.0802 0.2725 0.0151 0.209174 0.483055 0.850238 1 
0.0811 0.2722 0.0151 0.171681 0.45635 0.873081 1 
0.0816 0.2728 0.015 0.0816186 0.444061 0.892272 1 
0.0803 0.2727 0.0153 0.196667 0.496921 0.845217 1 
0.08 0.2731 0.0153 0.216632 0.545422 0.809682 1 
0.0814 0.2734 0.0153 0.12485 0.475005 0.871081 1 
0.0816 0.2734 0.0154 0.118341 0.460533 0.879718 1 
0.0817 0.2734 0.0151 0.0691983 0.413833 0.907719 1 
0.0819 0.2728 0.0154 0.0227657 0.464687 0.885182 1 
0.0823 0.2743 0.015 0.999999 0.000977516 0.000977516 1 
0.082 0.2742 0.015 -0.0166939 0.371118 0.928436 1 
0.0826 0.2746 0.0148 0.999999 0.000977516 0.000977516 1 
0.0778 0.2701 0.0168 -0.0344651 0.53352 0.845085 1 
0.0778 0.2703 0.0172 -0.0548236 0.549642 0.8336 1 
0.0779 0.2716 0.0166 0.0411072 0.404441 0.91364 1 
0.0775 0.2704 0.0174 -0.0984699 0.509475 0.854833 1 
0.0778 0.2706 0.0169 0.0394184 0.47438 0.879437 1 
0.0782 0.2706 0.0171 0.0625027 0.487521 0.870871 1 
0.0781 0.271 0.0169 0.0681986 0.488525 0.869881 1 
0.0779 0.2704 0.0174 0.00136187 0.570625 0.82121 1 
0.0778 0.2707 0.0174 -0.025676 0.479735 0.877037 1 
0.0781 0.2706 0.0172 0.0367744 0.486239 0.873052 1 
0.0785 0.2715 0.0162 0.128919 0.429258 0.893934 1 
0.079 0.2716 0.0162 0.158023 0.442174 0.882899 1 
0.0784 0.2716 0.0168 0.10785 0.432801 0.895015 1 
0.0793 0.2713 0.0162 0.188447 0.470377 0.86211 1 
0.0797 0.2716 0.0166 -0.244873 0.422143 0.87283 1 
0.0787 0.2712 0.0169 0.0969879 0.46245 0.881325 1 
0.0791 0.2712 0.0169 0.109331 0.4643 0.878904 1 
0.079 0.271 0.0171 0.122161 0.478585 0.869502 1 
0.079 0.2709 0.0172 0.140843 0.483512 0.863933 1 
0.0793 0.2707 0.0169 0.128422 0.48627 0.86432 1 
0.0796 0.271 0.0169 0.112902 0.484478 0.867487 1 
0.0799 0.2712 0.0168 0.230077 0.492152 0.839554 1 
0.0793 0.2709 0.0172 0.129019 0.494332 0.859645 1 
0.0778 0.2704 0.0177 -0.0579803 0.567075 0.821623 1 
0.0779 0.2704 0.0177 -0.125121 0.575556 0.808134 1 
0.0803 0.271 0.0165 0.219537 0.479953 0.849381 1 
0.0802 0.271 0.0166 0.229583 0.485014 0.843833 1 
0.0775 0.2727 0.0166 0.163997 0.346216 0.92371 1 
0.0784 0.2722 0.0166 0.137007 0.408197 0.902554 1 
0.0784 0.2733 0.016 0.273989 0.47832 0.83435 1 
0.0776 0.2727 0.0171 0.082879 0.389939 0.917104 1 
0.0775 0.2728 0.0171 0.114064 0.369677 0.922132 1 
0.0788 0.2722 0.016 0.322502 0.39657 0.859491 1 
0.0787 0.2725 0.0162 0.306259 0.413988 0.857216 1 
0.0787 0.2721 0.0165 0.176939 0.43723 0.881772 1 
0.0785 0.2722 0.0165 0.201176 0.412631 0.888405 1 
0.0787 0.2725 0.0166 0.349756 0.393281 0.850295 1 
0.0787 0.2727 0.0168 0.305795 0.404142 0.862067 1 
0.0799 0.2725 0.0163 0.204624 0.458536 0.864797 1 
0.0794 0.2728 0.0166 0.271814 0.446881 0.852299 1 
0.0793 0.2725 0.0166 0.29181 0.443119 0.847639 1 
0.0797 0.2725 0.0166 0.266644 0.467013 0.843089 1 
0.079 0.2734 0.016 0.265686 0.498744 0.825025 1 
0.0791 0.2734 0.016 0.221827 0.515556 0.827644 1 
0.0784 0.2734 0.0165 0.183403 0.496529 0.848423 1 
0.0796 0.273 0.0162 0.22645 0.481777 0.846529 1 
0.0787 0.2737 0.0162 0.238692 0.518964 0.820794 1 
0.0802 0.2725 0.0162 0.224613 0.456763 0.860765 1 
0.0813 0.2727 0.016 0.211384 0.466245 0.85903 1 
0.082 0.2722 0.0162 -0.25128 0.696945 0.671659 1 
0.0817 0.2724 0.0162 0.0843488 0.550412 0.830621 1 
0.079 0.2752 0.0142 -0.137738 0.416054 0.898848 1 
0.0791 0.2755 0.0142 -0.391604 0.314819 0.864601 1 
0.0788 0.2754 0.0144 -0.0199728 0.448721 0.893448 1 
0.079 0.2755 0.0144 -0.128202 0.409964 0.903047 1 
0.079 0.276 0.0142 -0.422452 0.242046 0.873469 1 
0.0794 0.2752 0.0144 -0.120714 0.444511 0.887602 1 
0.0793 0.2757 0.0141 -0.357865 0.324363 0.875627 1 
0.0793 0.2757 0.0142 -0.357865 0.324363 0.875627 1 
0.0793 0.2757 0.0144 -0.391604 0.314819 0.864601 1 
0.079 0.2763 0.0142 -0.389061 0.248939 0.886939 1 
0.079 0.2752 0.0145 0.123208 0.505878 0.85376 1 
0.0793 0.2755 0.0145 -0.137738 0.416054 0.898848 1 
0.0797 0.2755 0.0147 -0.41555 0.328393 0.848219 1 
0.0793 0.2757 0.0144 -0.391604 0.314819 0.864601 1 
0.0793 0.2758 0.0147 -0.391604 0.314819 0.864601 1 
0.0796 0.2754 0.0148 -0.130717 0.461099 0.877668 1 
0.0788 0.2761 0.0144 -0.389861 0.269441 0.880574 1 
0.0791 0.2761 0.0144 -0.422452 0.242046 0.873469 1 
0.0799 0.2761 0.0145 -0.523524 0.204857 0.827016 1 
0.0793 0.2767 0.0145 -0.428244 0.222329 0.875886 1 
0.0826 0.2669 0.0188 0.385856 0.289014 -0.87612 1 
0.082 0.268 0.0186 0.457691 0.628697 -0.628697 1 
0.0823 0.268 0.0186 0.440878 0.520137 -0.731494 1 
0.0825 0.268 0.0186 0.468237 0.455093 -0.757393 1 
0.0829 0.2677 0.0188 0.311405 0.455371 -0.834065 1 
0.0832 0.2677 0.0189 0.200773 0.502687 -0.840831 1 
0.0819 0.2686 0.0184 0.47513 0.656452 -0.585938 1 
0.0819 0.2688 0.0188 0.467493 0.614946 -0.635053 1 
0.0823 0.2683 0.0189 0.348317 0.562167 -0.750096 1 
0.0822 0.2686 0.0189 0.378327 0.574861 -0.725537 1 
0.0822 0.2686 0.0191 0.316806 0.570894 -0.757439 1 
0.0823 0.2688 0.0191 0.302371 0.571146 -0.763128 1 
0.0826 0.2681 0.0189 0.209363 0.536397 -0.817585 1 
0.0828 0.268 0.0189 0.241516 0.509183 -0.826077 1 
0.0831 0.268 0.0191 0.224868 0.509394 -0.830634 1 
0.0829 0.2683 0.0191 0.182454 0.544345 -0.818779 1 
0.0826 0.2686 0.0191 0.265224 0.544573 -0.795673 1 
0.0832 0.2686 0.0192 0.185652 0.532805 -0.825622 1 
0.0834 0.2688 0.0192 0.19155 0.517335 -0.83407 1 
0.0838 0.2686 0.0195 0.168477 0.526304 -0.833439 1 
0.0841 0.2688 0.0195 0.150077 0.545328 -0.824678 1 
0.0847 0.2686 0.0198 0.0937434 0.555249 -0.826384 1 
0.0835 0.2688 0.0203 0.169199 0.534549 -0.828027 1 
0.0852 0.2686 0.0194 0.108132 0.526243 -0.843431 1 
0.085 0.2686 0.0197 0.087463 0.554888 -0.827314 1 
0.0853 0.2688 0.0197 0.112804 0.587462 -0.801351 1 
0.0814 0.2692 0.0184 0.172003 0.972137 0.159262 1 
0.0814 0.2692 0.0188 0.112357 0.987561 0.109992 1 
0.0817 0.2689 0.0186 -0.257812 0.744967 0.61527 1 
0.0817 0.2691 0.0189 0.233515 0.929813 -0.284463 1 
0.082 0.2691 0.0189 0.456267 0.596657 -0.660167 1 
0.0811 0.2692 0.0198 -0.026983 0.934127 -0.355919 1 
0.0811 0.2692 0.0197 0.00336987 0.987372 -0.158384 1 
0.0811 0.2695 0.0198 -0.043278 0.965718 -0.255959 1 
0.0811 0.2695 0.0198 -0.043278 0.965718 -0.255959 1 
0.0823 0.2692 0.0192 0.286007 0.627937 -0.723806 1 
0.082 0.2692 0.0192 0.337356 0.633968 -0.695899 1 
0.0823 0.2695 0.0195 0.217812 0.582376 -0.783196 1 
0.0823 0.2695 0.0198 0.211532 0.585187 -0.782822 1 
0.0826 0.2689 0.0194 0.212993 0.540911 -0.813664 1 
0.0825 0.2692 0.0194 0.207573 0.582741 -0.785701 1 
0.0826 0.2691 0.0195 0.206099 0.53891 -0.816762 1 
0.0832 0.2692 0.0195 0.15759 0.574827 -0.802957 1 
0.0831 0.2692 0.0195 0.15721 0.573444 -0.804019 1 
0.0825 0.2694 0.0195 0.194233 0.588818 -0.784581 1 
0.0828 0.2692 0.0198 0.164113 0.573642 -0.802497 1 
0.0825 0.2695 0.0198 0.15772 0.590325 -0.791606 1 
0.0831 0.2695 0.0198 0.160791 0.572538 -0.803957 1 
0.0831 0.2695 0.02 0.15089 0.5692 -0.808235 1 
0.082 0.2697 0.0195 0.271569 0.620955 -0.7353 1 
0.0822 0.27 0.0197 0.215809 0.610164 -0.762317 1 
0.0822 0.27 0.0198 0.216347 0.630365 -0.745543 1 
0.0828 0.2698 0.02 0.157994 0.600379 -0.783953 1 
0.0832 0.2689 0.0203 0.137509 0.563341 -0.814701 1 
0.0826 0.2695 0.0201 0.17414 0.576932 -0.798013 1 
0.0829 0.2701 0.0201 0.123304 0.628406 -0.768051 1 
0.0832 0.2703 0.0203 0.128958 0.591427 -0.79598 1 
0.0835 0.2692 0.0195 0.185825 0.545388 -0.817326 1 
0.0834 0.2695 0.0195 0.189359 0.549897 -0.813484 1 
0.0837 0.2689 0.0197 0.166838 0.557631 -0.81315 1 
0.0835 0.2692 0.0198 0.179683 0.548109 -0.816879 1 
0.0832 0.2695 0.0198 0.15759 0.574827 -0.802957 1 
0.0838 0.2694 0.0198 0.156131 0.54274 -0.825262 1 
0.0846 0.2689 0.0195 0.105489 0.541897 -0.833798 1 
0.0844 0.2691 0.0195 0.117934 0.543077 -0.83136 1 
0.0847 0.2692 0.0195 0.105832 0.546557 -0.830708 1 
0.0841 0.2692 0.0197 0.14656 0.537385 -0.830504 1 
0.0843 0.2691 0.0198 0.129977 0.527208 -0.839736 1 
0.0843 0.2694 0.0198 0.13021 0.534008 -0.835393 1 
0.0843 0.2694 0.02 0.130643 0.538717 -0.832296 1 
0.0841 0.2695 0.0198 0.140067 0.535203 -0.83303 1 
0.0846 0.2694 0.0198 0.106248 0.56326 -0.81942 1 
0.0834 0.2697 0.0197 0.169888 0.560779 -0.810349 1 
0.0832 0.2697 0.0198 0.147717 0.571469 -0.807219 1 
0.0835 0.2697 0.02 0.169199 0.534549 -0.828027 1 
0.0838 0.2692 0.0201 0.146071 0.532644 -0.833639 1 
0.0841 0.2692 0.0201 0.139599 0.530477 -0.836126 1 
0.0844 0.2695 0.0203 0.118952 0.571262 -0.812102 1 
0.0832 0.2697 0.0203 0.131164 0.564446 -0.814983 1 
0.0834 0.2698 0.0204 0.162848 0.53934 -0.826192 1 
0.0847 0.2698 0.0201 0.109582 0.582978 -0.805064 1 
0.0847 0.2701 0.0203 0.100299 0.574175 -0.812566 1 
0.085 0.2689 0.0194 0.087463 0.554888 -0.827314 1 
0.0856 0.2689 0.0195 0.10951 0.579674 -0.807456 1 
0.085 0.2689 0.0198 0.0908567 0.572541 -0.814826 1 
0.0849 0.2691 0.02 0.0996159 0.55294 -0.827245 1 
0.0856 0.2689 0.0198 0.10951 0.579674 -0.807456 1 
0.0853 0.2689 0.0198 0.103753 0.603521 -0.790568 1 
0.0858 0.2689 0.0194 0.103348 0.572051 -0.813681 1 
0.0858 0.2689 0.0197 0.103348 0.572051 -0.813681 1 
0.0856 0.2689 0.0203 0.0727951 0.56666 -0.82073 1 
0.0852 0.2695 0.0201 0.106762 0.586461 -0.802911 1 
0.0853 0.2692 0.0201 0.103936 0.601658 -0.791963 1 
0.0855 0.2694 0.0203 0.10342 0.575362 -0.811334 1 
0.0852 0.2695 0.0206 0.0937348 0.563851 -0.82054 1 
0.0856 0.2689 0.0201 0.0727951 0.56666 -0.82073 1 
0.085 0.2698 0.0201 0.106226 0.571877 -0.813433 1 
0.0852 0.2698 0.0203 0.0937348 0.563851 -0.82054 1 
0.085 0.2701 0.0203 0.105995 0.561919 -0.820373 1 
0.0736 0.2808 0.0304 -0.711214 0.702864 0.0125263 1 
0.0733 0.2811 0.0314 -0.670842 0.739499 0.0557843 1 
0.0739 0.2809 0.0302 -0.781172 0.556169 0.28363 1 
0.0739 0.2809 0.0304 -0.781172 0.556169 0.28363 1 
0.0743 0.2811 0.0305 -0.768194 0.511588 0.384909 1 
0.0742 0.2808 0.0306 -0.786763 0.535634 0.306758 1 
0.074 0.2811 0.0308 -0.761388 0.561786 0.32355 1 
0.074 0.2809 0.031 -0.755943 0.605068 0.249885 1 
0.0746 0.2811 0.031 -0.703919 0.554149 0.444317 1 
0.0745 0.2811 0.0311 -0.712371 0.563616 0.418167 1 
0.0751 0.2808 0.031 -0.490055 0.611306 0.62141 1 
0.0751 0.2811 0.0311 -0.2803 0.505793 0.815846 1 
0.074 0.2809 0.0313 -0.781313 0.599259 0.174468 1 
0.0748 0.2813 0.0313 -0.677642 0.693438 0.244836 1 
0.0746 0.2813 0.0314 -0.472263 0.532339 0.702554 1 
0.0746 0.2814 0.0314 -0.407318 0.505467 0.760654 1 
0.0751 0.2816 0.0314 -0.162356 0.415229 0.895112 1 
0.0749 0.2816 0.0316 0.0824771 0.200653 0.976184 1 
0.0757 0.2806 0.0314 -0.151777 0.443766 0.883196 1 
0.0754 0.2813 0.0314 -0.117948 0.387147 0.914443 1 
0.0763 0.2859 0.0285 0.882031 -0.471039 0.0120095 1 
0.0763 0.2859 0.0287 0.872386 -0.488802 -0.00399566 1 
0.0767 0.2861 0.0284 0.87124 -0.489476 -0.0368129 1 
0.0766 0.2861 0.0286 0.891965 -0.451947 0.0119282 1 
0.0751 0.2829 0.0303 0.0492704 0.400821 0.914831 1 
0.0749 0.2832 0.0302 0.060559 0.407764 0.911077 1 
0.0754 0.2829 0.0299 0.0832319 0.399786 0.912822 1 
0.0757 0.2832 0.0299 0.0769022 0.387209 0.918779 1 
0.0754 0.2828 0.0302 0.086748 0.417216 0.904657 1 
0.0754 0.2826 0.0303 0.0466767 0.404087 0.913529 1 
0.0754 0.2831 0.0302 0.0745587 0.402617 0.912327 1 
0.0766 0.2826 0.0302 0.0972287 0.463598 0.880695 1 
0.0749 0.2838 0.0299 0.0455722 0.355463 0.933579 1 
0.0745 0.2835 0.0303 0.0356855 0.405757 0.913284 1 
0.0749 0.2835 0.03 0.0489973 0.388005 0.920354 1 
0.0749 0.2835 0.0302 0.0602901 0.392556 0.91775 1 
0.0746 0.2837 0.0302 0.0460232 0.37213 0.927039 1 
0.0751 0.284 0.0302 0.0864549 0.336509 0.937703 1 
0.0757 0.284 0.0294 0.0782417 0.34612 0.934922 1 
0.0766 0.2847 0.0296 0.191464 0.413621 0.890089 1 
0.0755 0.2834 0.0299 0.0765684 0.377469 0.922851 1 
0.0757 0.2835 0.0296 0.0535928 0.351621 0.934607 1 
0.0757 0.2835 0.0298 0.0456832 0.356329 0.933243 1 
0.076 0.2837 0.0296 0.0346499 0.337516 0.940682 1 
0.0757 0.284 0.0296 0.0757227 0.349387 0.933914 1 
0.0757 0.2838 0.0298 0.0586374 0.337491 0.939501 1 
0.0754 0.2832 0.0302 0.0919377 0.4048 0.909772 1 
0.0752 0.2838 0.03 0.0699789 0.344613 0.936133 1 
0.0767 0.2834 0.0303 0.0166614 0.362705 0.931755 1 
0.0755 0.2841 0.0298 0.0748874 0.327139 0.942004 1 
0.0757 0.2841 0.0297 0.0756049 0.346191 0.935113 1 
0.0758 0.2841 0.0296 0.0787261 0.358938 0.930035 1 
0.076 0.2844 0.03 0.0818272 0.36621 0.926927 1 
0.0755 0.2847 0.0303 -0.0862756 0.403989 0.910686 1 
0.076 0.2846 0.0302 0.0847017 0.367041 0.926341 1 
0.0761 0.2843 0.0296 0.0911583 0.385042 0.918386 1 
0.076 0.2843 0.0298 0.0819499 0.369447 0.925631 1 
0.0763 0.2847 0.0297 0.152293 0.399948 0.903797 1 
0.0761 0.2844 0.0298 0.0913866 0.386006 0.917958 1 
0.0761 0.2847 0.0299 0.117649 0.386166 0.914896 1 
0.0761 0.2844 0.03 0.0818272 0.36621 0.926927 1 
0.076 0.2847 0.0302 0.0820311 0.367123 0.926548 1 
0.0749 0.282 0.0305 -0.0327741 0.386735 0.921608 1 
0.0751 0.2819 0.0311 -0.0751645 0.422288 0.90334 1 
0.0746 0.2823 0.0311 0.539947 0.0345234 0.840991 1 
0.0751 0.2822 0.0309 -0.0144903 0.430757 0.902351 1 
0.0751 0.2826 0.0306 0.0439782 0.411795 0.910215 1 
0.0749 0.2829 0.0305 0.234365 0.291181 0.927517 1 
0.0751 0.2831 0.0306 0.0636371 0.412964 0.908521 1 
0.0748 0.2817 0.0313 -0.065224 0.37404 0.925116 1 
0.0746 0.2822 0.0314 -0.0269429 0.352823 0.935302 1 
0.0746 0.2817 0.0319 0.355326 -0.0323024 0.934184 1 
0.0751 0.2819 0.0316 -0.119129 0.410645 0.90398 1 
0.0754 0.282 0.0305 -0.0708463 0.470919 0.879327 1 
0.0755 0.2823 0.0306 -0.0421394 0.46897 0.882208 1 
0.0752 0.282 0.0311 -0.0442589 0.422471 0.905295 1 
0.0754 0.282 0.0308 -0.0614267 0.443637 0.894099 1 
0.0754 0.2823 0.0308 -0.0622849 0.483054 0.873372 1 
0.0761 0.282 0.0308 0.0423806 0.479858 0.876322 1 
0.0766 0.2823 0.0309 0.10189 0.515191 0.850998 1 
0.0752 0.2826 0.0305 0.041207 0.405423 0.9132 1 
0.0754 0.2829 0.0306 0.0808742 0.415337 0.906065 1 
0.0758 0.2829 0.0306 0.095916 0.432317 0.896606 1 
0.0757 0.2832 0.0306 0.0926863 0.424697 0.900579 1 
0.076 0.2826 0.0305 0.105483 0.44303 0.89028 1 
0.0763 0.2828 0.0305 0.113943 0.429044 0.896068 1 
0.0766 0.2826 0.0308 0.103793 0.479152 0.871573 1 
0.076 0.2829 0.0306 0.0991633 0.434363 0.895263 1 
0.0754 0.2835 0.0308 0.119793 0.429844 0.894921 1 
0.0755 0.2835 0.0308 0.0893387 0.408209 0.908506 1 
0.076 0.2832 0.0308 0.0690115 0.407303 0.910682 1 
0.0758 0.2835 0.0308 0.0662267 0.404118 0.912306 1 
0.0763 0.2855 0.0293 0.873086 -0.487147 0.0202416 1 
0.0763 0.2853 0.0294 0.917086 -0.383609 0.10862 1 
0.0763 0.2855 0.0294 0.878109 -0.477616 0.0284134 1 
0.0764 0.2853 0.0293 0.83943 -0.045939 0.541523 1 
0.0764 0.2859 0.029 0.891303 -0.451719 0.0391041 1 
0.0766 0.2861 0.0288 0.89092 -0.454065 0.00926663 1 
0.0763 0.2858 0.0293 0.893371 -0.447361 0.0418979 1 
0.0763 0.2858 0.0296 0.871072 -0.491065 0.00936637 1 
0.0764 0.2859 0.0293 0.893371 -0.447361 0.0418979 1 
0.0763 0.2849 0.0297 0.166029 0.423014 0.890783 1 
0.0763 0.285 0.0296 0.192271 0.430041 0.882098 1 
0.0763 0.2849 0.0299 0.14367 0.416784 0.89758 1 
0.0766 0.285 0.0299 0.211545 0.418652 0.883164 1 
0.0767 0.2852 0.0299 0.288764 0.414048 0.863238 1 
0.0764 0.2853 0.0297 0.319392 0.405797 0.85634 1 
0.0761 0.2849 0.0302 0.0916503 0.392592 0.915135 1 
0.0761 0.2849 0.0303 0.0881096 0.380905 0.920407 1 
0.0746 0.2817 0.032 -0.776005 0.614524 0.142043 1 
0.0772 0.2859 0.0282 0.601337 0.428099 0.67463 1 
0.0772 0.2862 0.0284 0.601337 0.428099 0.67463 1 
0.0772 0.2864 0.0282 0.651973 -0.703234 -0.283536 1 
0.0769 0.2862 0.0284 0.56454 0.451299 0.691103 1 
0.0772 0.2864 0.0284 0.680044 -0.683229 -0.265966 1 
0.0769 0.2862 0.0286 0.877299 -0.479626 -0.0174654 1 
0.0776 0.2862 0.0287 0.601337 0.428099 0.67463 1 
0.077 0.2865 0.0279 0.617391 -0.769084 -0.165345 1 
0.0772 0.2868 0.0278 0.596841 -0.79033 -0.138419 1 
0.0769 0.2865 0.028 0.604567 -0.758457 -0.243397 1 
0.077 0.2865 0.0281 0.604567 -0.758457 -0.243397 1 
0.0772 0.2865 0.0284 0.651973 -0.703234 -0.283536 1 
0.0773 0.2867 0.028 0.636853 -0.761551 -0.120245 1 
0.0784 0.282 0.0303 0.314567 0.621069 0.717859 1 
0.0776 0.282 0.0302 0.129977 0.527208 0.839736 1 
0.0773 0.2828 0.0302 0.108805 0.450765 0.885987 1 
0.0775 0.2828 0.0303 0.125804 0.498879 0.857493 1 
0.077 0.2829 0.0302 0.0709753 0.378981 0.922679 1 
0.0769 0.2832 0.03 0.024451 0.359044 0.933 1 
0.0787 0.2819 0.0303 0.314908 0.634661 0.705718 1 
0.0788 0.2817 0.0303 0.361806 0.620472 0.695781 1 
0.0772 0.2832 0.0298 0.0374983 0.353001 0.934871 1 
0.0775 0.2832 0.0299 0.0269266 0.347481 0.9373 1 
0.0769 0.2832 0.0302 0.0296218 0.356749 0.93373 1 
0.0776 0.2834 0.03 -0.00874878 0.323705 0.946118 1 
0.077 0.2823 0.0308 0.104525 0.508304 0.854811 1 
0.0775 0.2817 0.031 0.130543 0.463356 0.876504 1 
0.0772 0.282 0.0311 0.127095 0.455542 0.881095 1 
0.0769 0.282 0.031 0.105994 0.462132 0.880454 1 
0.0772 0.2823 0.0308 0.131066 0.561079 0.81732 1 
0.0775 0.2823 0.0309 0.13547 0.505462 0.852148 1 
0.0781 0.282 0.0308 0.239359 0.589792 0.771267 1 
0.0778 0.2823 0.0304 0.227204 0.561055 0.795987 1 
0.0779 0.282 0.0308 0.255884 0.579271 0.773931 1 
0.0778 0.2823 0.0308 0.227204 0.561055 0.795987 1 
0.0782 0.2822 0.0304 0.239359 0.589792 0.771267 1 
0.077 0.2826 0.0304 0.10048 0.476924 0.873182 1 
0.0772 0.2825 0.0305 0.119635 0.500163 0.857627 1 
0.0775 0.2826 0.0306 0.138136 0.574823 0.806534 1 
0.0773 0.2817 0.0313 0.139723 0.45374 0.880112 1 
0.0784 0.2822 0.0305 0.314567 0.621069 0.717859 1 
0.0769 0.2862 0.029 0.891965 -0.451947 0.0119282 1 
0.0695 0.2782 0.0275 -0.716698 0.268563 0.643598 1 
0.0694 0.2784 0.0279 -0.32562 0.537354 0.77796 1 
0.0691 0.2775 0.0287 0.0335555 0.444275 0.895262 1 
0.0692 0.2779 0.0282 -0.274422 0.531594 0.801312 1 
0.0691 0.2778 0.0284 -0.0892345 0.502829 0.859767 1 
0.0692 0.2781 0.0282 -0.295598 0.529547 0.795111 1 
0.0692 0.2781 0.028 -0.311184 0.537791 0.783547 1 
0.0695 0.2782 0.0281 -0.247003 0.542164 0.803149 1 
0.0695 0.2782 0.0284 -0.194637 0.520541 0.831357 1 
0.0691 0.2778 0.0286 -0.0567515 0.488617 0.870651 1 
0.0692 0.2776 0.0284 -0.0228663 0.477501 0.878333 1 
0.0695 0.2778 0.0285 0.0448104 0.454893 0.889418 1 
0.0695 0.2778 0.0287 0.0730045 0.442159 0.893961 1 
0.0695 0.2781 0.0285 -0.0920142 0.488383 0.867765 1 
0.0694 0.2781 0.0286 -0.0651992 0.484138 0.872559 1 
0.0704 0.2781 0.0281 -0.450863 0.434587 0.779652 1 
0.0697 0.2782 0.0286 -0.415583 0.477514 0.774126 1 
0.0677 0.2796 0.0257 -0.345603 -0.73826 0.57925 1 
0.0677 0.2796 0.026 -0.449291 -0.653059 0.609633 1 
0.068 0.2791 0.0264 -0.665066 0.234267 0.709089 1 
0.068 0.2796 0.0266 -0.664068 0.230775 0.711165 1 
0.0675 0.2797 0.0264 -0.429447 -0.71464 0.552146 1 
0.0683 0.2793 0.0267 -0.663351 0.26884 0.698348 1 
0.0686 0.2794 0.0267 -0.652241 0.290063 0.700318 1 
0.0683 0.2794 0.0269 -0.646462 0.293555 0.704211 1 
0.0683 0.2793 0.027 -0.659689 0.30807 0.685495 1 
0.0683 0.2794 0.027 -0.660513 0.297311 0.689441 1 
0.0688 0.2797 0.0269 -0.667801 0.237266 0.705512 1 
0.0692 0.2797 0.0269 -0.661996 0.0920656 0.743832 1 
0.0689 0.2797 0.0272 -0.667086 0.258278 0.698777 1 
0.0692 0.2797 0.027 -0.659545 0.219848 0.718795 1 
0.0691 0.28 0.0269 -0.662609 0.169079 0.729631 1 
0.0686 0.2793 0.0272 -0.773927 0.107204 0.624135 1 
0.0688 0.2799 0.0272 -0.670073 0.120346 0.732475 1 
0.0694 0.279 0.0278 -0.568462 0.338486 0.749852 1 
0.0689 0.2793 0.0275 -0.651247 0.294267 0.699488 1 
0.0692 0.2797 0.0273 -0.655908 0.272896 0.703784 1 
0.0689 0.2799 0.0273 -0.673971 0.280154 0.683576 1 
0.0692 0.2799 0.0275 -0.632022 0.275415 0.724358 1 
0.0695 0.2796 0.0273 -0.626821 0.268184 0.731555 1 
0.0695 0.2796 0.0275 -0.598078 0.257221 0.759039 1 
0.0689 0.2793 0.0278 -0.622509 0.315297 0.71629 1 
0.0689 0.2796 0.0278 -0.642644 0.272685 0.715997 1 
0.0692 0.2793 0.0279 -0.586127 0.306713 0.749921 1 
0.0695 0.2797 0.0278 -0.600583 0.25379 0.758216 1 
0.0698 0.2793 0.0276 -0.58162 0.260074 0.770765 1 
0.0701 0.2794 0.0278 -0.570377 0.248466 0.782901 1 
0.0698 0.2796 0.0276 -0.581311 0.246 0.775604 1 
0.07 0.2796 0.0278 -0.575449 0.24172 0.7813 1 
0.0698 0.2799 0.0278 -0.576473 0.221007 0.786661 1 
0.0695 0.2784 0.0282 -0.246801 0.538615 0.805595 1 
0.0695 0.2784 0.0284 -0.229418 0.528123 0.81759 1 
0.0692 0.2791 0.028 -0.560027 0.355496 0.748326 1 
0.0701 0.2784 0.0282 -0.469534 0.436814 0.767288 1 
0.0698 0.279 0.0282 -0.561198 0.326428 0.760593 1 
0.0697 0.2787 0.0284 -0.519328 0.427003 0.740248 1 
0.0697 0.2784 0.0286 -0.439456 0.468862 0.76619 1 
0.0698 0.2785 0.0286 -0.449345 0.459148 0.766337 1 
0.0701 0.2787 0.0286 -0.505965 0.373412 0.777537 1 
0.0692 0.2794 0.028 -0.591733 0.30629 0.74568 1 
0.0694 0.2793 0.0282 -0.576994 0.33456 0.745082 1 
0.0695 0.2796 0.0284 -0.580443 0.287836 0.761732 1 
0.0692 0.2796 0.028 -0.601054 0.282193 0.747731 1 
0.0695 0.2797 0.0284 -0.594097 0.281918 0.753373 1 
0.0703 0.2796 0.028 -0.570818 0.24553 0.783506 1 
0.0701 0.2799 0.028 -0.585814 0.225313 0.778496 1 
0.0697 0.2793 0.0285 -0.563762 0.316413 0.762926 1 
0.07 0.2793 0.0285 -0.563646 0.290556 0.773227 1 
0.0698 0.2796 0.0287 -0.560964 0.265554 0.784092 1 
0.0691 0.28 0.0276 -0.654696 0.315224 0.687027 1 
0.0698 0.28 0.028 -0.583355 0.228675 0.779362 1 
0.0704 0.2802 0.0282 -0.572731 0.19702 0.795715 1 
0.0701 0.2802 0.0282 -0.585814 0.225313 0.778496 1 
0.0704 0.2808 0.0284 -0.580329 0.218204 0.784605 1 
0.07 0.2811 0.0281 -0.641442 0.347652 0.683879 1 
0.0701 0.2811 0.0281 -0.641442 0.347652 0.683879 1 
0.0701 0.2809 0.0284 -0.589044 0.266886 0.762757 1 
0.0694 0.2761 0.0296 -0.175802 0.64053 0.74754 1 
0.0691 0.2764 0.0294 -0.243277 0.60113 0.761222 1 
0.0697 0.2764 0.0296 0.237225 0.544221 0.804703 1 
0.0691 0.2764 0.0296 -0.185016 0.603976 0.77523 1 
0.0697 0.2764 0.0299 -0.0979429 0.615432 0.782081 1 
0.0698 0.2763 0.0302 -0.0889804 0.640367 0.762897 1 
0.0688 0.2775 0.0288 -0.148419 0.504035 0.850835 1 
0.0686 0.2772 0.0291 -0.2186 0.590685 0.776727 1 
0.0688 0.2769 0.0296 -0.245971 0.593776 0.766112 1 
0.0688 0.277 0.0296 -0.270661 0.580892 0.767664 1 
0.0689 0.2772 0.029 -0.150556 0.558995 0.815388 1 
0.0692 0.2775 0.029 0.199046 0.350836 0.915038 1 
0.0689 0.2773 0.0291 -0.964715 0.141526 -0.222027 1 
0.0691 0.2769 0.0293 -0.953663 0.0136061 -0.300571 1 
0.0692 0.277 0.0294 -0.961164 0.0911117 -0.260503 1 
0.0695 0.2773 0.0293 0.0836628 0.341291 0.936227 1 
0.0698 0.2775 0.029 -0.328027 0.486494 0.809767 1 
0.0697 0.2775 0.0291 -0.341336 0.474695 0.811267 1 
0.0697 0.277 0.0294 -0.817521 0.5757 0.0151138 1 
0.0701 0.2778 0.029 -0.401006 0.478935 0.780907 1 
0.0697 0.2784 0.0288 -0.421606 0.473696 0.773215 1 
0.0695 0.2769 0.0297 0.190418 0.450214 0.872381 1 
0.0698 0.277 0.0296 -0.811167 0.584538 -0.0179645 1 
0.0698 0.2785 0.0288 -0.452347 0.445815 0.772419 1 
0.0701 0.2787 0.0288 -0.493167 0.383215 0.780982 1 
0.0703 0.2787 0.029 -0.470623 0.352568 0.808833 1 
0.0704 0.279 0.0288 -0.498105 0.282624 0.819765 1 
0.0703 0.2793 0.0288 -0.53698 0.267707 0.799991 1 
0.0704 0.2794 0.029 -0.500256 0.247819 0.829656 1 
0.0703 0.2793 0.0293 -0.487167 0.233657 0.84147 1 
0.0712 0.2781 0.0282 -0.181359 0.0839849 0.979824 1 
0.0706 0.2785 0.0282 -0.478377 0.341698 0.808949 1 
0.0706 0.2785 0.0284 -0.482766 0.345744 0.80461 1 
0.071 0.2785 0.0286 -0.482406 0.291941 0.825866 1 
0.0712 0.2787 0.0286 -0.472508 0.221913 0.852931 1 
0.0704 0.2797 0.0282 -0.567048 0.224038 0.792631 1 
0.0706 0.2799 0.0284 -0.543424 0.209716 0.81284 1 
0.071 0.2799 0.0287 -0.473584 0.175565 0.863073 1 
0.0704 0.2806 0.0284 -0.579309 0.214731 0.786315 1 
0.071 0.28 0.0285 -0.485839 0.166869 0.857971 1 
0.071 0.2802 0.0287 -0.478864 0.166497 0.861956 1 
0.0707 0.2805 0.0285 -0.523487 0.181495 0.832479 1 
0.0712 0.2805 0.0285 -0.493041 0.203549 0.84586 1 
0.0707 0.2814 0.028 -0.557844 0.200212 0.805435 1 
0.0707 0.2816 0.0282 -0.498192 0.11055 0.859991 1 
0.0709 0.2813 0.0282 -0.511302 0.194566 0.837087 1 
0.0709 0.2814 0.0282 -0.467544 0.178463 0.865768 1 
0.0706 0.2808 0.0285 -0.522655 0.222243 0.823067 1 
0.0709 0.2809 0.0285 -0.513714 0.16826 0.8413 1 
0.071 0.2811 0.0285 -0.466589 0.22197 0.856168 1 
0.071 0.2808 0.0287 -0.481191 0.186219 0.856608 1 
0.0709 0.2811 0.0287 -0.47642 0.232883 0.847815 1 
0.071 0.2814 0.0284 -0.487818 0.173479 0.855534 1 
0.071 0.2814 0.0286 -0.457321 0.230924 0.858797 1 
0.0713 0.2811 0.0285 -0.461101 0.241964 0.853721 1 
0.0713 0.2811 0.0287 -0.44999 0.243934 0.859072 1 
0.0716 0.2811 0.0287 -0.421709 0.258467 0.869113 1 
0.0713 0.2816 0.0286 -0.455183 0.171243 0.873776 1 
0.0715 0.2773 0.0291 -0.430001 0.522262 0.736439 1 
0.0734 0.2781 0.0302 -0.174327 -0.0557372 0.983109 1 
0.0707 0.2787 0.0288 -0.472708 0.280525 0.835376 1 
0.071 0.2787 0.0291 -0.465344 0.259549 0.84622 1 
0.0704 0.2791 0.029 -0.477226 0.250122 0.842434 1 
0.0712 0.2788 0.0288 -0.46076 0.191119 0.866703 1 
0.0709 0.279 0.0296 -0.445192 0.220348 0.8679 1 
0.0718 0.2787 0.0291 -0.375315 0.102359 0.921228 1 
0.0713 0.279 0.0288 -0.436416 0.186616 0.880179 1 
0.0716 0.2791 0.029 -0.405753 0.152335 0.901198 1 
0.0719 0.279 0.0293 -0.372047 0.113948 0.921193 1 
0.0718 0.279 0.0293 -0.377813 0.135232 0.915953 1 
0.0715 0.2793 0.029 -0.408531 0.159112 0.898769 1 
0.0715 0.2794 0.0293 -0.392945 0.154625 0.906469 1 
0.0718 0.2796 0.0293 -0.380151 0.166583 0.9098 1 
0.0716 0.2796 0.0296 -0.379122 0.17597 0.908461 1 
0.071 0.2785 0.0296 -0.437737 0.295434 0.849179 1 
0.0713 0.279 0.0298 -0.392971 0.142258 0.90848 1 
0.0712 0.2793 0.0298 -0.405057 0.146389 0.902496 1 
0.0718 0.2796 0.0297 -0.377954 0.132493 0.916295 1 
0.0725 0.2787 0.0293 -0.324457 0.0239871 0.945596 1 
0.0722 0.2788 0.0294 -0.338319 0.0587813 0.939194 1 
0.0725 0.2791 0.0296 -0.322765 0.0501508 0.945149 1 
0.0733 0.279 0.0296 -0.289761 -0.0734061 0.95428 1 
0.0728 0.2794 0.0296 -0.37992 0.0711511 0.922279 1 
0.0724 0.2799 0.0296 -0.379606 0.138675 0.914696 1 
0.0731 0.2793 0.0294 -0.323705 0.00874878 0.946118 1 
0.0734 0.279 0.0296 -0.27863 -0.067431 0.958028 1 
0.0734 0.279 0.0298 -0.24567 -0.0768506 0.966302 1 
0.0733 0.2785 0.0302 -0.16286 -0.0503812 0.985362 1 
0.0725 0.2796 0.0296 -0.373818 0.117249 0.920061 1 
0.0721 0.2797 0.0297 -0.364171 0.156073 0.918161 1 
0.0724 0.2797 0.0296 -0.361677 0.149419 0.920252 1 
0.0724 0.2799 0.0298 -0.440881 0.041796 0.896592 1 
0.0725 0.2799 0.0298 -0.451891 0.0226612 0.891785 1 
0.0724 0.2797 0.03 -0.412989 -0.0117252 0.91066 1 
0.0733 0.2796 0.0296 -0.39122 -0.123909 0.911918 1 
0.0731 0.2797 0.0296 -0.42063 -0.122391 0.898939 1 
0.0728 0.2799 0.0297 -0.473125 -0.00932923 0.880946 1 
0.0728 0.2797 0.0299 -0.448216 -0.053132 0.892345 1 
0.0731 0.2799 0.0298 -0.446867 -0.139377 0.883676 1 
0.0734 0.2796 0.0299 -0.333782 -0.266143 0.904299 1 
0.0713 0.2803 0.0288 -0.448396 0.183769 0.87474 1 
0.0715 0.2802 0.0291 -0.420448 0.181855 0.888905 1 
0.0715 0.2805 0.0288 -0.434367 0.20903 0.876146 1 
0.0727 0.2808 0.0291 -0.487412 0.0480547 0.871849 1 
0.0725 0.28 0.0293 -0.381255 0.144905 0.913043 1 
0.0731 0.28 0.0293 -0.451931 0.0145784 0.891934 1 
0.0731 0.2809 0.0293 -0.539335 -0.0811137 0.838175 1 
0.0734 0.2808 0.0296 -0.492084 -0.200144 0.847228 1 
0.0739 0.2787 0.0294 -0.175725 -0.0172279 0.984289 1 
0.0737 0.279 0.0296 -0.309025 -0.0769303 0.947937 1 
0.0737 0.2793 0.0297 -0.387003 -0.167082 0.906814 1 
0.0737 0.2794 0.0297 -0.387003 -0.167082 0.906814 1 
0.0703 0.282 0.0278 -0.45753 0.109071 0.88248 1 
0.0703 0.282 0.0282 -0.464621 0.100268 0.879815 1 
0.0766 0.2755 0.0293 -0.409292 0.820177 -0.399737 1 
0.0766 0.2769 0.0293 0.461214 0.228339 -0.857405 1 
0.0766 0.2776 0.0296 0.489195 0.189993 -0.851229 1 
0.0769 0.276 0.0294 0.535256 0.41997 -0.732889 1 
0.0775 0.2766 0.0294 0.341001 0.236524 -0.909821 1 
0.0775 0.2766 0.0297 0.325255 0.23852 -0.91505 1 
0.0778 0.2764 0.0296 0.3135 0.287007 -0.905177 1 
0.0778 0.2766 0.0298 0.318778 0.243771 -0.915946 1 
0.0778 0.2763 0.03 0.303066 0.285497 -0.909199 1 
0.0778 0.2766 0.0302 0.320185 0.270476 -0.907923 1 
0.0781 0.2764 0.03 0.314636 0.293956 -0.902548 1 
0.0784 0.2763 0.0299 0.29293 0.30765 -0.905286 1 
0.0787 0.2763 0.03 0.288951 0.303619 -0.907922 1 
0.079 0.2763 0.03 0.248125 0.350899 -0.902942 1 
0.0791 0.2761 0.0302 0.244382 0.377681 -0.893104 1 
0.0785 0.2767 0.0302 0.288438 0.300151 -0.909238 1 
0.079 0.2767 0.0302 0.241903 0.278684 -0.929418 1 
0.0769 0.2775 0.0296 0.426293 0.218345 -0.877838 1 
0.0775 0.2775 0.0296 0.358407 0.23845 -0.9026 1 
0.0773 0.2772 0.0298 0.345141 0.240288 -0.90727 1 
0.0776 0.2772 0.0298 0.334311 0.233005 -0.913206 1 
0.0778 0.277 0.0303 0.338857 0.242871 -0.90895 1 
0.0776 0.2775 0.03 0.344563 0.250725 -0.904662 1 
0.0775 0.2781 0.0299 0.367526 0.249445 -0.895936 1 
0.0775 0.2782 0.0302 0.376008 0.257112 -0.890231 1 
0.0776 0.2776 0.0302 0.351573 0.251544 -0.901733 1 
0.0788 0.277 0.0302 0.266209 0.289232 -0.919499 1 
0.0793 0.2769 0.0303 0.21371 0.232766 -0.948761 1 
0.0797 0.2769 0.0302 0.160726 0.306341 -0.938255 1 
0.0781 0.2772 0.0306 0.33576 0.26245 -0.904646 1 
0.0773 0.2781 0.0305 0.398703 0.249376 -0.882523 1 
0.0781 0.2779 0.0304 0.351089 0.271094 -0.896239 1 
0.0776 0.2784 0.0304 0.383753 0.244476 -0.890486 1 
0.0779 0.2782 0.0304 0.357112 0.262277 -0.896483 1 
0.0791 0.2772 0.0304 0.224442 0.263475 -0.938193 1 
0.0796 0.2769 0.0304 0.168758 0.265963 -0.949097 1 
0.0794 0.2772 0.0305 0.200142 0.24371 -0.948972 1 
0.0799 0.277 0.0304 0.0764713 0.468561 -0.880115 1 
0.0797 0.2769 0.0308 0.130239 0.341363 -0.930865 1 
0.0796 0.277 0.0306 0.16218 0.256003 -0.952974 1 
0.0796 0.2769 0.0308 0.16218 0.256003 -0.952974 1 
0.0794 0.277 0.0308 0.186143 0.231674 -0.954818 1 
0.0799 0.2769 0.031 0.0674379 0.450045 -0.890456 1 
0.08 0.2767 0.0302 0.0747275 0.511813 -0.855841 1 
0.0805 0.2764 0.0302 -0.100627 0.80064 -0.590636 1 
0.0811 0.2773 0.0303 -0.159262 0.972137 -0.172003 1 
0.0802 0.2769 0.0304 -0.0412233 0.712169 -0.700797 1 
0.08 0.2769 0.0308 0.0674379 0.450045 -0.890456 1 
0.0805 0.2769 0.0305 -0.100627 0.80064 -0.590636 1 
0.0806 0.2769 0.0304 -0.0977392 0.792125 -0.602482 1 
0.0805 0.2772 0.0308 -0.0977392 0.792125 -0.602482 1 
0.0806 0.2772 0.0306 -0.0977392 0.792125 -0.602482 1 
0.08 0.2769 0.0309 0.0703495 0.451065 -0.889714 1 
0.0806 0.2769 0.0309 -0.0977392 0.792125 -0.602482 1 
0.0805 0.2769 0.031 -0.0977392 0.792125 -0.602482 1 
0.0809 0.2773 0.0306 -0.109653 0.802656 -0.586275 1 
0.0813 0.2775 0.0305 -0.156014 0.977271 -0.143533 1 
0.0814 0.2775 0.0304 -0.188254 0.962333 -0.196153 1 
0.0814 0.2772 0.0308 -0.188254 0.962333 -0.196153 1 
0.0809 0.2772 0.0308 -0.109653 0.802656 -0.586275 1 
0.0813 0.2772 0.0308 -0.156014 0.977271 -0.143533 1 
0.0817 0.2772 0.0306 -0.197771 0.947938 -0.249601 1 
0.0769 0.2787 0.0296 0.598161 0.161217 -0.784992 1 
0.0782 0.2787 0.0305 0.355836 0.222216 -0.907745 1 
0.0781 0.2788 0.0305 0.366837 0.210242 -0.906217 1 
0.0704 0.2736 0.0222 0.776877 -0.263161 -0.572021 1 
0.0701 0.2725 0.0233 0.640588 -0.185878 -0.745048 1 
0.071 0.2712 0.0233 -0.0472008 -0.307443 -0.950395 1 
0.071 0.2712 0.0237 -0.0779054 -0.27203 -0.95913 1 
0.0713 0.271 0.0239 -0.180771 -0.183372 -0.96628 1 
0.071 0.2713 0.0239 -0.0779054 -0.27203 -0.95913 1 
0.0713 0.2713 0.0237 -0.095272 -0.237545 -0.966693 1 
0.0713 0.2713 0.0239 -0.104324 -0.212418 -0.971594 1 
0.0715 0.2716 0.0239 -0.0600995 -0.224453 -0.97263 1 
0.0716 0.2719 0.0239 0.0246783 -0.0761808 -0.996789 1 
0.0718 0.2716 0.0239 -0.0416664 -0.118242 -0.99211 1 
0.0722 0.2718 0.0236 0.000981342 -0.00490671 -0.999987 1 
0.0731 0.2716 0.0233 -0.0654163 0.00103835 -0.997858 1 
0.0734 0.2716 0.0233 -0.0633477 0.00311546 -0.997987 1 
