0.0857641 0.258386 0.0114476 -0.635161 0.079576 0.76827 2 
0.0859848 0.258332 0.0111503 -0.670862 0.127001 0.730627 2 
0.0856371 0.258575 0.0110499 -0.707024 -0.0153398 0.707024 2 
0.0859498 0.259129 0.0107107 -0.62755 -0.0917301 0.773153 2 
0.0861061 0.259406 0.0105411 -0.576431 -0.187074 0.795444 2 
0.0865408 0.258518 0.0119666 -0.422188 0.211835 0.88141 2 
0.0859231 0.258593 0.0116964 -0.519125 0.0514949 0.853146 2 
0.0856802 0.258264 0.0116428 -0.664698 0.0953761 0.740999 2 
0.0857113 0.258683 0.0113544 -0.601587 -0.0378621 0.797909 2 
0.0859552 0.258989 0.0115475 -0.465672 -0.0092869 0.884909 2 
0.0856353 0.259048 0.0117029 -0.461513 -0.0200658 0.886907 2 
0.0860724 0.258786 0.0124449 -0.312091 0.104916 0.944241 2 
0.0861 0.259299 0.0115987 -0.465777 -0.0393806 0.884025 2 
0.085973 0.259488 0.011201 -0.489321 -0.0978643 0.866595 2 
0.0859836 0.259478 0.0108408 -0.695215 -0.182628 0.695215 2 
0.0856201 0.259175 0.0113658 -0.596645 -0.0379045 0.80161 2 
0.0856228 0.259105 0.0117842 -0.474297 -0.0228415 0.880069 2 
0.0858506 0.25956 0.0115007 -0.596324 -0.106957 0.795587 2 
0.0855557 0.259506 0.0114935 -0.654145 -0.0921949 0.75073 2 
0.0860365 0.259607 0.0118658 -0.339429 0.0012525 0.940631 2 
0.0857012 0.259793 0.0116841 -0.707476 -0.156039 0.689297 2 
0.0850091 0.257537 0.0113102 -0.458125 0.12131 0.880571 2 
0.0850619 0.257239 0.0114032 0.479741 -0.549947 0.683672 2 
0.0847402 0.257345 0.0112797 0.42949 -0.568783 0.701444 2 
0.084926 0.257391 0.0116448 0.476429 -0.50631 0.718794 2 
0.0846562 0.257223 0.0114749 0.502582 -0.549647 0.667308 2 
0.0844077 0.257461 0.0115165 0.576057 -0.528756 0.623358 2 
0.0854195 0.257862 0.0128677 -0.50021 0.157883 0.851389 2 
0.0854167 0.257932 0.0124493 -0.52814 0.142701 0.837081 2 
0.0849771 0.257567 0.0123908 -0.565406 0.115419 0.816697 2 
0.0851459 0.257787 0.0121399 -0.623434 0.136049 0.769948 2 
0.0850958 0.258014 0.0124652 -0.537454 0.120891 0.834583 2 
0.084909 0.257991 0.0119607 -0.593373 0.0943013 0.799385 2 
0.0846452 0.257504 0.00980124 0.527799 -0.581759 0.618857 2 
0.0853978 0.258152 0.0115543 -0.635161 0.079576 0.76827 2 
0.0854933 0.258241 0.0111382 -0.733294 0.107707 0.671326 2 
0.0854558 0.258411 0.0113822 -0.610682 -0.0236483 0.791522 2 
0.0851859 0.258243 0.0112124 -0.726816 0.0679132 0.683467 2 
0.0850473 0.258466 0.0110355 -0.678772 -0.0469591 0.732846 2 
0.0850473 0.258466 0.0110355 -0.678772 -0.0469591 0.732846 2 
0.0850626 0.258339 0.0113726 -0.707024 -0.0153398 0.707024 2 
0.0848577 0.258513 0.0101125 -0.551056 -0.0233615 0.834141 2 
0.0848882 0.258259 0.0107867 -0.706917 0.067945 0.704026 2 
0.0847988 0.258703 0.011077 -0.685002 -0.0677792 0.725381 2 
0.0847087 0.257622 0.0104661 0.545085 -0.491415 0.67926 2 
0.0844773 0.25726 0.0101917 0.537715 -0.557942 0.63211 2 
0.0849215 0.257508 0.0109474 0.523499 -0.536965 0.661527 2 
0.0846266 0.257454 0.0109402 0.492837 -0.573574 0.654312 2 
0.0849572 0.257811 0.0113564 -0.549905 0.105918 0.828484 2 
0.0845558 0.258375 0.0110235 -0.617732 0.00967365 0.78633 2 
0.0842933 0.257593 0.0110374 0.617158 -0.546142 0.566432 2 
0.0847872 0.258311 0.0103659 -0.684766 0.0709377 0.725302 2 
0.0847005 0.258685 0.0110746 -0.685002 -0.0677792 0.725381 2 
0.0854317 0.258502 0.0116843 -0.610682 -0.0236483 0.791522 2 
0.085446 0.258398 0.0118819 -0.542465 0.00135278 0.840077 2 
0.0856398 0.258505 0.0114684 -0.610682 -0.0236483 0.791522 2 
0.085613 0.258665 0.011352 -0.604782 -0.0350802 0.795618 2 
0.0852672 0.258861 0.0115306 -0.588798 -0.067006 0.805498 2 
0.0851887 0.258173 0.0116307 -0.61899 0.0350901 0.784615 2 
0.0850903 0.258155 0.0116283 -0.61899 0.0350901 0.784615 2 
0.0850635 0.258315 0.011512 -0.610238 -0.0265321 0.791774 2 
0.0855996 0.258745 0.0112939 -0.693705 -0.0383027 0.71924 2 
0.0853002 0.259234 0.0115212 -0.61899 -0.0350901 0.784615 2 
0.0849848 0.25875 0.0114421 -0.678221 -0.0798762 0.730504 2 
0.0850052 0.259179 0.011514 -0.625989 -0.0438051 0.778601 2 
0.0849069 0.259161 0.0115116 -0.625989 -0.0438051 0.778601 2 
0.0847354 0.259011 0.0113441 -0.691446 -0.0829735 0.717648 2 
0.0848917 0.259288 0.0111745 -0.691446 -0.0829735 0.717648 2 
0.0854189 0.259682 0.0115956 0.583867 0.389793 0.712153 2 
0.0852223 0.259645 0.0115907 -0.669398 -0.0952098 0.736778 2 
0.0851579 0.259976 0.0117183 -0.573767 -0.0434884 0.817863 2 
0.0849097 0.259091 0.01193 -0.476518 -0.0256483 0.878791 2 
0.0848937 0.258118 0.0116235 -0.5605 0.0607091 0.825926 2 
0.0847436 0.258374 0.0116675 -0.604782 -0.0350802 0.795618 2 
0.0846746 0.258822 0.0110978 -0.682931 -0.0768478 0.72643 2 
0.0846807 0.259355 0.0109721 -0.655642 -0.0767086 0.751166 2 
0.0843153 0.259099 0.0112182 -0.67793 -0.0831011 0.730415 2 
0.0843394 0.259008 0.0109161 -0.670902 -0.0767988 0.737558 2 
0.0846102 0.259153 0.0112255 -0.691446 -0.0829735 0.717648 2 
0.0848138 0.259699 0.011244 -0.616226 -0.0643391 0.784937 2 
0.0847763 0.25987 0.0114879 -0.801111 -0.163829 0.575657 2 
0.0847968 0.260299 0.0115599 -0.526721 -0.00404134 0.850028 2 
0.0850426 0.260558 0.0120319 -0.620453 -0.0978125 0.77812 2 
0.0816537 0.255449 0.0104083 -0.226946 0.842288 0.488923 2 
0.0814436 0.255493 0.0103453 -0.203874 0.838148 0.505909 2 
0.0814409 0.255563 0.00992692 -0.193687 0.842313 0.502985 2 
0.081232 0.254887 0.0111054 -0.153436 0.866549 0.474921 2 
0.0811918 0.255127 0.0109309 -0.15283 0.832404 0.532679 2 
0.0813481 0.255405 0.0107614 -0.204077 0.835959 0.509436 2 
0.0811649 0.255288 0.0108146 -0.154545 0.849262 0.504847 2 
0.0808968 0.255073 0.0109238 -0.120458 0.843207 0.52392 2 
0.0808111 0.254998 0.01084 -0.155726 0.832023 0.532435 2 
0.0808467 0.254874 0.0103171 -0.110664 0.858004 0.50158 2 
0.080769 0.255285 0.0103866 -0.110109 0.794254 0.597526 2 
0.0808941 0.255143 0.0105053 -0.110664 0.858004 0.50158 2 
0.0811182 0.255692 0.00966388 -0.057522 0.843188 0.534533 2 
0.0807903 0.255265 0.00966604 -0.0490628 0.831264 0.553709 2 
0.0806313 0.255058 0.00941731 -0.126482 0.934332 0.333204 2 
0.0807634 0.255426 0.0095498 0.0819183 0.887217 0.454022 2 
0.08075 0.255506 0.00949164 0.245403 0.849004 0.467943 2 
0.0805534 0.25547 0.00948687 0.36784 0.816893 0.444275 2 
0.0811487 0.255438 0.0103381 -0.145352 0.783705 0.603887 2 
0.0811209 0.255622 0.0100822 -0.132864 0.643422 0.753893 2 
0.0810611 0.25541 0.00997539 -0.120152 0.766894 0.630426 2 
0.0810226 0.255604 0.0100799 -0.132746 0.618985 0.774104 2 
0.0811112 0.255609 0.0105821 -0.154496 0.580485 0.79948 2 
0.0807931 0.255195 0.0100844 -0.110109 0.794254 0.597526 2 
0.0808108 0.255695 0.00973801 0.0587075 0.748879 0.660102 2 
0.0803794 0.254693 0.010003 -0.326347 0.77005 0.548198 2 
0.0802945 0.254594 0.0100587 -0.326347 0.77005 0.548198 2 
0.0802667 0.254778 0.00980294 -0.32763 0.753709 0.56972 2 
0.0806395 0.254848 0.0106725 -0.237225 0.804703 0.544221 2 
0.0803821 0.254623 0.0104214 -0.264974 0.791786 0.55033 2 
0.0806422 0.254778 0.0110909 -0.264974 0.791786 0.55033 2 
0.0806367 0.254918 0.0102542 -0.172256 0.825329 0.537737 2 
0.0805848 0.255192 0.0103004 -0.250829 0.727246 0.638904 2 
0.0804954 0.255211 0.00965886 -0.115778 0.813378 0.570098 2 
0.0803516 0.254877 0.00974718 -0.249009 0.867758 0.430106 2 
0.0803391 0.254934 0.00982846 -0.327966 0.782318 0.529544 2 
0.0805534 0.25547 0.00948687 0.36784 0.816893 0.444275 2 
0.080272 0.255335 0.00953773 0.895559 0.43743 -0.0814145 2 
0.0802335 0.255529 0.00964226 0.921674 0.305313 -0.239377 2 
0.0801889 0.25519 0.00987247 -0.409091 0.584653 0.700589 2 
0.0799208 0.254974 0.00998148 -0.521541 0.572176 0.632938 2 
0.0801737 0.255317 0.00953534 0.926425 0.357159 -0.119053 2 
0.0799789 0.255233 0.00980948 -0.79299 0.174367 0.58375 2 
0.0799798 0.25521 0.00994888 -0.577559 0.408759 0.706641 2 
0.0799261 0.255531 0.0097163 0.929813 0.284463 -0.233515 2 
0.0809717 0.256281 0.0111976 -0.314356 0.49444 0.810376 2 
0.0813255 0.255719 0.0093084 -0.0673558 0.892121 0.446748 2 
0.0806722 0.255917 0.00956111 0.63441 0.699311 0.329374 2 
0.0804881 0.255824 0.00947501 0.71741 0.651187 0.247546 2 
0.0800547 0.255992 0.00929092 0.874488 0.465337 0.136864 2 
0.0801807 0.255826 0.00954908 0.832525 0.527614 0.168896 2 
0.0804353 0.256122 0.00938188 0.815925 0.541408 0.202837 2 
0.0801404 0.256067 0.00937469 0.861974 0.48695 0.140997 2 
0.0798858 0.255772 0.00954187 0.921535 0.341152 -0.18544 2 
0.0797759 0.255787 0.00976023 0.893394 0.206168 -0.399176 2 
0.0796867 0.255109 0.0102206 -0.588741 0.412948 0.69488 2 
0.0766245 0.256405 0.000850335 -0.424983 0.540737 -0.725943 2 
0.0770373 0.257356 0.00172426 -0.527678 0.497525 -0.688494 2 
0.0765146 0.256846 0.00200054 0.863703 -0.0950215 -0.494963 2 
0.0766737 0.257053 0.00224936 0.318269 0.782078 -0.535779 2 
0.0764378 0.257234 0.00220954 0.508078 0.538261 -0.672407 2 
0.07641 0.257418 0.00195377 -0.646429 0.72507 -0.237496 2 
0.07704 0.256434 0.000278845 -0.424983 0.540737 -0.725943 2 
0.0765922 0.256705 -0.000102848 -0.410231 0.432754 -0.802767 2 
0.0772919 0.257652 0.00155705 -0.568256 0.534532 -0.625588 2 
0.0760912 0.255904 0.00148685 -0.424983 0.540737 -0.725943 2 
0.0759929 0.255886 0.00148442 -0.424983 0.540737 -0.725943 2 
0.0764209 0.255858 0.000831738 -0.424983 0.540737 -0.725943 2 
0.076268 0.256611 0.00138906 -0.424983 0.540737 -0.725943 2 
0.0760509 0.256145 0.00131238 -0.424983 0.540737 -0.725943 2 
0.0760134 0.256315 0.00155629 -0.424983 0.540737 -0.725943 2 
0.0759526 0.256127 0.00131001 -0.424983 0.540737 -0.725943 2 
0.0758482 0.255575 0.00143325 -0.444317 0.554149 -0.703919 2 
0.0758213 0.255736 0.00131698 -0.444317 0.554149 -0.703919 2 
0.0755264 0.255681 0.00130972 -0.444317 0.554149 -0.703919 2 
0.0757829 0.25593 0.00142148 -0.424983 0.540737 -0.725943 2 
0.075488 0.255875 0.00141421 -0.444317 0.554149 -0.703919 2 
0.0754236 0.256206 0.00154191 -0.444317 0.554149 -0.703919 2 
0.0754271 0.255687 0.00116786 -0.487518 0.541128 -0.685206 2 
0.0752556 0.255536 0.00100039 -0.523848 0.393294 -0.755581 2 
0.0751662 0.255981 0.00129074 -0.487518 0.541128 -0.685206 2 
0.0753494 0.256098 0.00123738 -0.444317 0.554149 -0.703919 2 
0.0750678 0.255963 0.00128828 -0.487518 0.541128 -0.685206 2 
0.0750544 0.256043 0.00123017 -0.487518 0.541128 -0.685206 2 
0.0763485 0.256129 0.001738 -0.424983 0.540737 -0.725943 2 
0.0762708 0.256541 0.00180748 -0.424983 0.540737 -0.725943 2 
0.0761572 0.256649 0.00146799 -0.424983 0.540737 -0.725943 2 
0.0761929 0.256952 0.00187699 -0.424983 0.540737 -0.725943 2 
0.0760946 0.256934 0.00187464 -0.424983 0.540737 -0.725943 2 
0.0761795 0.257032 0.00181893 -0.424983 0.540737 -0.725943 2 
0.0758641 0.256548 0.00173971 -0.424983 0.540737 -0.725943 2 
0.0759026 0.256354 0.00163528 -0.424983 0.540737 -0.725943 2 
0.0756675 0.256512 0.00173491 -0.424983 0.540737 -0.725943 2 
0.0758827 0.257024 0.0015327 -0.424983 0.540737 -0.725943 2 
0.0757845 0.257006 0.00153033 -0.424983 0.540737 -0.725943 2 
0.0763395 0.257216 0.0022071 0.508078 0.538261 -0.672407 2 
0.0757185 0.256261 0.00154914 -0.424983 0.540737 -0.725943 2 
0.0755691 0.256493 0.00173253 -0.424983 0.540737 -0.725943 2 
0.0755048 0.256824 0.00186014 -0.424983 0.540737 -0.725943 2 
0.0754914 0.256905 0.00180204 -0.424983 0.540737 -0.725943 2 
0.0753332 0.256674 0.00169273 -0.424983 0.540737 -0.725943 2 
0.0761499 0.257263 0.00128418 -0.424983 0.540737 -0.725943 2 
0.0761373 0.25732 0.00136548 -0.424983 0.540737 -0.725943 2 
0.075771 0.257086 0.00147218 -0.424983 0.540737 -0.725943 2 
0.0758174 0.257379 0.00152095 -0.424983 0.540737 -0.725943 2 
0.0755628 0.257083 0.00168814 -0.424983 0.540737 -0.725943 2 
0.0757442 0.257247 0.00135584 -0.424983 0.540737 -0.725943 2 
0.0732047 0.259117 -0.000464812 -0.44868 0.829664 -0.332181 2 
0.074562 0.259592 -0.00132605 -0.840536 0.435083 -0.322803 2 
0.0744976 0.259923 -0.00119847 -0.826601 0.49472 -0.268296 2 
0.0744423 0.259594 -0.000607997 -0.787012 0.546316 -0.286618 2 
0.0744869 0.259933 -0.000838116 -0.832869 0.48235 -0.271419 2 
0.0743519 0.260062 -0.000457153 -0.792005 0.535908 -0.292457 2 
0.0747067 0.260329 -0.000343069 -0.841784 0.476858 -0.252995 2 
0.0746084 0.26031 -0.000345439 -0.838653 0.478571 -0.260059 2 
0.0742769 0.260403 3.07858e-005 -0.773448 0.546057 -0.32187 2 
0.0743368 0.260615 0.000137657 -0.803046 0.50091 -0.322809 2 
0.0746243 0.260857 -0.00097087 -0.891364 0.344899 -0.294135 2 
0.0743858 0.259985 -0.001259 -0.823167 0.506922 -0.255786 2 
0.0742705 0.260567 -0.000945553 -0.830286 0.500636 -0.244927 2 
0.0743099 0.260776 2.13534e-005 -0.803046 0.50091 -0.322809 2 
0.0741981 0.260838 -3.92199e-005 -0.805635 0.501741 -0.314973 2 
0.0741713 0.260998 -0.000155464 -0.807313 0.507138 -0.301755 2 
0.0742329 0.260737 -0.000701606 -0.833415 0.498821 -0.237899 2 
0.0741685 0.261068 -0.000573963 -0.834985 0.486174 -0.257749 2 
0.0742561 0.261096 -0.000211224 -0.799272 0.517548 -0.305464 2 
0.0742936 0.260926 -0.000455171 -0.830102 0.488752 -0.268426 2 
0.0743535 0.260712 -0.00128017 -0.88441 0.335986 -0.323932 2 
0.0744437 0.261793 -0.000669256 -0.929913 0.297741 -0.215898 2 
0.0742409 0.261223 -0.000548333 -0.854193 0.46716 -0.228289 2 
0.0744097 0.261444 -0.000799298 -0.918731 0.322488 -0.227891 2 
0.0740839 0.259421 -0.00127999 -0.806504 0.47432 -0.352946 2 
0.0739016 0.259281 -0.0010872 -0.624078 0.759014 -0.185537 2 
0.0736773 0.259428 -0.00134774 -0.570633 0.818239 -0.0697282 2 
0.0736379 0.259645 -0.00138271 -0.577233 0.813827 -0.0669875 2 
0.0741993 0.259265 -0.000661567 -0.701902 0.640587 -0.311419 2 
0.0740759 0.259361 -0.000501305 -0.653486 0.72523 -0.216789 2 
0.074235 0.259567 -0.000252515 -0.696206 0.637783 -0.32944 2 
0.0742323 0.259638 -0.000670955 -0.747799 0.59792 -0.288596 2 
0.0740357 0.259601 -0.000675812 -0.680704 0.714207 -0.162943 2 
0.0741794 0.259935 -0.000764057 -0.762147 0.563187 -0.3193 2 
0.0739578 0.260012 -0.000606239 -0.665322 0.700255 -0.258824 2 
0.0738641 0.259451 -0.000843257 -0.612734 0.763988 -0.202187 2 
0.0738238 0.259692 -0.00101767 -0.645222 0.747974 -0.155639 2 
0.0740928 0.26031 -5.54174e-005 -0.731323 0.591869 -0.338906 2 
0.0740419 0.26056 0.000130445 -0.733316 0.586978 -0.343081 2 
0.0738828 0.260354 -0.00011839 -0.674011 0.664267 -0.323201 2 
0.073452 0.260451 0.000115931 -0.560574 0.712706 -0.421671 2 
0.0741249 0.26028 -0.00113617 -0.823745 0.501073 -0.265274 2 
0.0740159 0.260271 -0.000778347 -0.729234 0.630732 -0.26532 2 
0.0738818 0.259951 -0.00118974 -0.678999 0.688495 -0.254822 2 
0.0735628 0.259986 -0.000894815 -0.586216 0.781106 -0.214998 2 
0.0735243 0.26018 -0.000790402 -0.606351 0.748835 -0.267554 2 
0.0734572 0.260582 -0.00108109 -0.623741 0.723155 -0.296638 2 
0.0739514 0.260602 -0.000650629 -0.742101 0.604852 -0.288861 2 
0.0739658 0.260499 -0.000453055 -0.727567 0.618352 -0.29713 2 
0.0738675 0.260481 -0.000455484 -0.689339 0.657051 -0.305117 2 
0.074039 0.260631 -0.00028798 -0.743267 0.585262 -0.324071 2 
0.0739747 0.260962 -0.000160277 -0.805635 0.501741 -0.314973 2 
0.0738299 0.260651 -0.000211507 -0.701001 0.639481 -0.315693 2 
0.0738764 0.260943 -0.000162765 -0.719532 0.605837 -0.339463 2 
0.0739862 0.260928 -0.000381127 -0.808924 0.503015 -0.304332 2 
0.0737826 0.260382 -0.000399664 -0.674949 0.668475 -0.312386 2 
0.0736709 0.260444 -0.000460252 -0.6554 0.694047 -0.297909 2 
0.0734743 0.260408 -0.000465065 -0.578386 0.743639 -0.335367 2 
0.0737146 0.260807 -0.00082992 -0.709775 0.652612 -0.265173 2 
0.0736663 0.260987 -0.000225708 -0.666807 0.633714 -0.392142 2 
0.0730151 0.25959 -0.000455931 -0.416088 0.765275 -0.491147 2 
0.0733305 0.260074 -0.000376761 -0.525142 0.754176 -0.394265 2 
0.073426 0.260162 -0.000792742 -0.567706 0.776445 -0.273574 2 
0.0729953 0.26026 -0.00055851 -0.49552 0.763722 -0.413751 2 
0.0737842 0.261032 -0.00122277 -0.892782 0.321521 -0.315539 2 
0.0739835 0.260998 -0.000799492 -0.833415 0.498821 -0.237899 2 
0.0747816 0.261537 -6.91563e-005 -0.905661 0.366612 -0.213011 2 
0.074544 0.261067 0.000714153 -0.768632 0.539815 -0.343226 2 
0.0742421 0.260503 0.000693083 -0.755099 0.536561 -0.376734 2 
0.0745208 0.260708 0.000223786 -0.803494 0.498007 -0.326171 2 
0.0744582 0.260992 0.000630379 -0.749687 0.557793 -0.356142 2 
0.0745593 0.26094 0.00105123 -0.742711 0.56719 -0.355916 2 
0.0742403 0.260976 0.0013461 -0.527267 0.796442 -0.296093 2 
0.0741286 0.261038 0.00128551 -0.492047 0.811641 -0.314847 2 
0.0742375 0.261046 0.000927657 -0.685958 0.636844 -0.351983 2 
0.0745538 0.261081 0.000214398 -0.827109 0.480005 -0.292381 2 
0.0747129 0.261288 0.000463098 -0.80725 0.544855 -0.226894 2 
0.0747986 0.261363 0.000546873 -0.850044 0.477297 -0.222739 2 
0.0742589 0.261026 0.000207126 -0.795811 0.505555 -0.333316 2 
0.0744134 0.26135 -0.000241414 -0.851325 0.460052 -0.252188 2 
0.0741203 0.261249 3.02941e-005 -0.793785 0.506297 -0.336999 2 
0.0746512 0.261549 0.00100924 -0.686401 0.676845 -0.26596 2 
0.074668 0.261645 -0.00040859 -0.922337 0.310306 -0.230227 2 
0.0739471 0.260449 0.000685945 -0.628329 0.63168 -0.454073 2 
0.0738113 0.260601 0.000927389 -0.561354 0.713698 -0.418946 2 
0.0740293 0.260617 0.000211746 -0.713576 0.595467 -0.369091 2 
0.0736682 0.261367 0.00098516 -0.402913 0.841884 -0.359016 2 
0.079982 0.25696 0.00909519 -0.896438 -0.408522 -0.171781 1 
0.0799069 0.257301 0.00958318 -0.922372 -0.320763 0.215268 1 
0.0801643 0.257526 0.0098343 -0.898288 -0.338893 0.279698 1 
0.0796817 0.257045 0.00825118 -0.925898 -0.37586 0.0379788 1 
0.0801133 0.25735 0.0090882 -0.891834 -0.372463 -0.256718 1 
0.0798434 0.257182 0.00891836 -0.91473 -0.364474 -0.174437 1 
0.079779 0.257513 0.00904605 -0.928078 -0.277144 -0.248719 1 
0.0796066 0.257386 0.00873905 -0.936448 -0.290814 -0.196195 1 
0.079569 0.257557 0.00898305 -0.941369 -0.23153 -0.245394 1 
0.0800175 0.257959 0.00840224 -0.924461 -0.157563 -0.347196 1 
0.0794482 0.258279 0.00845966 -0.955011 -0.113973 -0.273796 1 
0.0798667 0.257541 0.00940868 -0.94679 -0.293277 -0.132577 1 
0.0797039 0.257854 0.00953394 -0.988822 -0.120531 0.0877653 1 
0.0795046 0.257888 0.00911073 -0.984674 -0.137926 -0.106743 1 
0.0796905 0.257934 0.00947575 -0.988822 -0.120531 0.0877653 1 
0.079711 0.258364 0.0095477 -0.995084 0.0118848 -0.0983199 1 
0.0796707 0.258605 0.00937323 -0.996075 -0.0161177 -0.0870357 1 
0.0794643 0.258129 0.00893626 -0.986688 -0.0888374 -0.136217 1 
0.0794509 0.258209 0.00887807 -0.999913 -0.0128829 -0.00297298 1 
0.0795813 0.259049 0.00966351 -0.987116 -0.054775 -0.15034 1 
0.0793383 0.25872 0.00960995 -0.994047 -0.0141851 -0.108025 1 
0.0796146 0.258725 0.0107561 -0.990464 -0.105172 -0.0889915 1 
0.0793417 0.25975 0.00999776 -0.983333 0.0172919 -0.180989 1 
0.0793829 0.259912 0.0112435 -0.946379 -0.00872813 -0.322941 1 
0.0790407 0.259588 0.0110481 -0.97356 -0.057412 -0.221097 1 
0.0804075 0.260774 0.00858517 -0.997225 0.0354235 -0.0654798 1 
0.0798545 0.259395 0.00835739 -0.99894 0.0460106 -0.00102246 1 
0.0799742 0.259819 0.00857116 -0.997509 0.0669255 -0.0223085 1 
0.0805909 0.259768 0.00870189 -0.99734 0.0725147 -0.00735657 1 
0.0797697 0.259722 0.00934502 -0.98836 0.0101197 -0.151796 1 
0.0803272 0.260132 0.0084063 -0.998187 0.0594531 -0.00938734 1 
0.0795847 0.259226 0.00818747 -0.993976 0.0774964 0.0774964 1 
0.0793185 0.258964 0.00857554 -0.999815 0.0170139 0.00900734 1 
0.0796812 0.259717 0.00884283 -0.991276 0.0510967 -0.121497 1 
0.0793863 0.259663 0.00883563 -0.990265 0.0281645 -0.136316 1 
0.0791771 0.259683 0.00891213 -0.987264 0.0193136 -0.157917 1 
0.079724 0.260103 0.00833374 -0.998399 0.0410301 -0.038926 1 
0.0795069 0.259638 0.00825702 -0.998489 0.0512314 -0.0198652 1 
0.0795041 0.259708 0.00783861 -0.99621 0.0811246 0.0313682 1 
0.0796632 0.259915 0.00808741 -0.998829 0.0464812 -0.0134279 1 
0.079429 0.260049 0.00832653 -0.998481 0.0472467 -0.028348 1 
0.079212 0.259583 0.00824977 -0.997827 0.0656876 0.00521331 1 
0.079379 0.25985 0.00771987 -0.996996 0.069908 0.0333408 1 
0.0797776 0.259782 0.00856633 -0.996506 0.0533648 -0.0642556 1 
0.0796971 0.260264 0.00821744 -0.997475 0.064937 -0.0287426 1 
0.0793637 0.260403 0.00831462 -0.996979 0.0377235 -0.0679023 1 
0.0794746 0.259938 0.00730391 -0.966985 0.132622 0.217604 1 
0.0801349 0.260676 0.00799687 -0.999568 0.0292507 0.00302594 1 
0.0800598 0.261017 0.00848475 -0.995916 0.0425419 -0.0796297 1 
0.0800427 0.261191 0.00786878 -0.999432 0.0275635 0.0193965 1 
0.079579 0.260916 0.00811249 -0.998399 0.038926 -0.0410301 1 
0.0797506 0.261066 0.00827996 -0.996873 0.0465424 -0.0638605 1 
0.079554 0.26103 0.00827515 -0.995916 0.0425419 -0.0796297 1 
0.079796 0.261382 0.00818923 -0.998159 0.0496439 -0.0348563 1 
0.0797371 0.261146 0.00822179 -0.996873 0.0465424 -0.0638605 1 
0.0795281 0.261167 0.00829831 -0.995916 0.0425419 -0.0796297 1 
0.0797192 0.261343 0.00746633 -0.9982 0.0220887 0.0557478 1 
0.0795082 0.261411 0.00726387 -0.99859 0.0282324 0.0449627 1 
0.0801151 0.261346 0.00789432 -0.999432 0.0275635 0.0193965 1 
0.0799899 0.261488 0.00777559 -0.997377 0.0418705 0.0590481 1 
0.0800104 0.261918 0.00784756 -0.997457 0.0524977 0.0482122 1 
0.0798309 0.261281 0.00752684 -0.997802 0.0222204 0.0624288 1 
0.0797933 0.261452 0.00777084 -0.999442 0.0255743 0.0214824 1 
0.0797219 0.261273 0.0078847 -0.999432 0.0275635 0.0193965 1 
0.0796789 0.261584 0.00729184 -0.996606 0.018198 0.0802851 1 
0.0797444 0.260107 0.0074738 -0.98244 0.0981229 0.158693 1 
0.0793592 0.26052 0.00761735 -0.998948 0.040372 0.0217388 1 
0.0793207 0.260714 0.0077218 -0.999098 0.0300247 0.0300247 1 
0.0792761 0.260375 0.00795208 -0.99902 0.0439691 -0.00511269 1 
0.0794959 0.260771 0.0084472 -0.994627 0.038637 -0.0960406 1 
0.0795048 0.260807 0.00780797 -0.999379 0.0317101 0.0153436 1 
0.0795281 0.261167 0.00829831 -0.995916 0.0425419 -0.0796297 1 
0.0792465 0.261032 0.00834925 -0.996126 0.0380201 -0.079299 1 
0.0794197 0.261832 0.0076936 -0.996375 0.0402027 0.0749726 1 
0.07998 0.26345 0.00996904 -0.905522 0.3815 -0.185711 1 
0.0797053 0.260053 0.00947265 -0.985764 0.0383159 -0.163713 1 
0.0795925 0.261688 0.0100344 -0.968552 0.145347 -0.201943 1 
0.0795185 0.260456 0.00990003 -0.981396 0.0535307 -0.184383 1 
0.079481 0.260627 0.010144 -0.974783 0.0446927 -0.218632 1 
0.0790057 0.260385 0.0106085 -0.965373 0.0406862 -0.257679 1 
0.079161 0.260686 0.0102994 -0.975515 0.042204 -0.215843 1 
0.0793567 0.26032 0.00923283 -0.986772 0.0357777 -0.158114 1 
0.0793888 0.261142 0.0100159 -0.979147 0.0540633 -0.195829 1 
0.0794361 0.261411 0.0102041 -0.977833 0.104812 -0.181263 1 
0.0791949 0.261035 0.0104294 -0.977459 0.0949109 -0.188589 1 
0.0793718 0.261742 0.0103317 -0.972895 0.13031 -0.191037 1 
0.0789027 0.26091 0.0108406 -0.967482 0.0845128 -0.238402 1 
0.0788769 0.261047 0.0108638 -0.962678 0.125679 -0.239698 1 
0.0791171 0.261446 0.0104989 -0.979223 0.109349 -0.17078 1 
0.0790662 0.261697 0.0106848 -0.977023 0.117938 -0.177528 1 
0.0791608 0.262235 0.0110612 -0.931453 0.221238 -0.288877 1 
0.0791752 0.262131 0.0112588 -0.947289 0.186732 -0.260334 1 
0.0800562 0.261537 0.00885883 -0.987873 0.112124 -0.107403 1 
0.0800534 0.261607 0.00844041 -0.992651 0.0941601 -0.0760087 1 
0.0794414 0.261541 0.00900702 -0.985505 0.0893747 -0.144191 1 
0.0795039 0.261257 0.0086004 -0.99253 0.0392526 -0.115515 1 
0.0794529 0.261508 0.00878617 -0.986513 0.0670218 -0.149329 1 
0.0801777 0.261914 0.00935152 -0.977164 0.133193 -0.165558 1 
0.0798953 0.261803 0.00926302 -0.978067 0.132977 -0.160318 1 
0.0799811 0.261878 0.00934674 -0.978067 0.132977 -0.160318 1 
0.0798426 0.2621 0.00916983 -0.96368 0.202674 -0.173907 1 
0.0799033 0.262289 0.00941625 -0.958395 0.221986 -0.17945 1 
0.0796273 0.261588 0.0093721 -0.980101 0.116533 -0.160692 1 
0.0800401 0.261687 0.00838226 -0.994452 0.0900007 -0.0544449 1 
0.0798496 0.262184 0.00825167 -0.977086 0.186523 -0.102526 1 
0.0798236 0.262321 0.00827488 -0.975837 0.196652 -0.0952338 1 
0.0797451 0.261632 0.00837505 -0.994408 0.0613832 -0.0859365 1 
0.0797048 0.261873 0.00820056 -0.994833 0.0956359 -0.0340771 1 
0.0796432 0.262134 0.00874658 -0.972571 0.190973 -0.132796 1 
0.0796404 0.262204 0.0083282 -0.977086 0.186523 -0.102526 1 
0.0790158 0.262195 0.00897612 -0.969168 0.186626 -0.160884 1 
0.0791587 0.262553 0.0087484 -0.954305 0.247611 -0.167305 1 
0.0789755 0.262436 0.00880171 -0.955403 0.243848 -0.166563 1 
0.0798658 0.262459 0.00966015 -0.946832 0.244564 -0.209041 1 
0.0792805 0.262233 0.010343 -0.941511 0.253005 -0.222589 1 
0.0795736 0.262335 0.0100714 -0.942231 0.247664 -0.225527 1 
0.0794958 0.262746 0.0101409 -0.932193 0.301386 -0.200457 1 
0.0799247 0.263121 0.0105595 -0.90849 0.323311 -0.264793 1 
0.0796298 0.263066 0.0105523 -0.903212 0.331521 -0.272584 1 
0.07962 0.263053 0.011052 -0.877116 0.27023 -0.397042 1 
0.0793752 0.262771 0.0107195 -0.918753 0.317753 -0.234361 1 
0.0793645 0.262781 0.0110798 -0.863483 0.2595 -0.4325 1 
0.0793376 0.262942 0.0109635 -0.908249 0.311525 -0.279349 1 
0.0794127 0.262601 0.0104755 -0.929507 0.275881 -0.244756 1 
0.0793957 0.2632 0.0107914 -0.891083 0.336964 -0.304017 1 
0.0798148 0.26271 0.00984594 -0.941763 0.26137 -0.211585 1 
0.0794448 0.262997 0.0103266 -0.904711 0.393042 -0.164363 1 
0.0791581 0.262305 0.0106428 -0.93282 0.246219 -0.263103 1 
0.079652 0.261745 0.00717553 -0.99749 0.00735767 0.0704234 1 
0.079601 0.261995 0.00736131 -0.995589 0.0316233 0.0883272 1 
0.0794044 0.261959 0.00735649 -0.996852 0.00527435 0.0791152 1 
0.079635 0.262344 0.00749142 -0.992029 0.114247 0.0531646 1 
0.0803069 0.263475 0.00889547 -0.93241 0.324617 -0.158855 1 
0.0807483 0.263793 0.00923279 -0.894539 0.416299 -0.162774 1 
0.0804535 0.263738 0.00922559 -0.910965 0.353703 -0.212222 1 
0.0804553 0.263691 0.00950453 -0.905993 0.38336 -0.179476 1 
0.0802962 0.263485 0.00925574 -0.917618 0.341074 -0.204074 1 
0.0802722 0.263575 0.00955786 -0.915263 0.345193 -0.207689 1 
0.080397 0.264129 0.00857455 -0.852975 0.515191 -0.0837363 1 
0.0798923 0.26257 0.00774261 -0.978212 0.19902 0.0591028 1 
0.0797314 0.262836 0.00814675 -0.977241 0.207439 -0.0443656 1 
0.0797922 0.263024 0.00839317 -0.958567 0.261427 -0.113155 1 
0.079721 0.263001 0.0114728 -0.88819 0.338143 -0.311092 1 
0.0792295 0.257163 0.00920606 -0.957659 -0.285924 0.0337116 1 
0.0793599 0.257151 0.00812769 -0.915944 -0.387038 0.106057 1 
0.0791759 0.257484 0.00897343 -0.96821 -0.233532 -0.0896257 1 
0.0792848 0.257492 0.0086156 -0.955403 -0.243848 -0.166563 1 
0.0782883 0.257391 0.00853336 -0.911076 -0.208698 0.355507 1 
0.0792222 0.257777 0.00902219 -0.992294 -0.122792 0.0165935 1 
0.0788486 0.259009 0.0108088 -0.986133 -0.127589 -0.106126 1 
0.0850079 0.263578 0.0113915 -0.965565 0.25982 -0.0132931 1 
0.0847515 0.263329 0.0112798 -0.968988 0.243778 0.0404255 1 
0.085407 0.26488 0.0101734 -0.866026 0.243334 0.436792 1 
0.0853795 0.264367 0.0110196 -0.94771 0.313325 0.0606019 1 
0.0851829 0.264331 0.0110148 -0.948255 0.312654 0.0553256 1 
0.0850641 0.263883 0.0109406 -0.966221 0.253618 0.0457749 1 
0.0847711 0.263782 0.0112122 -0.965162 0.261019 0.0182106 1 
0.0849381 0.264049 0.0106823 -0.952052 0.285747 0.109295 1 
0.0847414 0.264013 0.0106775 -0.958357 0.271427 0.0887606 1 
0.0850507 0.263963 0.0108823 -0.962826 0.264182 0.0563422 1 
0.0849408 0.263979 0.0111007 -0.96852 0.247873 0.0229736 1 
0.084736 0.264153 0.00984065 -0.909774 0.293523 0.293523 1 
0.0846957 0.264394 0.00966622 -0.897516 0.298183 0.324886 1 
0.0852177 0.264231 0.0103524 -0.905004 0.330026 0.268421 1 
0.0851417 0.264595 0.0107009 -0.949634 0.294532 0.106982 1 
0.0850782 0.264476 0.0100362 -0.867997 0.310764 0.387307 1 
0.0851399 0.264642 0.010422 -0.920864 0.307909 0.239167 1 
0.0849353 0.264119 0.0102639 -0.927756 0.293199 0.230877 1 
0.0850076 0.264274 0.0102895 -0.90877 0.317557 0.270729 1 
0.0848065 0.264781 0.0105192 -0.926493 0.322933 0.193196 1 
0.0853435 0.265188 0.0104405 -0.945899 0.276284 0.170126 1 
0.0852889 0.265532 0.0100684 -0.93838 0.28692 0.192666 1 
0.0850083 0.264948 0.00932689 -0.889646 0.30755 0.337555 1 
0.0849879 0.264518 0.00925504 -0.877485 0.339132 0.339132 1 
0.0847046 0.26443 0.00902699 -0.864061 0.278877 0.419077 1 
0.0848965 0.26501 0.00926639 -0.912283 0.295364 0.283724 1 
0.0850718 0.265066 0.00999177 -0.881621 0.262834 0.391998 1 
0.0851362 0.264735 0.00986406 -0.881334 0.331067 0.337114 1 
0.0850315 0.265307 0.00981729 -0.932702 0.240561 0.268697 1 
0.084968 0.265189 0.00915255 -0.93325 0.225945 0.279273 1 
0.0850163 0.265434 0.00948024 -0.940783 0.236928 0.24247 1 
0.0850029 0.265514 0.009422 -0.940783 0.236928 0.24247 1 
0.0851754 0.265641 0.00972895 -0.941008 0.259158 0.217582 1 
0.0849403 0.265799 0.00982861 -0.941008 0.259158 0.217582 1 
0.0846368 0.259264 0.00930786 0.26119 0.0802682 0.961944 1 
0.0846466 0.260555 0.0116038 -0.554502 -0.0432987 0.831055 1 
0.0844473 0.260589 0.0111806 -0.820057 -0.146809 0.553131 1 
0.0843963 0.26084 0.0113664 -0.728106 -0.0709288 0.681785 1 
0.0845911 0.260923 0.0110922 -0.802819 -0.103449 0.58718 1 
0.0845123 0.261358 0.0110223 -0.922245 -0.059886 0.38194 1 
0.0845508 0.261164 0.0109178 -0.897297 -0.0871028 0.432749 1 
0.0844787 0.259886 0.0110623 -0.651281 -0.0736481 0.755255 1 
0.0845895 0.259847 0.0109834 -0.661919 -0.0738684 0.745926 1 
0.0839997 0.259738 0.010969 -0.694034 -0.108027 0.711792 1 
0.0844769 0.260358 0.0117153 -0.414409 0.0304518 0.909581 1 
0.0842015 0.26033 0.0107086 -0.846436 -0.126747 0.517186 1 
0.0841344 0.260732 0.0104178 -0.940064 -0.091746 0.328424 1 
0.084374 0.260457 0.0110155 -0.853887 -0.163698 0.494045 1 
0.0843355 0.260651 0.01112 -0.783056 -0.107248 0.612635 1 
0.0840657 0.260483 0.0109501 -0.835104 -0.105654 0.539851 1 
0.0844186 0.260796 0.0107853 -0.887602 -0.120714 0.444511 1 
0.08428 0.261019 0.0106085 -0.935043 -0.0837948 0.34449 1 
0.0839851 0.260964 0.0106013 -0.949396 -0.0472781 0.310502 1 
0.0846939 0.260824 0.011792 -0.666723 -0.0708665 0.741929 1 
0.0846518 0.261112 0.0113386 -0.82633 -0.0998542 0.554263 1 
0.0846268 0.261225 0.0115012 -0.865776 -0.116298 0.48673 1 
0.0844049 0.262 0.0105571 -0.954508 0.0896068 0.284404 1 
0.0844299 0.261886 0.0103944 -0.943159 0.093919 0.318796 1 
0.0844897 0.262098 0.0105014 -0.953675 0.111503 0.279412 1 
0.0842458 0.261793 0.0103083 -0.949523 0.0551005 0.308819 1 
0.0844022 0.26207 0.0101386 -0.949882 0.120894 0.288286 1 
0.0843869 0.262197 0.0098016 -0.944307 0.153094 0.291285 1 
0.0844495 0.262339 0.0103269 -0.953355 0.153337 0.260006 1 
0.0839976 0.260907 0.0105199 -0.948266 -0.0499087 0.313529 1 
0.0840565 0.261143 0.0104873 -0.956759 -0.0414889 0.287908 1 
0.0843533 0.261151 0.0107735 -0.910071 -0.0495915 0.411475 1 
0.0840295 0.262426 0.0102009 -0.952974 0.159052 0.257958 1 
0.0838401 0.261777 0.01038 -0.96018 0.0437013 0.275943 1 
0.0848009 0.262002 0.0109852 -0.956432 0.0596976 0.285786 1 
0.0847141 0.261951 0.0107619 -0.956432 0.0596976 0.285786 1 
0.084531 0.261834 0.0108153 -0.94471 0.0583155 0.322679 1 
0.0848214 0.262858 0.011989 -0.987191 0.146034 0.064255 1 
0.0845264 0.262803 0.0119817 -0.986062 0.147614 0.0767593 1 
0.0842691 0.262578 0.0117305 -0.982901 0.122711 0.13729 1 
0.0847472 0.262323 0.0107525 -0.952164 0.142492 0.270335 1 
0.0848687 0.2627 0.0112452 -0.981658 0.147554 0.120726 1 
0.0848446 0.262791 0.0115473 -0.984459 0.149523 0.0921061 1 
0.0848311 0.262871 0.0114892 -0.98144 0.180949 0.063512 1 
0.084496 0.263057 0.0113075 -0.976608 0.199733 0.0796481 1 
0.084622 0.262891 0.0115657 -0.98144 0.180949 0.063512 1 
0.0846192 0.262962 0.0111473 -0.975239 0.199509 0.0954173 1 
0.0842413 0.262762 0.0114747 -0.98026 0.163172 0.111644 1 
0.084226 0.262889 0.0111377 -0.978602 0.174001 0.10983 1 
0.0841225 0.262314 0.0114003 -0.970603 0.0969344 0.220305 1 
0.08415 0.262401 0.00962238 -0.948572 0.191892 0.251773 1 
0.0840892 0.262212 0.00937599 -0.95574 0.127871 0.264971 1 
0.0840883 0.262236 0.00923651 -0.964884 0.15194 0.214274 1 
0.0838649 0.26236 0.0091154 -0.959953 0.151433 0.235709 1 
0.0841098 0.262642 0.00944787 -0.951284 0.209743 0.225981 1 
0.0847057 0.26371 0.0102685 -0.927756 0.293199 0.230877 1 
0.0842331 0.262972 0.0102195 -0.952144 0.220141 0.212038 1 
0.0841964 0.26312 0.010603 -0.964507 0.224576 0.138899 1 
0.0841687 0.263303 0.0103472 -0.94698 0.257524 0.192121 1 
0.0844761 0.263727 0.0112049 -0.961307 0.274483 0.0233865 1 
0.0839721 0.263267 0.0103423 -0.949719 0.256058 0.180189 1 
0.0849838 0.263668 0.0116935 -0.969001 0.239459 -0.0607952 1 
0.0850553 0.264273 0.0125115 -0.96624 0.188566 -0.175562 1 
0.0848211 0.264407 0.0127507 -0.963865 0.19225 -0.184403 1 
0.084823 0.26436 0.0130296 -0.950048 0.205232 -0.235134 1 
0.084511 0.264905 0.0133383 -0.941344 0.174018 -0.289117 1 
0.0851847 0.264284 0.0112938 -0.956466 0.289572 -0.0363532 1 
0.0848657 0.26432 0.0115887 -0.961996 0.257472 -0.0909477 1 
0.0853534 0.26648 0.0127365 -0.894079 0.303002 -0.329869 1 
0.0851588 0.265273 0.0131807 -0.857527 0.273614 -0.435642 1 
0.0848371 0.265379 0.0130572 -0.857527 0.273614 -0.435642 1 
0.0850105 0.265056 0.0125717 -0.944 0.24668 -0.219118 1 
0.0849202 0.265525 0.0127225 -0.919133 0.300624 -0.254596 1 
0.0847763 0.265191 0.0128108 -0.943484 0.224508 -0.243791 1 
0.0850944 0.265604 0.0133084 -0.916476 0.349202 0.195268 1 
0.0847995 0.26555 0.0133011 -0.939575 0.333398 -0.0777488 1 
0.08482 0.265979 0.0133731 -0.896566 0.38005 -0.227443 1 
0.0847825 0.26615 0.013617 -0.896566 0.38005 -0.227443 1 
0.0844332 0.265317 0.0134078 -0.94179 0.171359 -0.289254 1 
0.0846502 0.265782 0.0134845 -0.91574 0.32159 0.240832 1 
0.0845859 0.266113 0.0136122 -0.918338 0.39395 0.0382092 1 
0.0847969 0.266046 0.0138146 -0.918338 0.39395 0.0382092 1 
0.0849819 0.266116 0.0140402 -0.909507 0.393793 -0.133133 1 
0.0847593 0.266217 0.0140586 -0.915752 0.401691 -0.00645806 1 
0.0846466 0.266302 0.0138586 -0.909507 0.393793 -0.133133 1 
0.0847352 0.266307 0.0143607 -0.866765 0.320626 -0.38199 1 
0.085977 0.266086 0.0110172 -0.954015 0.294229 0.0573173 1 
0.0860109 0.266435 0.0111473 -0.953686 0.298578 0.0365349 1 
0.0859725 0.266629 0.0112518 -0.931701 0.361536 -0.0349874 1 
0.0858929 0.267087 0.0110423 -0.963599 0.258219 0.0692784 1 
0.0859331 0.266846 0.0112168 -0.934912 0.353646 -0.0295777 1 
0.0858312 0.266922 0.0106565 -0.96773 0.219181 0.124331 1 
0.0861504 0.266615 0.0123956 -0.853031 0.489786 -0.180134 1 
0.0858153 0.266801 0.0122138 -0.863312 0.468061 -0.18871 1 
0.0864149 0.26735 0.0126604 -0.884254 0.438509 -0.160642 1 
0.0861575 0.267125 0.0124092 -0.837351 0.523159 -0.158578 1 
0.0860797 0.267536 0.0124788 -0.865761 0.466179 -0.182032 1 
0.0861789 0.267531 0.0126206 -0.884254 0.438509 -0.160642 1 
0.0858357 0.267231 0.0122857 -0.833854 0.526566 -0.165577 1 
0.0857848 0.267481 0.0124715 -0.806892 0.565579 -0.170428 1 
0.0859439 0.267688 0.0127203 -0.761885 0.637617 -0.113913 1 
0.0862494 0.267733 0.0123673 -0.973589 0.227608 0.0178749 1 
0.0862092 0.267974 0.0121928 -0.968831 0.246149 0.0278887 1 
0.0859723 0.268178 0.0120135 -0.968831 0.246149 0.0278887 1 
0.0856221 0.267794 0.0125968 -0.761885 0.637617 -0.113913 1 
0.0855338 0.265814 0.0104009 -0.944368 0.270015 0.187777 1 
0.0857661 0.266153 0.0108148 -0.952468 0.296923 0.0681252 1 
0.085851 0.266251 0.010759 -0.96 0.259704 0.104657 1 
0.0853319 0.265221 0.0106613 -0.949025 0.311219 0.0499487 1 
0.0853802 0.265467 0.010989 -0.952057 0.305797 0.00866632 1 
0.0854623 0.265635 0.0105149 -0.948937 0.300562 0.0958125 1 
0.0853363 0.265801 0.0102567 -0.944766 0.264644 0.193341 1 
0.0854202 0.266349 0.0109933 -0.948968 0.314651 0.021311 1 
0.0857759 0.266592 0.0112469 -0.946947 0.320679 0.0213786 1 
0.085665 0.266205 0.0103939 -0.957517 0.211746 0.195765 1 
0.0856623 0.266701 0.0109074 -0.942644 0.333512 0.0138439 1 
0.0853799 0.26659 0.0108189 -0.958649 0.274447 0.0753133 1 
0.085245 0.266719 0.0111999 -0.924238 0.380415 -0.0326817 1 
0.0851933 0.265444 0.0104845 -0.952143 0.289441 0.0982265 1 
0.085666 0.267034 0.0123972 -0.838255 0.519629 -0.165269 1 
0.0847569 0.263189 0.0121166 -0.980672 0.189462 -0.0488549 1 
0.0845621 0.263106 0.0123907 -0.988308 0.149329 -0.0307778 1 
0.0845381 0.263196 0.0126928 -0.970602 0.19054 -0.147061 1 
0.0847249 0.263219 0.0131973 -0.962818 0.218763 -0.158505 1 
0.0844603 0.263607 0.0127623 -0.96008 0.225824 -0.165076 1 
0.0846471 0.26363 0.0132669 -0.969797 0.188322 -0.155014 1 
0.0844261 0.264807 0.013394 -0.941344 0.174018 -0.289117 1 
0.0768805 0.265009 -0.00401753 -0.93557 0.245464 -0.25388 1 
0.0769664 0.265084 -0.00393382 -0.935348 0.184846 -0.301591 1 
0.075749 0.26169 -0.00334792 -0.977526 0.202288 -0.0593541 1 
0.0756184 0.262399 -0.00337157 -0.937841 0.32344 -0.125857 1 
0.0754566 0.263115 -0.00217497 -0.921608 0.386735 -0.0327741 1 
0.0759946 0.263072 -0.00304608 -0.913699 0.395891 -0.0917809 1 
0.0754655 0.263151 -0.00281417 -0.918184 0.389655 -0.0714593 1 
0.0754359 0.263382 -0.00334884 -0.900921 0.408474 -0.146595 1 
0.0755968 0.263542 -0.00282119 -0.909383 0.401239 -0.109681 1 
0.0754252 0.263392 -0.00298862 -0.910076 0.403407 -0.0950003 1 
0.0758505 0.264287 -0.00219598 -0.88328 0.393067 -0.255568 1 
0.0757522 0.264269 -0.00219837 -0.881725 0.378313 -0.281851 1 
0.0755495 0.263699 -0.00207748 -0.907366 0.367851 -0.2034 1 
0.0753251 0.263847 -0.00233808 -0.912058 0.394441 -0.112104 1 
0.0753627 0.263676 -0.00258203 -0.904698 0.423447 0.0470497 1 
0.0753233 0.263893 -0.00261703 -0.905437 0.422715 -0.0386711 1 
0.0755932 0.264062 -0.00244719 -0.889841 0.428335 -0.1572 1 
0.0762043 0.264151 -0.0031532 -0.894921 0.429844 -0.119793 1 
0.0763982 0.264257 -0.00356677 -0.915365 0.370941 -0.156557 1 
0.0763867 0.264717 -0.00241412 -0.919133 0.300624 -0.254596 1 
0.0761293 0.264492 -0.00266533 -0.894006 0.190431 -0.405573 1 
0.076031 0.264474 -0.00266773 -0.897564 0.227696 -0.377535 1 
0.0766733 0.264982 -0.00366212 -0.921095 0.324168 -0.215636 1 
0.0765481 0.265124 -0.0037808 -0.918006 0.301198 -0.257964 1 
0.0763659 0.264984 -0.00358805 -0.920877 0.336283 -0.197229 1 
0.0763659 0.264984 -0.00358805 -0.920877 0.336283 -0.197229 1 
0.0763588 0.264475 -0.00360179 -0.915891 0.34721 -0.201467 1 
0.0763204 0.264669 -0.0034973 -0.913613 0.372528 -0.162892 1 
0.0762676 0.264966 -0.00359043 -0.920877 0.336283 -0.197229 1 
0.0763436 0.265028 -0.00300694 -0.933241 0.271667 -0.23507 1 
0.0765106 0.265295 -0.00353685 -0.91613 0.361071 -0.174164 1 
0.076314 0.265259 -0.00354165 -0.923065 0.322859 -0.209076 1 
0.0765982 0.265323 -0.00317419 -0.923774 0.319277 -0.211432 1 
0.0762828 0.264839 -0.00325331 -0.905071 0.423961 -0.0332258 1 
0.0760621 0.264893 -0.00295609 -0.917958 0.185862 -0.350441 1 
0.0758121 0.264055 -0.00302339 -0.895554 0.406544 -0.180847 1 
0.0757299 0.26346 -0.00348109 -0.894675 0.423793 -0.141264 1 
0.0757174 0.263517 -0.00339976 -0.894675 0.423793 -0.141264 1 
0.075435 0.263405 -0.00348833 -0.896743 0.411784 -0.162131 1 
0.0756512 0.264321 -0.00261918 -0.87226 0.1529 -0.464526 1 
0.0758218 0.264494 -0.00259121 -0.897378 0.409205 -0.165118 1 
0.0757388 0.264349 -0.00225659 -0.892782 0.388102 -0.228729 1 
0.0757495 0.264339 -0.00261681 -0.859701 0.0832879 -0.503962 1 
0.0758593 0.264324 -0.00283515 -0.901927 0.391075 -0.183271 1 
0.0761573 0.263611 -0.00130755 -0.926355 0.352042 -0.133914 1 
0.076085 0.263882 -0.000401229 -0.941032 0.30553 -0.145296 1 
0.0760401 0.264666 -0.000341132 -0.946987 0.239138 -0.214541 1 
0.0759213 0.263792 -0.00134735 -0.920633 0.361827 -0.146687 1 
0.0759051 0.263942 -0.00182386 -0.896743 0.411784 -0.162131 1 
0.0756897 0.264979 -0.000859872 -0.93457 0.296667 -0.196385 1 
0.0755663 0.265074 -0.000699654 -0.940003 0.280206 -0.194626 1 
0.0758488 0.265186 -0.000611141 -0.956078 0.207262 -0.207262 1 
0.0756094 0.264764 -0.000106797 -0.935055 0.225703 -0.273367 1 
0.0757511 0.266267 -0.000644132 -0.128451 0.571384 0.810568 1 
0.075802 0.266016 -0.00082998 -0.95962 0.121092 -0.253902 1 
0.0758699 0.266715 -0.00056988 -0.128451 0.571384 0.810568 1 
0.0751087 0.260012 -0.00190449 -0.898732 0.252353 -0.358607 1 
0.0746887 0.2601 -0.0020304 -0.886971 0.257892 -0.383112 1 
0.0750914 0.261309 -0.0026906 -0.957022 0.185531 -0.222905 1 
0.0745162 0.259973 -0.00233735 -0.897217 0.193403 -0.396986 1 
0.0749433 0.260395 -0.00219762 -0.934458 0.240289 -0.262772 1 
0.0746967 0.260586 -0.0018772 -0.929301 0.268149 -0.253962 1 
0.074852 0.260886 -0.00218628 -0.928538 0.2736 -0.250918 1 
0.0744661 0.2602 -0.00201207 -0.881777 0.310059 -0.355433 1 
0.0744384 0.260384 -0.00226788 -0.923356 0.211988 -0.320116 1 
0.0746109 0.260511 -0.00196093 -0.927479 0.25424 -0.274125 1 
0.075423 0.261642 -0.00213492 -0.952065 0.261115 -0.159347 1 
0.075347 0.262007 -0.0017865 -0.947021 0.284241 -0.14953 1 
0.0748322 0.261557 -0.00228889 -0.951138 0.244887 -0.188063 1 
0.0753497 0.261937 -0.00136808 -0.934584 0.325252 -0.144099 1 
0.0748662 0.262332 -0.00122692 -0.884617 0.0392862 -0.464661 1 
0.0747502 0.261388 -0.00181468 -0.940069 0.267207 -0.211827 1 
0.0747001 0.261615 -0.00148939 -0.940285 0.272807 -0.203567 1 
0.0745428 0.261362 -0.00145926 -0.932559 0.3006 -0.199934 1 
0.0744579 0.261263 -0.0014035 -0.931068 0.314078 -0.185655 1 
0.0747422 0.261328 -0.00103603 -0.932871 0.305379 -0.191036 1 
0.0746643 0.261739 -0.000966534 -0.930854 0.297141 -0.212646 1 
0.0746982 0.262088 -0.000836447 -0.921125 0.370378 -0.119788 1 
0.0744204 0.261434 -0.00115956 -0.927445 0.314795 -0.201864 1 
0.0741838 0.260089 -0.00210062 -0.875695 0.273749 -0.397768 1 
0.0741712 0.260146 -0.00201929 -0.852258 0.245462 -0.461957 1 
0.07497 0.26221 -0.000387698 -0.925124 0.360456 -0.119238 1 
0.0748842 0.262135 -0.000471398 -0.922774 0.367184 -0.116894 1 
0.0749938 0.261964 -0.00365557 -0.97374 0.207681 -0.0932701 1 
0.0749483 0.262074 -0.00263295 -0.960515 0.23718 -0.145453 1 
0.0753904 0.263066 -0.00325815 -0.919737 0.384912 -0.0769824 1 
0.0744897 0.26193 -0.00358628 -0.966267 0.185971 -0.178168 1 
0.0744889 0.261953 -0.00372574 -0.970006 0.195535 -0.144415 1 
0.0754881 0.262411 -0.00229321 -0.938584 0.344863 0.0113691 1 
0.0752637 0.262558 -0.00255382 -0.936775 0.349543 -0.0165238 1 
0.0750225 0.262183 -0.00232843 -0.948197 0.287535 -0.135075 1 
0.0750341 0.262149 -0.00254919 -0.953341 0.285611 -0.097812 1 
0.0748705 0.262486 -0.00256351 -0.934871 0.353001 0.0374983 1 
0.074647 0.26261 -0.00268461 -0.940504 0.339592 -0.0113618 1 
0.0750152 0.263222 -0.00158042 -0.935303 0.332582 -0.120816 1 
0.0747426 0.263124 -0.00216867 -0.930877 0.360467 -0.0594177 1 
0.0747954 0.262827 -0.00207555 -0.930027 0.364947 -0.0431658 1 
0.0747454 0.263054 -0.00175028 -0.923785 0.375162 -0.0766459 1 
0.0753019 0.263488 -0.0028284 -0.910076 0.403407 -0.0950003 1 
0.0752894 0.263544 -0.00274709 -0.90933 0.392122 -0.13914 1 
0.0748855 0.263055 -0.00332837 -0.921486 0.352044 -0.1641 1 
0.0750839 0.263471 -0.0021127 -0.925124 0.360456 -0.119238 1 
0.0751025 0.263521 -0.00325161 -0.90664 0.402173 -0.127518 1 
0.0750759 0.263411 -0.001334 -0.936656 0.334616 -0.103476 1 
0.0751081 0.264233 -0.000551015 -0.934759 0.335102 -0.118032 1 
0.074891 0.264193 0.000304148 -0.72239 0.293121 -0.626285 1 
0.0749017 0.264183 -5.61178e-005 -0.903047 0.334407 -0.269588 1 
0.0768296 0.265259 -0.00383182 -0.921764 0.0879804 -0.377639 1 
0.0767768 0.265557 -0.00392488 -0.841882 -0.129857 -0.523805 1 
0.0766312 0.26527 -0.00411554 -0.935348 0.184846 -0.301591 1 
0.0765927 0.265464 -0.00401099 -0.926737 0.0933501 -0.36393 1 
0.0767222 0.265901 -0.004297 -0.83866 -0.200976 -0.506218 1 
0.076583 0.26545 -0.00351132 -0.916879 0.126227 -0.378681 1 
0.0768233 0.265849 -0.0038761 -0.85906 -0.101486 -0.501714 1 
0.076725 0.265831 -0.00387858 -0.85906 -0.101486 -0.501714 1 
0.0765283 0.265795 -0.00388336 -0.841882 -0.129857 -0.523805 1 
0.0766819 0.266142 -0.00447144 -0.855849 -0.183077 -0.483741 1 
0.0765347 0.265205 -0.00383899 -0.922372 0.320763 -0.215268 1 
0.0764569 0.265616 -0.00376946 -0.921764 0.0879804 -0.377639 1 
0.0762102 0.265807 -0.00344899 -0.827824 -0.130864 -0.545511 1 
0.0765283 0.265795 -0.00388336 -0.841882 -0.129857 -0.523805 1 
0.0762201 0.26582 -0.00394875 -0.841882 -0.129857 -0.523805 1 
0.0761378 0.265652 -0.00347461 -0.908185 0.13658 -0.395659 1 
0.0765372 0.265831 -0.00452253 -0.852667 -0.166987 -0.495049 1 
0.0764996 0.266002 -0.00427862 -0.83866 -0.200976 -0.506218 1 
0.0763012 0.266438 -0.0036305 -0.775208 -0.286938 -0.562779 1 
0.0762958 0.266579 -0.00446728 -0.838752 -0.220724 -0.497771 1 
0.0729718 0.259809 0.00381143 0.774019 0.61043 0.168133 1 
0.0730957 0.260387 0.00268869 0.475421 0.879461 0.0228956 1 
0.0730582 0.260557 0.00293267 0.594615 0.800939 0.0702076 1 
0.0730332 0.260671 0.00309527 0.628757 0.766157 0.13292 1 
0.0728268 0.260621 0.00359021 0.719467 0.694514 0.00415877 1 
0.072691 0.260773 0.00383177 0.734748 0.6697 -0.107921 1 
0.0732243 0.260848 0.00226328 0.42859 0.903336 0.0171436 1 
0.0728042 0.260935 0.00213736 0.483113 0.87453 0.0424263 1 
0.072723 0.260743 0.00275095 0.619922 0.784306 -0.0236824 1 
0.0726952 0.260927 0.00249521 0.586918 0.809589 -0.00962161 1 
0.0724986 0.260891 0.00249042 0.628063 0.776178 -0.055543 1 
0.0724593 0.261108 0.0024554 0.633201 0.77104 -0.067484 1 
0.0727123 0.260753 0.00311124 0.706655 0.697729 -0.117528 1 
0.0727007 0.260787 0.00333196 0.712079 0.697517 -0.0800906 1 
0.0724666 0.260921 0.00357112 0.719831 0.687578 -0.0952933 1 
0.0724513 0.261048 0.00323412 0.707003 0.691928 -0.146225 1 
0.0724486 0.261118 0.00281568 0.676648 0.731944 -0.0800336 1 
0.0722752 0.261441 0.00330113 0.713858 0.686807 -0.13676 1 
0.0722234 0.261715 0.00334749 0.720524 0.681738 -0.1268 1 
0.0719052 0.261727 0.00378181 0.729023 0.668648 -0.146408 1 
0.0718408 0.262058 0.00390948 0.720508 0.671556 -0.172861 1 
0.0714977 0.262185 0.00450648 0.728654 0.647519 -0.223121 1 
0.0711295 0.261572 0.00340234 0.7229 0.674606 -0.149409 1 
0.0718283 0.262541 0.00492273 0.746307 0.635056 -0.199324 1 
0.0715585 0.262373 0.00475286 0.728569 0.643961 -0.233455 1 
0.0714941 0.262704 0.00488055 0.69121 0.68494 -0.230403 1 
0.0732063 0.261045 0.00150777 -0.311924 0.848868 -0.426762 1 
0.0728131 0.260972 0.00149818 -0.250675 0.838145 -0.484433 1 
0.0730124 0.260938 0.0019214 -0.67438 0.341272 -0.654786 1 
0.0726907 0.261044 0.00179785 0.121209 0.932904 -0.339114 1 
0.0726532 0.261215 0.00204176 0.511187 0.858408 0.0427137 1 
0.0718676 0.26062 0.00123012 0.223552 0.800161 -0.556567 1 
0.0719659 0.260638 0.00123255 0.0262832 0.820311 -0.571313 1 
0.0718273 0.26086 0.00105566 0.128878 0.798454 -0.5881 1 
0.0718273 0.26086 0.00105566 0.128878 0.798454 -0.5881 1 
0.0723073 0.261411 0.00222036 0.595437 0.795386 -0.113207 1 
0.0723448 0.26124 0.00197642 0.558042 0.826358 -0.0756425 1 
0.071972 0.261597 0.00203875 0.662857 0.735004 -0.142792 1 
0.0716772 0.261542 0.00203152 0.663518 0.733044 -0.149632 1 
0.0721134 0.261304 0.00263396 0.700163 0.703149 -0.123909 1 
0.0720856 0.261488 0.00237821 0.669515 0.726945 -0.152643 1 
0.0719882 0.261447 0.00251526 0.706122 0.697165 -0.123907 1 
0.0718997 0.261868 0.00294499 0.69323 0.696305 -0.185989 1 
0.0719122 0.261811 0.00286373 0.69323 0.696305 -0.185989 1 
0.0719605 0.261631 0.00225948 0.669292 0.724177 -0.16618 1 
0.0716548 0.261586 0.00261252 0.691039 0.700233 -0.179272 1 
0.0716521 0.261656 0.00219415 0.679255 0.707106 -0.196504 1 
0.0715771 0.261997 0.00268203 0.695215 0.695215 -0.182628 1 
0.0713805 0.261961 0.00267717 0.700445 0.68813 -0.189351 1 
0.0719828 0.261587 0.0016785 0.607678 0.785102 -0.119761 1 
0.0717209 0.261905 0.00166182 0.640214 0.752213 -0.155891 1 
0.0716225 0.261887 0.00165939 0.622629 0.762683 -0.175067 1 
0.0713777 0.262031 0.00225878 0.670813 0.714192 -0.19985 1 
0.0711536 0.261482 0.00310022 0.707106 0.679255 -0.196504 1 
0.0713447 0.261658 0.0022682 0.685725 0.707106 -0.172577 1 
0.0712266 0.26231 0.00216325 0.654979 0.714953 -0.244631 1 
0.0709656 0.262605 0.00228609 0.685079 0.694442 -0.220037 1 
0.0718622 0.262038 0.00318894 0.707003 0.691928 -0.146225 1 
0.0718344 0.262222 0.00293319 0.702488 0.696445 -0.146541 1 
0.0716809 0.261875 0.00352125 0.704459 0.689178 -0.16962 1 
0.0715673 0.261984 0.00318179 0.704808 0.692683 -0.153087 1 
0.0715646 0.262054 0.00276336 0.69323 0.696305 -0.185989 1 
0.0715029 0.262315 0.00330944 0.720508 0.671556 -0.172861 1 
0.0717649 0.262423 0.00425795 0.733494 0.646653 -0.209348 1 
0.071763 0.26247 0.00397895 0.730911 0.653648 -0.196249 1 
0.071712 0.262721 0.00416479 0.733048 0.645892 -0.213222 1 
