0.0798979 0.24895 0.0166765 0.0432928 -0.927516 0.371269 2 
0.0802407 0.2482 0.0158954 0.423189 -0.835365 0.350822 2 
0.0803746 0.255843 0.00773299 -0.866812 -0.456452 0.20072 1 
0.0805809 0.255571 0.00723939 -0.827902 -0.529314 -0.185486 1 
0.080908 0.255634 0.00697674 -0.828693 -0.501537 -0.248454 1 
0.080286 0.255558 0.00858212 -0.866335 -0.499448 -0.00401701 1 
0.0807635 0.255706 0.0077277 -0.832753 -0.474747 0.284848 1 
0.0804708 0.255598 0.00790811 -0.84159 -0.500119 0.203976 1 
0.0806878 0.255343 0.0077745 -0.78049 -0.55885 0.280217 1 
0.0804923 0.255286 0.00808853 -0.798491 -0.557554 0.227037 1 
0.0805955 0.255151 0.00784174 -0.751849 -0.599254 0.274989 1 
0.0812073 0.25526 0.00840171 -0.680084 -0.630683 0.373799 1 
0.081108 0.254614 0.00835122 -0.66786 -0.680734 0.300939 1 
0.0807517 0.255393 0.00740924 -0.806394 -0.569131 0.160678 1 
0.0808941 0.255071 0.00728095 -0.704446 -0.707316 -0.0588234 1 
0.0808125 0.254896 0.00770813 -0.708247 -0.693273 0.133264 1 
0.0809511 0.255012 0.00733756 -0.704446 -0.707316 -0.0588234 1 
0.0812997 0.254763 0.0072553 -0.599006 -0.791279 0.122759 1 
0.0814705 0.254584 0.00742513 -0.622138 -0.775098 0.110308 1 
0.0809833 0.254717 0.00787796 -0.671306 -0.723062 0.162879 1 
0.0810403 0.254657 0.00793462 -0.622547 -0.782031 0.0293786 1 
0.0817564 0.254239 0.00712703 -0.643443 -0.744315 0.178819 1 
0.0813497 0.25425 0.00719421 -0.618985 -0.774104 0.132746 1 
0.0814846 0.254458 0.00604169 -0.689027 -0.715699 0.114097 1 
0.0821502 0.253617 0.0067829 -0.584152 -0.78452 0.208075 1 
0.0822615 0.253543 0.00553307 -0.577088 -0.739648 0.346253 1 
0.0818027 0.253473 0.0057444 -0.635092 -0.732798 0.244266 1 
0.0836597 0.253836 0.00814444 -0.582524 -0.808017 0.0881736 1 
0.0822404 0.254249 0.00841764 -0.578933 -0.814948 0.0263782 1 
0.0826412 0.254081 0.0081912 -0.560939 -0.826721 0.0433644 1 
0.0829753 0.254599 0.00804628 -0.556696 -0.830209 0.029009 1 
0.0824134 0.253975 0.00742516 -0.595029 -0.783734 0.178052 1 
0.0831107 0.254168 0.0083399 -0.566778 -0.823012 0.0375995 1 
0.0819476 0.254141 0.00859806 -0.554923 -0.830276 -0.0519801 1 
0.0815646 0.25409 0.00822292 -0.601921 -0.79841 0.015221 1 
0.0823721 0.253911 0.00792938 -0.566957 -0.811002 0.144343 1 
0.0821481 0.253712 0.00794522 -0.582438 -0.79615 0.164046 1 
0.0820331 0.253534 0.00787352 -0.585605 -0.789426 0.184047 1 
0.0827196 0.253711 0.00842825 -0.578002 -0.813747 0.0610665 1 
0.0822216 0.253826 0.00852108 -0.573695 -0.81776 0.0462883 1 
0.0822893 0.253783 0.0089377 -0.552469 -0.833478 -0.00954885 1 
0.0825418 0.25378 0.00868031 -0.576329 -0.816349 0.0376777 1 
0.0824956 0.253512 0.00844412 -0.576176 -0.815662 0.0521235 1 
0.0819976 0.253627 0.00853692 -0.562521 -0.82659 0.0178796 1 
0.0823285 0.253598 0.00905621 -0.56191 -0.827143 -0.00957025 1 
0.0824918 0.253949 0.00820181 -0.566867 -0.819446 0.0846713 1 
0.0828335 0.253591 0.00854146 -0.562616 -0.824888 0.0549925 1 
0.0827352 0.253242 0.00844945 -0.579101 -0.810163 0.0909809 1 
0.0824709 0.253621 0.00946753 -0.496921 -0.845217 -0.196667 1 
0.0834346 0.253684 0.00874145 -0.588951 -0.807902 0.0207865 1 
0.0836409 0.253413 0.0082479 -0.577306 -0.809974 0.103246 1 
0.0837881 0.253296 0.00885996 -0.593606 -0.804727 0.00685457 1 
0.0832783 0.253098 0.0086343 -0.579237 -0.81264 0.0640434 1 
0.0834964 0.25314 0.0084592 -0.574623 -0.81369 0.0878497 1 
0.0833471 0.253007 0.00846978 -0.577306 -0.809974 0.103246 1 
0.0837763 0.252982 0.00854149 -0.574772 -0.816035 0.0610252 1 
0.0835534 0.25308 0.00851583 -0.574623 -0.81369 0.0878497 1 
0.0834384 0.252902 0.00844413 -0.577306 -0.809974 0.103246 1 
0.0837232 0.252949 0.00926679 -0.59851 -0.800349 -0.0350415 1 
0.0836533 0.252743 0.00947286 -0.593874 -0.80429 -0.0207648 1 
0.0839541 0.253257 0.00882904 -0.593606 -0.804727 0.00685457 1 
0.0839933 0.253072 0.00894754 -0.582732 -0.811913 -0.034936 1 
0.084342 0.252823 0.00886527 -0.573212 -0.819071 -0.023481 1 
0.0837408 0.253075 0.00920492 -0.595304 -0.80261 -0.0378193 1 
0.083844 0.252939 0.0089581 -0.594083 -0.804402 0.00136571 1 
0.0836554 0.252992 0.00885017 -0.593606 -0.804727 0.00685457 1 
0.0838939 0.25277 0.00943664 -0.599205 -0.798466 -0.0583549 1 
0.0827636 0.253729 0.00928707 -0.5328 -0.83516 -0.136502 1 
0.082848 0.253171 0.00914377 -0.584843 -0.811146 0.00136327 1 
0.0829737 0.25302 0.00903587 -0.591826 -0.806037 -0.00686573 1 
0.0826713 0.253193 0.00881466 -0.578888 -0.814886 0.0291526 1 
0.0831016 0.25312 0.00830525 -0.577729 -0.807057 0.122014 1 
0.0831574 0.253108 0.00894302 -0.588716 -0.808283 0.00960608 1 
0.0834384 0.252902 0.00844413 -0.577306 -0.809974 0.103246 1 
0.0831575 0.252763 0.00840339 -0.578492 -0.808723 0.106373 1 
0.0839165 0.252411 0.0090359 -0.583914 -0.810128 -0.0523119 1 
0.08546 0.251845 0.00671056 -0.246269 -0.94834 0.200009 1 
0.0826304 0.25372 0.00729163 -0.570627 -0.798878 0.190209 1 
0.0838306 0.252623 0.0066954 -0.472508 -0.852931 0.221913 1 
0.082819 0.253323 0.0068599 -0.55292 -0.807171 0.206771 1 
0.0829222 0.253187 0.00661312 -0.555784 -0.795534 0.241307 1 
0.0824243 0.252958 0.00616634 -0.553915 -0.784319 0.279325 1 
0.082767 0.252897 0.00646445 -0.558346 -0.794749 0.237958 1 
0.0826342 0.253283 0.00753389 -0.572252 -0.799938 0.180631 1 
0.0832757 0.252798 0.00673163 -0.553441 -0.803184 0.220452 1 
0.0835104 0.252669 0.00653614 -0.512961 -0.833752 0.204277 1 
0.0830587 0.252709 0.00632562 -0.51621 -0.829895 0.211661 1 
0.0837275 0.252414 0.0064026 -0.488782 -0.845911 0.213369 1 
0.082767 0.252553 0.00592485 -0.518602 -0.8145 0.260079 1 
0.0828584 0.252448 0.00589922 -0.483424 -0.835566 0.261018 1 
0.0833327 0.252394 0.00624865 -0.510309 -0.838472 0.191178 1 
0.0834928 0.252198 0.00605844 -0.500119 -0.84159 0.203976 1 
0.0839623 0.25194 0.00566751 -0.389603 -0.869349 0.304043 1 
0.0838828 0.252014 0.00547202 -0.427438 -0.859473 0.280363 1 
0.0840358 0.253088 0.0078622 -0.51593 -0.846243 0.133002 1 
0.0841035 0.253045 0.00827883 -0.530868 -0.84162 0.099268 1 
0.0836566 0.2526 0.00772941 -0.525259 -0.834759 0.165166 1 
0.0834846 0.252826 0.00814073 -0.574584 -0.8062 0.141048 1 
0.0836447 0.252631 0.00795057 -0.54838 -0.818814 0.169772 1 
0.0843914 0.252949 0.00735806 -0.491743 -0.85046 0.186832 1 
0.0841331 0.252795 0.00745618 -0.489521 -0.85257 0.183012 1 
0.0842421 0.252816 0.00736861 -0.489786 -0.853031 0.180134 1 
0.0843383 0.252571 0.00754374 -0.426536 -0.883854 0.192015 1 
0.0845161 0.252502 0.00729163 -0.408292 -0.891217 0.19756 1 
0.0837952 0.252716 0.00735882 -0.506034 -0.84339 0.18062 1 
0.0841604 0.252986 0.00833544 -0.540303 -0.838107 0.0751602 1 
0.0844392 0.252531 0.00845928 -0.450334 -0.88504 0.117911 1 
0.0845306 0.252426 0.0084336 -0.439187 -0.891084 0.114386 1 
0.0839364 0.252787 0.0083513 -0.559752 -0.821454 0.109043 1 
0.0841072 0.252608 0.00852112 -0.535711 -0.842234 0.0604609 1 
0.0842566 0.252396 0.00797097 -0.44357 -0.882805 0.154599 1 
0.0843243 0.252353 0.0083876 -0.450334 -0.88504 0.117911 1 
0.0839118 0.251862 0.00775589 -0.441395 -0.878391 0.183304 1 
0.0842889 0.251756 0.00797173 -0.388419 -0.902461 0.186268 1 
0.0840826 0.251683 0.00792572 -0.39006 -0.902463 0.182796 1 
0.0846193 0.252366 0.00704487 -0.383564 -0.894982 0.227787 1 
0.0840585 0.25204 0.00638226 -0.371717 -0.897704 0.236547 1 
0.0843276 0.25221 0.00664411 -0.374145 -0.894693 0.244007 1 
0.0846016 0.251895 0.00656714 -0.327377 -0.919229 0.218728 1 
0.0851468 0.252001 0.00612938 -0.29615 -0.911793 0.284479 1 
0.0849228 0.251802 0.00614527 -0.283453 -0.914319 0.289268 1 
0.0848896 0.251799 0.00564636 -0.313041 -0.855851 0.411734 1 
0.084528 0.251782 0.00599129 -0.306287 -0.91886 0.248768 1 
0.0845173 0.251765 0.00563127 -0.314295 -0.836556 0.448769 1 
0.0846312 0.251646 0.00574449 -0.300437 -0.907173 0.294575 1 
0.0844249 0.251917 0.0062381 -0.346268 -0.900296 0.263753 1 
0.0848767 0.251533 0.00590904 -0.271196 -0.907407 0.321037 1 
0.0847794 0.252171 0.00685474 -0.363277 -0.903086 0.229054 1 
0.0847617 0.2517 0.006377 -0.242746 -0.95355 0.178372 1 
0.08403 0.251897 0.0060841 -0.370161 -0.885689 0.280243 1 
0.0840079 0.252651 0.00954987 -0.609934 -0.791075 -0.0467003 1 
0.0841679 0.252456 0.00935967 -0.590766 -0.804296 -0.064059 1 
0.0840186 0.252323 0.00937028 -0.610626 -0.789971 -0.0555115 1 
0.0844596 0.252267 0.00922081 -0.522688 -0.85194 -0.0315533 1 
0.0857162 0.252094 0.00777471 -0.312924 -0.93321 0.176628 1 
0.086227 0.252244 0.00741918 -0.217891 -0.96004 0.175633 1 
0.0860031 0.252045 0.00743507 -0.273193 -0.934461 0.228361 1 
0.085958 0.252074 0.00715734 -0.246402 -0.948853 0.197394 1 
0.0857055 0.252077 0.00741473 -0.290874 -0.93164 0.217804 1 
0.0857517 0.252001 0.0071113 -0.279449 -0.933839 0.223279 1 
0.0862985 0.251764 0.00807814 -0.115356 -0.989264 0.0897212 1 
0.0847868 0.25233 0.00895813 -0.446283 -0.893915 -0.0417969 1 
0.0848841 0.252037 0.00855212 -0.435798 -0.897552 0.0669407 1 
0.0850619 0.251968 0.00830002 -0.377128 -0.917074 0.12942 1 
0.0848965 0.251909 0.00522445 -0.268223 -0.907267 0.323919 1 
0.080069 0.255124 0.00763641 -0.815569 -0.578659 -0.00136155 1 
0.0801759 0.25524 0.00871117 -0.871041 -0.485154 -0.0768977 1 
0.0802968 0.254885 0.00786288 -0.774793 -0.620723 0.119997 1 
0.0803822 0.254968 0.00821759 -0.774086 -0.602407 0.194671 1 
0.0796925 0.254246 0.0083271 -0.737539 -0.592291 -0.324388 1 
0.0805541 0.254742 0.00780627 -0.708442 -0.705658 0.0125265 1 
0.0812359 0.253679 0.00600176 -0.703767 -0.697765 0.133551 1 
0.0886023 0.255723 0.00515993 -0.388086 -0.921215 0.0274404 1 
0.0882526 0.255675 0.0052837 -0.404217 -0.914393 -0.0222385 1 
0.0899152 0.255244 0.00633736 -0.350364 -0.837418 -0.419495 1 
0.0894656 0.255533 0.0055041 -0.335987 -0.941021 -0.0399065 1 
0.0893162 0.2554 0.00551468 -0.338302 -0.940298 -0.0373032 1 
0.0888929 0.255582 0.0056022 -0.394403 -0.918526 -0.0275165 1 
0.0886238 0.255412 0.00534035 -0.387428 -0.921899 0.00127864 1 
0.0889547 0.255382 0.00585958 -0.36302 -0.927117 -0.0931166 1 
0.0888054 0.25525 0.00587016 -0.37992 -0.922279 -0.0711511 1 
0.0889498 0.255523 0.00565882 -0.387636 -0.921129 -0.0354786 1 
0.088887 0.255425 0.00544296 -0.399521 -0.916701 -0.00646475 1 
0.0889407 0.255164 0.00670344 -0.338271 -0.899594 -0.27623 1 
0.0891116 0.254985 0.00687326 -0.330449 -0.892662 -0.306525 1 
0.0892807 0.255493 0.00617808 -0.304846 -0.917428 -0.255724 1 
0.0895097 0.255207 0.00582337 -0.353376 -0.93114 -0.0900236 1 
0.0893995 0.255234 0.00649205 -0.297877 -0.878511 -0.373481 1 
0.0895548 0.255179 0.00610113 -0.328897 -0.917752 -0.222616 1 
0.0890224 0.25534 0.00627622 -0.34659 -0.913214 -0.214282 1 
0.0891884 0.255301 0.00624524 -0.314567 -0.914709 -0.253683 1 
0.0894565 0.254829 0.00600907 -0.322922 -0.929624 -0.177537 1 
0.0901097 0.255003 0.00606492 -0.370147 -0.916219 -0.153407 1 
0.09036 0.25475 0.00643024 -0.358426 -0.916608 -0.177088 1 
0.0897519 0.254893 0.00719178 -0.315235 -0.89192 -0.324199 1 
0.0894032 0.255141 0.007274 -0.28203 -0.902202 -0.326328 1 
0.0891674 0.254973 0.00751105 -0.327046 -0.85404 -0.404545 1 
0.0897342 0.254767 0.00725365 -0.337917 -0.901605 -0.270039 1 
0.089862 0.254866 0.00652304 -0.348137 -0.858739 -0.375988 1 
0.089645 0.255121 0.00665663 -0.291982 -0.89966 -0.324589 1 
0.0900329 0.254687 0.00669287 -0.392622 -0.885265 -0.249307 1 
0.0899228 0.254714 0.00736156 -0.404532 -0.876737 -0.260164 1 
0.090135 0.254599 0.00702721 -0.399632 -0.889219 -0.222673 1 
0.0901919 0.25454 0.00708388 -0.399632 -0.889219 -0.222673 1 
0.0903874 0.254596 0.00676984 -0.381173 -0.90293 -0.198558 1 
0.0903638 0.254313 0.00667253 -0.381173 -0.90293 -0.198558 1 
0.0850437 0.258095 0.00735082 0.19389 0.150233 -0.969452 1 
0.0859909 0.257296 0.00502627 -0.403446 -0.416203 -0.814866 1 
0.0859092 0.25712 0.00545342 -0.636415 -0.558762 -0.531753 1 
0.0860693 0.256925 0.00526327 -0.52571 -0.532429 -0.663437 1 
0.0862638 0.257029 0.00553045 -0.593004 -0.572731 -0.565973 1 
0.0865603 0.2567 0.00559238 -0.626625 -0.692069 -0.358305 1 
0.0864346 0.25685 0.00570029 -0.634535 -0.657729 -0.405903 1 
0.0853779 0.257578 0.00558703 -0.481617 -0.474997 -0.736494 1 
0.0854182 0.25769 0.00566402 -0.493155 -0.479871 -0.725618 1 
0.0849702 0.257292 0.00569573 -0.537145 -0.483598 -0.691093 1 
0.0857277 0.257282 0.00492361 -0.257991 -0.349394 -0.900758 1 
0.0855702 0.257088 0.00593728 -0.637117 -0.590048 -0.495909 1 
0.085855 0.25679 0.00622036 -0.65888 -0.687877 -0.30447 1 
0.0857658 0.257145 0.00562327 -0.67051 -0.576872 -0.466514 1 
0.0858915 0.256994 0.00551535 -0.58726 -0.553412 -0.590645 1 
0.0855988 0.256886 0.00569576 -0.616207 -0.595948 -0.514913 1 
0.0860682 0.256972 0.00584443 -0.656364 -0.626454 -0.420406 1 
0.0861644 0.256727 0.00601955 -0.653626 -0.686064 -0.319514 1 
0.0859404 0.256528 0.00603542 -0.628509 -0.724464 -0.283069 1 
0.0862256 0.257167 0.00483078 -0.48985 -0.483208 -0.725642 1 
0.0864416 0.256959 0.00527836 -0.605691 -0.592194 -0.531456 1 
0.0865104 0.256869 0.00511384 -0.639029 -0.615547 -0.461241 1 
0.0870159 0.256223 0.00604524 -0.523088 -0.810397 -0.263886 1 
0.0869471 0.256314 0.00620978 -0.517227 -0.801939 -0.298948 1 
0.0871475 0.25623 0.00609653 -0.504209 -0.823801 -0.259086 1 
0.0867634 0.256226 0.00630262 -0.549897 -0.784436 -0.286834 1 
0.0870836 0.25618 0.00646184 -0.49833 -0.82434 -0.26857 1 
0.0871857 0.256092 0.00679621 -0.471468 -0.839368 -0.270515 1 
0.0873183 0.256051 0.00626637 -0.470668 -0.84842 -0.242188 1 
0.0859061 0.256574 0.0061177 -0.635563 -0.715609 -0.289765 1 
0.086129 0.256476 0.00614336 -0.630198 -0.728616 -0.268271 1 
0.0863079 0.256703 0.00584973 -0.612613 -0.68857 -0.388043 1 
0.0871336 0.255666 0.00640078 -0.469796 -0.849891 -0.238699 1 
0.0864991 0.255916 0.0062415 -0.562167 -0.787659 -0.252114 1 
0.0872469 0.256531 0.00560746 -0.552966 -0.791071 -0.261602 1 
0.0871604 0.256496 0.00583389 -0.552966 -0.791071 -0.261602 1 
0.0869541 0.256423 0.00578786 -0.544775 -0.783014 -0.300182 1 
0.0879002 0.256016 0.00458403 -0.492878 -0.869057 -0.0425605 1 
0.0876762 0.255817 0.00459993 -0.495187 -0.866923 -0.0568702 1 
0.087349 0.255754 0.00486258 -0.512662 -0.850585 -0.116974 1 
0.0874747 0.256293 0.00583388 -0.480829 -0.840299 -0.2504 1 
0.0878303 0.256154 0.00532973 -0.490388 -0.865641 -0.10092 1 
0.0878765 0.256078 0.00502631 -0.48749 -0.870218 -0.0712377 1 
0.0879335 0.256018 0.00508291 -0.461401 -0.886054 -0.0449152 1 
0.0878803 0.25564 0.00526865 -0.445899 -0.893161 -0.058635 1 
0.0878185 0.25584 0.00501123 -0.461401 -0.886054 -0.0449152 1 
0.0878862 0.255797 0.00542787 -0.443159 -0.893221 -0.0759307 1 
0.0874855 0.25562 0.00511466 -0.477261 -0.874274 -0.0886945 1 
0.0875875 0.255532 0.00544904 -0.464901 -0.880643 -0.0912948 1 
0.0870622 0.255802 0.00520225 -0.527547 -0.826844 -0.194996 1 
0.0872072 0.25578 0.00697659 -0.437886 -0.868249 -0.233238 1 
0.0870293 0.25585 0.00722869 -0.497046 -0.832514 -0.244676 1 
0.0870519 0.255836 0.00736755 -0.47958 -0.856072 -0.192728 1 
0.0870164 0.255584 0.00749135 -0.474254 -0.853657 -0.215296 1 
0.087378 0.255602 0.00714643 -0.426455 -0.880946 -0.205111 1 
0.0885588 0.25541 0.00628681 -0.34659 -0.913214 -0.214282 1 
0.0876885 0.255491 0.00636452 -0.417122 -0.888397 -0.19173 1 
0.0877691 0.25537 0.00597887 -0.420773 -0.899245 -0.119618 1 
0.0879056 0.255236 0.00623098 -0.385002 -0.905971 -0.176042 1 
0.0883998 0.255213 0.00535622 -0.374681 -0.927111 -0.00895141 1 
0.0877563 0.255104 0.00624155 -0.388606 -0.906746 -0.163698 1 
0.0886485 0.255647 0.00485654 -0.408744 -0.909078 0.0806551 1 
0.0891417 0.255327 0.00402334 -0.437939 -0.877353 0.196114 1 
0.0890955 0.255059 0.0037871 -0.433769 -0.8779 0.20282 1 
0.0890504 0.255087 0.00350934 -0.413758 -0.874157 0.254273 1 
0.0892782 0.254504 0.00319621 -0.432233 -0.847425 0.308295 1 
0.0892711 0.255429 0.00523692 -0.355643 -0.933072 0.0538058 1 
0.0890934 0.255154 0.00494939 -0.384461 -0.916368 0.111618 1 
0.0910569 0.254204 0.00374034 -0.298444 -0.889333 0.346435 1 
0.0899717 0.25479 0.00332896 -0.296543 -0.843051 0.448696 1 
0.0898616 0.254471 0.00345808 -0.296543 -0.843051 0.448696 1 
0.08973 0.254809 0.00394635 -0.380489 -0.892744 0.241322 1 
0.0900383 0.254449 0.00378712 -0.316715 -0.909278 0.27001 1 
0.0896838 0.254541 0.00371015 -0.397375 -0.880224 0.259419 1 
0.0901888 0.254534 0.00319539 -0.296269 -0.938416 -0.177762 1 
0.0899648 0.254336 0.00321126 -0.31421 -0.945258 0.0880839 1 
0.0903134 0.254087 0.00312904 -0.242942 -0.93984 0.240166 1 
0.0904166 0.253951 0.00288223 -0.242942 -0.93984 0.240166 1 
0.0895522 0.254189 0.00311925 -0.43337 -0.846548 0.309106 1 
0.0900502 0.254074 0.0030264 -0.3165 -0.920857 -0.227708 1 
0.0902673 0.253819 0.00289279 -0.259336 -0.96551 -0.0231333 1 
0.0903371 0.254025 0.00268677 -0.259336 -0.96551 -0.0231333 1 
0.0904983 0.254127 0.00245504 -0.245 -0.957487 0.152297 1 
0.0904402 0.253889 0.00243996 -0.24504 -0.969296 0.0205206 1 
0.090445 0.253749 0.00264071 -0.245 -0.957487 0.152297 1 
0.0904865 0.253813 0.00213654 -0.266401 -0.877468 0.398849 1 
0.0911873 0.254947 0.00545202 -0.356948 -0.933257 -0.0402378 1 
0.091479 0.254759 0.00531316 -0.354262 -0.934893 -0.0217417 1 
0.0916047 0.254609 0.00520527 -0.286191 -0.95691 0.0491693 1 
0.0919238 0.254265 0.00540607 -0.388901 -0.919824 -0.051765 1 
0.091753 0.254444 0.00523619 -0.296222 -0.954213 0.0415971 1 
0.0917686 0.25432 0.00579698 -0.423792 -0.899334 -0.107696 1 
0.0916649 0.254751 0.00405802 -0.13286 -0.973038 0.188534 1 
0.0916118 0.254373 0.0042437 -0.156334 -0.967721 0.197679 1 
0.0923977 0.254506 0.00376976 -0.19068 -0.966374 0.17252 1 
0.0920706 0.254443 0.0040324 -0.0962565 -0.980842 0.169363 1 
0.0923445 0.254128 0.00395542 -0.158299 -0.969097 0.189186 1 
0.0923966 0.254209 0.00381128 -0.19068 -0.966374 0.17252 1 
0.0919604 0.254125 0.00416148 -0.0937629 -0.980248 0.174131 1 
0.0921205 0.253929 0.00397129 -0.0411947 -0.982789 0.18008 1 
0.092373 0.253926 0.00371394 0.0393964 -0.991663 0.122692 1 
0.0926078 0.254142 0.00405805 -0.41947 -0.907768 0.00129867 1 
0.0927786 0.253963 0.00422792 -0.40481 -0.914378 -0.00646661 1 
0.0928001 0.253651 0.0044083 -0.40481 -0.914378 -0.00646661 1 
0.0922629 0.253608 0.00384299 0.0393964 -0.991663 0.122692 1 
0.0907216 0.254768 0.00608531 -0.373929 -0.911362 -0.172036 1 
0.0911175 0.254741 0.00565813 -0.356285 -0.933129 -0.0482878 1 
0.0912491 0.254748 0.00570941 -0.38745 -0.917646 -0.0883659 1 
0.0901215 0.254972 0.00584374 -0.339816 -0.939945 -0.0320582 1 
0.0903337 0.254857 0.00550944 -0.341831 -0.93972 0.00882958 1 
0.090533 0.254821 0.00597735 -0.349316 -0.933722 -0.0783636 1 
0.0905948 0.254621 0.00623474 -0.377346 -0.909903 -0.172298 1 
0.0910536 0.254346 0.00548379 -0.337207 -0.941423 -0.00376068 1 
0.0914554 0.254476 0.00521585 -0.32818 -0.944608 -0.00374349 1 
0.0911105 0.254632 0.00608003 -0.425662 -0.887644 -0.175785 1 
0.0914828 0.254321 0.00555548 -0.316226 -0.948677 0.0037203 1 
0.0912244 0.254168 0.00565362 -0.375586 -0.925029 -0.0570678 1 
0.0912304 0.25398 0.00527325 -0.268938 -0.961921 0.048784 1 
0.0902177 0.254727 0.00601888 -0.359753 -0.929474 -0.0815798 1 
0.0916972 0.254111 0.00405885 -0.0992979 -0.979494 0.175304 1 
0.0881172 0.255761 0.00445047 -0.453344 -0.888775 0.0675193 1 
0.0879228 0.255657 0.00418331 -0.486415 -0.872239 0.050984 1 
0.087969 0.25558 0.00387992 -0.438907 -0.882188 0.170605 1 
0.088085 0.255711 0.00337045 -0.413705 -0.892731 0.178546 1 
0.088243 0.255266 0.00380297 -0.403911 -0.896132 0.183859 1 
0.088359 0.255396 0.00329348 -0.442169 -0.87996 0.173657 1 
0.0891466 0.254497 0.00314488 -0.432233 -0.847425 0.308295 1 
0.0852531 0.248522 0.0207309 -0.371689 -0.888171 0.270183 1 
0.0853622 0.248543 0.0206434 -0.417174 -0.851406 0.31792 1 
0.0819197 0.249666 0.0201663 -0.439755 -0.894674 0.0785769 1 
0.082399 0.249127 0.020177 -0.31393 -0.939071 0.139977 1 
0.0828235 0.248553 0.0189687 -0.258856 -0.964828 0.0458262 1 
0.0831495 0.249009 0.0198268 -0.245687 -0.963452 0.106764 1 
0.0828793 0.248541 0.0196064 -0.255696 -0.962993 0.0852319 1 
0.0830609 0.248379 0.0201362 -0.22737 -0.960736 0.159027 1 
0.0832683 0.248404 0.0196012 -0.239775 -0.962989 0.123128 1 
0.0830501 0.248362 0.0197762 -0.237168 -0.965338 0.108969 1 
0.0839903 0.248143 0.0189528 -0.227513 -0.936571 0.266595 1 
0.0839156 0.248077 0.0189581 -0.234788 -0.926344 0.294552 1 
0.0833381 0.248266 0.0188555 -0.261741 -0.940329 0.217425 1 
0.0833252 0.248 0.0191181 -0.248319 -0.960772 0.123509 1 
0.0832221 0.248136 0.0193649 -0.225603 -0.973591 -0.0349865 1 
0.0833703 0.247971 0.0193959 -0.221128 -0.973694 0.0549765 1 
0.0836631 0.24808 0.0192155 -0.20579 -0.963414 0.17171 1 
0.0841326 0.248511 0.0199038 -0.2057 -0.969727 0.131597 1 
0.0843496 0.248601 0.0203098 -0.264562 -0.948354 0.175018 1 
0.084666 0.248302 0.0191475 -0.316715 -0.909278 0.27001 1 
0.0843389 0.248239 0.0194102 -0.382656 -0.820884 0.423938 1 
0.0842642 0.248173 0.0194155 -0.360739 -0.844848 0.395095 1 
0.085093 0.248372 0.0203815 -0.306099 -0.923993 0.229218 1 
0.0851323 0.248187 0.0205 -0.318739 -0.906277 0.277611 1 
0.0849035 0.248128 0.0203152 -0.297141 -0.930854 0.212646 1 
0.0849035 0.248128 0.0203152 -0.297141 -0.930854 0.212646 1 
0.0844979 0.248436 0.0203408 -0.287719 -0.933331 0.214736 1 
0.0846236 0.248286 0.0202328 -0.264436 -0.947901 0.177647 1 
0.0848288 0.248062 0.0203204 -0.297141 -0.930854 0.212646 1 
0.0849045 0.248081 0.019734 -0.351311 -0.901062 0.254297 1 
0.0852354 0.248051 0.0202532 -0.272554 -0.943667 0.187638 1 
0.0850861 0.247918 0.0202638 -0.305493 -0.925004 0.225923 1 
0.0852994 0.248101 0.0198879 -0.306298 -0.924592 0.226518 1 
0.0847268 0.24815 0.019986 -0.221974 -0.974019 0.0448801 1 
0.0846236 0.247941 0.0196933 -0.407348 -0.835142 0.369601 1 
0.0838113 0.24826 0.0197861 -0.223822 -0.9556 0.191656 1 
0.0833074 0.248564 0.0202592 -0.212242 -0.964854 0.15495 1 
0.0833418 0.248518 0.020177 -0.212242 -0.964854 0.15495 1 
0.0830834 0.248365 0.0202751 -0.220964 -0.959274 0.175977 1 
0.0839086 0.247967 0.01938 -0.397654 -0.780701 0.482055 1 
0.0841493 0.247995 0.0193438 -0.221986 -0.958395 0.17945 1 
0.0839726 0.248017 0.0190147 -0.237386 -0.939826 0.245715 1 
0.0839833 0.248034 0.0193747 -0.444904 -0.72607 0.524292 1 
0.0840461 0.248131 0.0195906 -0.240033 -0.950641 0.196638 1 
0.0836163 0.248795 0.0180727 -0.287562 -0.94639 0.147156 1 
0.083755 0.248567 0.0171625 -0.332813 -0.928812 0.162925 1 
0.0843432 0.248049 0.0170856 -0.385329 -0.893194 0.231788 1 
0.0836153 0.248498 0.0181143 -0.277741 -0.94703 0.161225 1 
0.0837399 0.248396 0.0185875 -0.220964 -0.959274 0.175977 1 
0.0843921 0.247583 0.0176056 -0.336296 -0.9173 0.213226 1 
0.0843863 0.247426 0.0174464 -0.352988 -0.912006 0.208911 1 
0.0846446 0.24758 0.0173483 -0.418405 -0.879992 0.224837 1 
0.0841477 0.247648 0.01686 -0.389457 -0.874384 0.289441 1 
0.0854381 0.246838 0.0173589 0.343615 -0.454458 -0.821825 1 
0.085278 0.247033 0.0175491 -0.486817 -0.828989 0.275293 1 
0.0858615 0.246656 0.0172714 0.343615 -0.454458 -0.821825 1 
0.0801551 0.250185 0.0187784 -0.34086 -0.862175 0.374792 1 
0.0799703 0.249801 0.0189127 -0.326588 -0.85594 0.400883 1 
0.081193 0.249378 0.0195347 -0.436792 -0.866026 0.243334 1 
0.0797748 0.249744 0.0192267 -0.384886 -0.825207 0.413396 1 
0.0803652 0.249821 0.0190667 -0.373733 -0.884051 0.280675 1 
0.0803534 0.249507 0.0187482 -0.351089 -0.896239 0.271094 1 
0.0806961 0.249447 0.0190463 -0.346916 -0.899029 0.267199 1 
0.0799123 0.249563 0.0188977 -0.286829 -0.884513 0.367921 1 
0.0800488 0.24943 0.0191498 -0.388799 -0.856597 0.339231 1 
0.0802443 0.249486 0.0188358 -0.362078 -0.884912 0.292968 1 
0.081641 0.249432 0.0189633 -0.377262 -0.908012 0.182176 1 
0.0818699 0.249146 0.0186086 -0.352792 -0.920631 0.16726 1 
0.0812156 0.249019 0.019134 -0.385206 -0.899782 0.204959 1 
0.0818022 0.249189 0.018192 -0.311443 -0.937074 0.15778 1 
0.0818119 0.248563 0.0180539 -0.496448 -0.718937 0.486486 1 
0.0810163 0.249056 0.018666 -0.35979 -0.904572 0.228692 1 
0.0811538 0.248875 0.0183369 -0.354193 -0.909337 0.218299 1 
0.0808562 0.248906 0.0183166 -0.333548 -0.917616 0.216162 1 
0.0807246 0.2489 0.0182652 -0.321546 -0.924975 0.20256 1 
0.0809379 0.249082 0.0178894 -0.32692 -0.920802 0.212712 1 
0.0812119 0.248767 0.0178124 -0.332773 -0.914766 0.229052 1 
0.0815036 0.248579 0.0176735 -0.268586 -0.953942 0.133631 1 
0.0808278 0.248764 0.0180185 -0.314412 -0.923319 0.220515 1 
0.0796539 0.24941 0.0189958 -0.310255 -0.856674 0.41213 1 
0.0796883 0.249364 0.0189135 -0.316024 -0.822291 0.47325 1 
0.0817512 0.248716 0.0172154 -0.284356 -0.94919 0.134836 1 
0.0816422 0.248695 0.0173029 -0.274272 -0.952664 0.131173 1 
0.0816819 0.248904 0.0204864 -0.434846 -0.893616 0.111174 1 
0.0817066 0.248794 0.019463 -0.396478 -0.903167 0.164603 1 
0.082781 0.248537 0.020054 -0.257472 -0.961996 0.0909477 1 
0.0813429 0.248527 0.0204306 -0.436427 -0.877293 0.199721 1 
0.0813655 0.248513 0.0205695 -0.439426 -0.883203 0.163878 1 
0.0822921 0.249011 0.0191022 -0.304371 -0.952546 0.00369682 1 
0.0822793 0.248745 0.0193649 -0.299507 -0.953659 0.0288228 1 
0.0818275 0.248785 0.0191543 -0.349193 -0.925152 0.148859 1 
0.0818156 0.248815 0.0193755 -0.359772 -0.926106 0.11354 1 
0.0819806 0.24848 0.0193861 -0.293759 -0.955647 -0.0210713 1 
0.0819452 0.248228 0.0195099 -0.310086 -0.950343 0.0263635 1 
0.0826172 0.248135 0.018383 -0.310799 -0.940539 0.137077 1 
0.0823921 0.247984 0.01898 -0.285991 -0.95544 0.0731008 1 
0.0821869 0.248208 0.0188925 -0.279111 -0.958576 0.0568325 1 
0.0823245 0.248027 0.0185634 -0.272098 -0.958147 0.08898 1 
0.0830443 0.248205 0.019617 -0.239652 -0.965014 0.106369 1 
0.0830786 0.24816 0.0195348 -0.247487 -0.956862 0.152198 1 
0.0824646 0.248146 0.020137 -0.286465 -0.941634 0.176813 1 
0.0828735 0.24804 0.0189076 -0.280574 -0.950762 0.131644 1 
0.0829626 0.24803 0.0200442 -0.236167 -0.961631 0.139613 1 
0.082795 0.248066 0.0181309 -0.306731 -0.944302 0.11921 1 
0.0834365 0.247581 0.0173287 -0.303548 -0.943023 0.136259 1 
0.0832431 0.24743 0.0164804 -0.192177 -0.745647 0.638028 1 
0.0832539 0.247446 0.0168404 -0.27952 -0.916769 0.285313 1 
0.0854132 0.248326 0.0205408 -0.480835 -0.781964 0.396648 1 
0.0856184 0.248102 0.0206283 -0.600593 -0.583674 0.546455 1 
0.085309 0.248165 0.0208291 -0.417174 -0.851406 0.31792 1 
0.0854347 0.248015 0.0207212 -0.483303 -0.787186 0.383087 1 
0.0858688 0.247849 0.0209937 -0.658474 -0.533852 0.530484 1 
0.0854014 0.248012 0.0202223 -0.451713 -0.798937 0.397057 1 
0.0858758 0.247959 0.0205718 -0.59187 -0.612105 0.524421 1 
0.0858011 0.247892 0.020577 -0.59187 -0.612105 0.524421 1 
0.0856518 0.24776 0.0205876 -0.600593 -0.583674 0.546455 1 
0.0860396 0.247671 0.0211635 -0.654905 -0.560626 0.506752 1 
0.0851892 0.248127 0.0205567 -0.306907 -0.923575 0.229823 1 
0.0854632 0.247813 0.0204796 -0.480835 -0.781964 0.396648 1 
0.0854514 0.247499 0.0201612 -0.590814 -0.570499 0.570499 1 
0.0856518 0.24776 0.0205876 -0.600593 -0.583674 0.546455 1 
0.0854848 0.247501 0.0206601 -0.600593 -0.583674 0.546455 1 
0.0852854 0.247537 0.0201921 -0.437031 -0.798268 0.414454 1 
0.0857077 0.247748 0.0212253 -0.638178 -0.567457 0.520309 1 
0.0858108 0.247612 0.0209786 -0.658474 -0.533852 0.530484 1 
0.0860112 0.247183 0.0203258 -0.68032 -0.43414 0.590497 1 
0.0861466 0.247097 0.021159 -0.673735 -0.519162 0.525883 1 
0.0784901 0.248593 0.013124 0.951866 0.233578 -0.198474 1 
0.0790595 0.248341 0.0142297 0.984598 -0.165864 -0.055288 1 
0.0791626 0.248206 0.0139829 0.99404 -0.0230661 -0.106544 1 
0.0792314 0.248115 0.0138184 0.985927 0.0194666 -0.166039 1 
0.0790488 0.24798 0.0133301 0.989296 0.14035 -0.039937 1 
0.0790772 0.247778 0.0130886 0.98302 0.168415 0.0728605 1 
0.0795161 0.248162 0.014641 0.974834 -0.217304 -0.0497736 1 
0.0793313 0.247777 0.0147754 0.98485 -0.157623 -0.0722934 1 
0.0791095 0.247828 0.0141686 0.999936 0.00693712 -0.00891915 1 
0.0792459 0.247694 0.0144207 0.999207 -0.0319664 -0.023717 1 
0.0790966 0.247562 0.0144313 0.999587 0.0192814 0.021311 1 
0.0792449 0.247397 0.0144623 0.999021 0.0280099 0.0342344 1 
0.0790987 0.247811 0.0138086 0.98785 0.128033 0.088096 1 
0.0791106 0.24778 0.0135875 0.990177 0.133315 0.0421594 1 
0.0790644 0.247512 0.0133513 0.987592 0.145405 0.0593253 1 
0.0791665 0.247424 0.0136856 0.984458 0.133425 0.114192 1 
0.0792341 0.247381 0.0141022 0.995285 0.0846817 0.0472898 1 
0.0793658 0.247043 0.013614 0.983689 0.146045 0.105007 1 
0.0795485 0.246833 0.0135626 0.983805 0.154958 0.090092 1 
0.0793481 0.246572 0.0131362 0.979989 0.163127 0.114066 1 
0.0795652 0.246317 0.0130026 0.977728 0.155689 0.140743 1 
0.0794336 0.245966 0.0124117 0.965764 0.175475 0.191073 1 
0.0787615 0.246058 0.0135386 0.980579 0.155862 0.119044 1 
0.0799042 0.246004 0.0119792 0.966673 0.19593 0.164789 1 
0.0796114 0.245896 0.0121596 0.963109 0.179518 0.200484 1 
0.0798285 0.245641 0.012026 0.971634 0.127947 0.198887 1 
0.0796859 0.248031 0.015392 0.492375 -0.763918 0.417129 1 
0.0793872 0.247765 0.0154132 0.521387 -0.711284 0.471413 1 
0.0794688 0.247941 0.014986 -0.123764 -0.735128 0.666536 1 
0.0793587 0.247623 0.0151151 0.821269 -0.474476 0.316843 1 
0.0794619 0.247487 0.0148683 0.989283 -0.126415 -0.0730654 1 
0.0785374 0.247238 0.0157129 0.787328 -0.310159 0.532838 1 
0.0786121 0.247304 0.0157076 0.680786 -0.483408 0.550316 1 
0.0787082 0.247059 0.0158827 0.726441 -0.385358 0.569018 1 
0.0787082 0.247059 0.0158827 0.726441 -0.385358 0.569018 1 
0.079398 0.247093 0.014694 0.996298 -0.0226187 0.0829351 1 
0.0792948 0.247228 0.0149408 0.996672 -0.0683246 0.0444652 1 
0.0793448 0.246715 0.0148797 0.991628 0.0697685 0.108656 1 
0.0791208 0.246516 0.0148955 0.990629 0.0749603 0.11417 1 
0.079181 0.247003 0.0142879 0.988617 0.120506 0.090087 1 
0.0793175 0.246869 0.01454 0.989554 0.0802341 0.11977 1 
0.0792202 0.246817 0.0144065 0.987609 0.126253 0.0932152 1 
0.0794835 0.246486 0.0139695 0.981044 0.118803 0.153097 1 
0.0794491 0.246531 0.0140517 0.981044 0.118803 0.153097 1 
0.0793567 0.246684 0.0146585 0.98789 0.0808593 0.132422 1 
0.0791219 0.246468 0.0143144 0.982396 0.115362 0.146934 1 
0.0791896 0.246425 0.014731 0.981648 0.100963 0.161783 1 
0.0793959 0.246154 0.0142374 0.981658 0.120726 0.147554 1 
0.0792466 0.246021 0.014248 0.979496 0.126903 0.156473 1 
0.0793556 0.246731 0.0152397 0.995879 -0.00532556 0.0905345 1 
0.0794459 0.246329 0.0152556 0.991361 0.0441864 0.123495 1 
0.0793712 0.246263 0.0152609 0.989813 0.0213953 0.140758 1 
0.0793143 0.245978 0.0146646 0.981559 0.090773 0.168233 1 
0.0787153 0.246134 0.013842 0.976216 0.141608 0.164165 1 
0.079 0.246181 0.0146646 0.984271 0.10696 0.14061 1 
0.0794449 0.245688 0.0147575 0.974348 0.0777997 0.21117 1 
0.0795126 0.2453 0.0146345 0.975346 0.11864 0.186078 1 
0.0795866 0.24635 0.0137227 0.98511 0.130788 0.11159 1 
0.0797231 0.246217 0.0139748 0.98522 0.128091 0.113725 1 
0.0793353 0.246306 0.0133989 0.981822 0.130503 0.137821 1 
0.0793626 0.246151 0.0137385 0.984068 0.131612 0.119537 1 
0.0794303 0.246108 0.0141552 0.981044 0.118803 0.153097 1 
0.0795797 0.245896 0.013605 0.978718 0.154665 0.134868 1 
0.0797941 0.246031 0.0126479 0.968128 0.179666 0.174496 1 
0.0798392 0.246002 0.0129257 0.970614 0.175197 0.164966 1 
0.0799993 0.245807 0.0127355 0.967523 0.180034 0.177444 1 
0.0796436 0.245946 0.0132397 0.975811 0.166602 0.141549 1 
0.0795808 0.245849 0.0130238 0.971822 0.184684 0.146474 1 
0.0797516 0.24567 0.0131937 0.972703 0.176279 0.150915 1 
0.0796023 0.245537 0.0132042 0.973135 0.173819 0.150982 1 
0.0797398 0.245701 0.0134148 0.975341 0.16695 0.144355 1 
0.0798548 0.245534 0.0129468 0.9687 0.160807 0.189109 1 
0.0796877 0.245965 0.0140986 0.98293 0.125144 0.134864 1 
0.0795442 0.245989 0.0142684 0.978493 0.130218 0.159982 1 
0.0794981 0.245721 0.0140322 0.980579 0.155862 0.119044 1 
0.0792418 0.245817 0.0135076 0.976081 0.169154 0.136576 1 
0.0793449 0.245681 0.0132608 0.974183 0.175177 0.14241 1 
0.0794696 0.245233 0.0131944 0.972909 0.143336 0.18139 1 
0.0791709 0.245658 0.0142948 0.974804 0.144648 0.169805 1 
0.079222 0.245441 0.0141922 0.979561 0.154019 0.129376 1 
0.079893 0.245051 0.0131069 0.970711 0.136486 0.197714 1 
0.0799145 0.24474 0.0132873 0.968154 0.150831 0.199819 1 
0.0800063 0.245916 0.0123136 0.963109 0.179518 0.200484 1 
0.0801379 0.245578 0.0118253 0.970509 0.141559 0.195122 1 
0.0797076 0.245651 0.0123348 0.965294 0.1598 0.20657 1 
0.0796378 0.245444 0.0125408 0.966849 0.172605 0.188179 1 
0.0799139 0.245379 0.0118412 0.970509 0.141559 0.195122 1 
0.0798108 0.245515 0.012088 0.969497 0.118169 0.214738 1 
0.0802813 0.245554 0.0116555 0.968431 0.153045 0.196773 1 
0.0800574 0.245355 0.0116714 0.968431 0.153045 0.196773 1 
0.0795406 0.245048 0.0118676 0.959718 0.173411 0.221066 1 
0.0798941 0.245004 0.0125258 0.970069 0.136755 0.20066 1 
0.0797576 0.245137 0.0122737 0.970023 0.118233 0.212312 1 
0.0797909 0.244795 0.0122329 0.968845 0.147572 0.198902 1 
0.0795207 0.244672 0.0125522 0.966005 0.165118 0.198922 1 
0.0796899 0.24518 0.011857 0.959718 0.173411 0.221066 1 
0.0799961 0.244916 0.0128601 0.969975 0.147354 0.193482 1 
0.0799156 0.244692 0.0127062 0.966005 0.165118 0.198922 1 
0.0800176 0.244604 0.0130405 0.968541 0.161208 0.189581 1 
0.0746498 0.236691 0.0290101 0.146355 -0.107649 0.983357 1 
0.0739708 0.235985 0.0294797 0.15061 -0.173391 0.973269 1 
0.0749592 0.236628 0.0288094 -0.164365 -0.166913 0.972175 1 
0.0748098 0.236496 0.02882 -0.164365 -0.166913 0.972175 1 
0.0749866 0.236129 0.0286094 -0.258117 -0.211187 0.942749 1 
0.0747067 0.236287 0.0285272 -0.192948 -0.164459 0.967329 1 
0.0746595 0.236066 0.0288721 -0.182878 -0.203928 0.961753 1 
0.0743962 0.236052 0.0287695 -0.102573 -0.184137 0.977534 1 
0.0747165 0.235662 0.0283891 -0.258422 -0.30462 0.916747 1 
0.0746074 0.23564 0.0284766 -0.237047 -0.290986 0.926896 1 
0.0747176 0.235614 0.027808 -0.283426 -0.552601 0.783774 1 
0.0748137 0.235369 0.027983 -0.41873 -0.716641 0.557755 1 
0.0741723 0.235854 0.0287853 -0.0557659 -0.119498 0.991267 1 
0.0746751 0.235253 0.0283536 -0.0207569 -0.267397 0.963363 1 
0.0745317 0.235277 0.0285235 -0.38256 -0.569736 0.727357 1 
0.0745887 0.235217 0.0285801 -0.420359 -0.623062 0.659615 1 
0.0748745 0.234872 0.028282 -0.487442 -0.767844 0.415712 1 
0.0746563 0.23483 0.0284571 -0.584781 -0.805344 0.0972217 1 
0.0745113 0.235196 0.0272223 -0.459346 -0.780726 0.423637 1 
0.0748068 0.234915 0.0278654 -0.501538 -0.785366 0.362849 1 
0.079901 0.233689 0.0295756 0.0280021 -0.12881 -0.991274 1 
0.0797517 0.233556 0.0295862 0.0251632 -0.101747 -0.994492 1 
0.0802271 0.233455 0.0293545 0.0494024 -0.077946 -0.995733 1 
0.0800434 0.233367 0.0294473 0.037646 -0.142599 -0.989064 1 
0.0764361 0.234826 0.0289597 -0.437577 -0.867636 0.236081 1 
0.0766128 0.234805 0.0292887 -0.429909 -0.8733 0.229185 1 
0.0768379 0.234956 0.0286917 -0.424882 -0.880853 0.20874 1 
0.0771119 0.234641 0.0286148 -0.437301 -0.876085 0.203086 1 
0.0765569 0.234817 0.028651 -0.408619 -0.886571 0.216848 1 
0.0763684 0.234869 0.028543 -0.437577 -0.867636 0.236081 1 
0.0767278 0.234638 0.0288208 -0.426568 -0.878404 0.215514 1 
0.0768556 0.234392 0.0275506 -0.35979 -0.904572 0.228692 1 
0.0771785 0.234646 0.0296126 -0.479036 -0.85078 0.216095 1 
0.0765714 0.234741 0.0297929 -0.437612 -0.864625 0.246819 1 
0.076933 0.234758 0.029448 -0.449318 -0.864074 0.226913 1 
0.0767836 0.234626 0.0294586 -0.441338 -0.869212 0.222913 1 
0.0767944 0.234642 0.0298186 -0.466589 -0.856168 0.22197 1 
0.0771371 0.234237 0.0295771 -0.478864 -0.861956 0.166497 1 
0.0779408 0.234496 0.0290412 -0.475755 -0.861102 0.179334 1 
0.0784996 0.233539 0.0287077 -0.364561 -0.923095 0.122437 1 
0.077157 0.234613 0.0288926 -0.446129 -0.872989 0.197127 1 
0.0775067 0.234661 0.0287687 -0.478583 -0.853647 0.205535 1 
0.0773574 0.234529 0.0287793 -0.476889 -0.852985 0.212118 1 
0.0777237 0.234406 0.0286352 -0.49589 -0.841648 0.213824 1 
0.0777914 0.234363 0.0290518 -0.470638 -0.862589 0.185583 1 
0.0775282 0.23435 0.0289492 -0.488915 -0.850742 0.192875 1 
0.0767847 0.234578 0.0288774 -0.415064 -0.887327 0.200932 1 
0.077207 0.234444 0.0293711 -0.480922 -0.85613 0.189093 1 
0.077271 0.233804 0.0279265 -0.481431 -0.842123 0.243008 1 
0.0776303 0.234262 0.0292835 -0.491315 -0.853492 0.173667 1 
0.0777737 0.234237 0.0291137 -0.474155 -0.860614 0.185797 1 
0.0778828 0.234258 0.0290262 -0.463349 -0.866004 0.188004 1 
0.0778237 0.233724 0.0290526 -0.453728 -0.870507 0.190654 1 
0.0775986 0.233573 0.0296496 -0.479784 -0.804954 0.349079 1 
0.0777883 0.233472 0.0291764 -0.452815 -0.871705 0.187321 1 
0.0780998 0.234003 0.0288926 -0.434673 -0.87966 0.193024 1 
0.0779161 0.233916 0.0289854 -0.450214 -0.872381 0.190418 1 
0.0783217 0.233608 0.0289598 -0.392273 -0.907751 0.148696 1 
0.0780074 0.233811 0.0289597 -0.434673 -0.87966 0.193024 1 
0.0781037 0.233566 0.0291349 -0.42152 -0.890841 0.169477 1 
0.0778581 0.233679 0.0289703 -0.453728 -0.870507 0.190654 1 
0.0778452 0.233412 0.029233 -0.453728 -0.870507 0.190654 1 
0.0757054 0.235321 0.0286253 -0.477153 -0.827586 0.295678 1 
0.0752693 0.234892 0.0284359 -0.462026 -0.8145 0.350886 1 
0.0753251 0.23488 0.0290737 -0.420737 -0.82401 -0.379457 1 
0.0755895 0.234846 0.0285952 -0.43516 -0.847091 0.305077 1 
0.0760412 0.234806 0.0288057 -0.429301 -0.869146 0.24553 1 
0.076218 0.234784 0.0291348 -0.445528 -0.895046 0.019949 1 
0.076326 0.234508 0.0290888 -0.41922 -0.878722 0.228259 1 
0.0749029 0.235014 0.0285801 -0.499367 -0.806913 0.315473 1 
0.0750442 0.234741 0.0290329 -0.506408 -0.818044 0.272681 1 
0.0743862 0.234707 0.0287763 -0.59413 -0.761179 -0.26003 1 
0.0748959 0.23456 0.0284623 -0.48144 -0.790593 0.37839 1 
0.0758774 0.235094 0.028214 -0.412124 -0.832143 0.371069 1 
0.076008 0.234804 0.0283069 -0.406716 -0.846157 0.344384 1 
0.0753606 0.234787 0.0284103 -0.450224 -0.832994 0.321589 1 
0.0756534 0.234895 0.0282299 -0.43618 -0.829845 0.348 1 
0.0758242 0.234717 0.0283997 -0.396864 -0.839219 0.371766 1 
0.0758941 0.234579 0.027654 -0.367259 -0.88592 0.283314 1 
0.0761622 0.234107 0.0274178 -0.307689 -0.91729 0.252796 1 
0.0761503 0.234827 0.0287182 -0.435651 -0.866779 0.242698 1 
0.0763152 0.234492 0.0287288 -0.412147 -0.884861 0.217153 1 
0.0764528 0.234311 0.0283997 -0.391036 -0.894842 0.215289 1 
0.0765892 0.234177 0.0286518 -0.397265 -0.892748 0.212559 1 
0.0764254 0.234465 0.0280601 -0.376293 -0.902232 0.210666 1 
0.0766424 0.23421 0.0279265 -0.386331 -0.901439 0.195336 1 
0.0764077 0.233995 0.0275824 -0.343121 -0.910647 0.230195 1 
0.0765215 0.23422 0.0282352 -0.387774 -0.897002 0.212178 1 
0.0765076 0.234001 0.029079 -0.383078 -0.903486 0.192262 1 
0.076542 0.233956 0.0289968 -0.413463 -0.887253 0.204524 1 
0.076543 0.233909 0.0284156 -0.424689 -0.877691 0.22203 1 
0.0766451 0.23382 0.0287499 -0.427958 -0.875302 0.225163 1 
0.0790759 0.233397 0.0293915 0.00764774 -0.116901 -0.993114 1 
0.0788874 0.233449 0.0292835 0.0132931 -0.25982 -0.965565 1 
0.0790012 0.23333 0.0293968 0.00998663 -0.134265 -0.990895 1 
0.0789964 0.23347 0.029196 -0.139718 -0.710608 -0.689576 1 
0.0795621 0.233312 0.0295198 0.021682 -0.158621 -0.987101 1 
0.0798941 0.233235 0.0294579 0.0424066 -0.140973 -0.989105 1 
0.0792468 0.233218 0.0295613 0.024099 -0.166398 -0.985764 1 
0.0790228 0.233019 0.0295772 0.011954 -0.105413 -0.994357 1 
0.0793381 0.233113 0.0295357 0.024099 -0.166398 -0.985764 1 
0.0784356 0.233489 0.029073 -0.365978 -0.918449 0.150037 1 
0.0785672 0.233496 0.0291243 -0.345416 -0.928907 0.133487 1 
0.0782863 0.233356 0.0290836 -0.383574 -0.908316 0.166833 1 
0.0784463 0.233161 0.0288934 -0.348259 -0.93095 0.109763 1 
0.0785946 0.232996 0.0289243 -0.309073 -0.950112 0.0419728 1 
0.0786978 0.233205 0.0292172 -0.297624 -0.954619 0.0111146 1 
0.0779936 0.233248 0.029264 -0.428511 -0.882055 0.195849 1 
0.0779189 0.233182 0.0292693 -0.438191 -0.877857 0.193276 1 
0.0743115 0.234641 0.0287816 -0.0230607 -0.108715 0.993805 1 
0.0804345 0.23348 0.0288194 -0.0523189 -0.974592 -0.217793 1 
0.080456 0.233169 0.0289998 -0.0523189 -0.974592 -0.217793 1 
0.0807192 0.233182 0.0291024 0.0341324 0.312248 -0.949387 1 
0.0803528 0.233304 0.0292466 -0.0631463 -0.982938 -0.172759 1 
0.0805699 0.233049 0.029113 0.0437313 0.273633 -0.96084 1 
0.0802035 0.233172 0.0292571 0.0387137 -0.0984434 -0.994389 1 
0.0803695 0.232789 0.0286866 -0.0523189 -0.974592 -0.217793 1 
0.0809314 0.233412 0.0293077 -0.103669 0.290011 -0.951392 1 
0.0812457 0.233209 0.0293077 -0.144287 0.292619 -0.945281 1 
0.0808224 0.233391 0.0293952 -0.0426459 0.339875 -0.939503 1 
0.0807821 0.233279 0.0293183 -0.0426459 0.339875 -0.939503 1 
0.0806269 0.23299 0.0291696 0.0341324 0.312248 -0.949387 1 
0.0810738 0.233091 0.0291794 -0.123589 0.245876 -0.96139 1 
0.0770583 0.233869 0.0257355 -0.0733804 -0.988888 0.129289 1 
0.0768579 0.234297 0.0263884 -0.280931 -0.930321 0.235757 1 
0.0772103 0.233956 0.027088 -0.366837 -0.906217 0.210242 1 
0.0772044 0.233799 0.0269287 -0.315871 -0.921885 0.224397 1 
0.077164 0.234032 0.0273914 -0.447911 -0.870525 0.203867 1 
0.0774498 0.234032 0.0276329 -0.486261 -0.842954 0.230174 1 
0.0771045 0.233792 0.0254321 -0.0541347 -0.989398 0.134761 1 
0.077025 0.233866 0.0252366 -0.0429684 -0.994883 0.0914455 1 
0.0777023 0.234028 0.0273755 -0.483518 -0.847294 0.219781 1 
0.0777308 0.233826 0.027134 -0.493876 -0.840349 0.223384 1 
0.0773005 0.233899 0.0276435 -0.484106 -0.845288 0.226118 1 
0.0778044 0.233595 0.0271703 -0.523845 -0.817446 0.239516 1 
0.0763744 0.233992 0.0270835 -0.31253 -0.917427 0.246279 1 
0.0760553 0.233991 0.026343 -0.344693 -0.916797 0.201667 1 
0.0760483 0.233882 0.026765 -0.35427 -0.913644 0.199367 1 
0.0760198 0.234084 0.0270065 -0.3549 -0.908254 0.221631 1 
0.0764432 0.233902 0.026919 -0.245464 -0.93557 0.25388 1 
0.0764717 0.2337 0.0266775 -0.300914 -0.928171 0.218975 1 
0.0765818 0.233673 0.0260087 -0.159515 -0.971129 0.177381 1 
0.0769482 0.233895 0.0264042 -0.197152 -0.964871 0.173651 1 
0.0765131 0.233764 0.0261733 -0.157963 -0.974315 0.16049 1 
0.0766495 0.23363 0.0264253 -0.197152 -0.964871 0.173651 1 
0.0770288 0.233774 0.0260185 -0.159515 -0.971129 0.177381 1 
0.0768439 0.234079 0.0272321 -0.343796 -0.909538 0.23355 1 
0.0767811 0.233981 0.0270163 -0.313713 -0.921083 0.230629 1 
0.0768665 0.23372 0.0268314 -0.229624 -0.939369 0.254673 1 
0.0757625 0.233882 0.0265235 -0.351169 -0.91702 0.189091 1 
0.0770229 0.233617 0.0258593 -0.0733804 -0.988888 0.129289 1 
0.0799048 0.232907 0.0292783 0.037646 -0.142599 -0.989064 1 
0.0739246 0.24202 0.0307577 -0.575539 -0.263329 0.774218 1 
0.0737054 0.241681 0.0309744 -0.387258 -0.687177 0.614669 1 
0.0724924 0.241823 0.030754 -0.406768 -0.872511 0.270675 1 
0.0731279 0.241871 0.0308717 -0.389069 -0.723964 0.56965 1 
0.0728873 0.241843 0.0309079 -0.388069 -0.828408 0.403908 1 
0.0732418 0.241751 0.0309849 -0.393495 -0.709609 0.58448 1 
0.0733912 0.241884 0.0309743 -0.387713 -0.697884 0.602193 1 
0.0734766 0.241622 0.0307894 -0.377067 -0.742708 0.553358 1 
0.0732526 0.241423 0.0308053 -0.391026 -0.77394 0.498112 1 
0.0727379 0.24171 0.0309185 -0.393178 -0.841181 0.371248 1 
0.0728077 0.241917 0.0307124 -0.390796 -0.857279 0.335188 1 
0.0729501 0.241595 0.0305842 -0.389142 -0.881955 0.265939 1 
0.0728008 0.241463 0.0305948 -0.389345 -0.88972 0.238344 1 
0.073121 0.241417 0.030754 -0.400805 -0.825373 0.397637 1 
0.073012 0.241396 0.0308416 -0.398491 -0.836359 0.376441 1 
0.0737292 0.241274 0.0299925 -0.488121 -0.571991 0.659215 1 
0.073172 0.2412 0.0306513 -0.450272 -0.610964 0.651137 1 
0.0754468 0.243194 0.0329357 -0.971846 0.212473 -0.101836 1 
0.0752228 0.242995 0.0329517 -0.98142 0.189232 0.0317345 1 
0.0747426 0.242892 0.032443 -0.623672 -0.31103 0.717142 1 
0.074878 0.242462 0.0327366 -0.627704 -0.308204 0.714841 1 
0.0749124 0.242761 0.0331939 -0.966879 0.254186 -0.0231078 1 
0.0747356 0.242438 0.0323253 -0.596414 -0.321643 0.735416 1 
0.0748958 0.242243 0.0321351 -0.579898 -0.342741 0.739085 1 
0.0746433 0.242246 0.0323924 -0.583522 -0.349463 0.73306 1 
0.0745117 0.242239 0.0323411 -0.562055 -0.341768 0.753186 1 
0.0745686 0.24218 0.0323977 -0.573444 -0.334375 0.747901 1 
0.0749861 0.241841 0.032151 -0.620875 -0.308018 0.72086 1 
0.0751236 0.24166 0.0318219 -0.730765 -0.247797 0.636065 1 
0.0747965 0.241597 0.0320846 -0.603838 -0.313996 0.732657 1 
0.075049 0.241594 0.0318272 -0.639774 -0.307801 0.704235 1 
0.0752601 0.241526 0.032074 -0.674836 -0.28372 0.681248 1 
0.0744655 0.241971 0.0321049 -0.670604 -0.129939 0.730346 1 
0.074876 0.241523 0.03228 -0.707673 -0.251723 0.660178 1 
0.0741218 0.24139 0.0313087 -0.564446 -0.441234 0.697649 1 
0.0743447 0.241636 0.031874 -0.579898 -0.342741 0.739085 1 
0.0748249 0.241395 0.0318431 -0.595263 -0.332504 0.731508 1 
0.0748357 0.241411 0.0322031 -0.580135 -0.316583 0.750479 1 
0.0747895 0.241143 0.0319669 -0.600415 -0.358286 0.714936 1 
0.0748712 0.241318 0.0315396 -0.60808 -0.362226 0.706422 1 
0.0747218 0.241186 0.0315502 -0.626342 -0.388365 0.67592 1 
0.0741207 0.241437 0.0318899 -0.568377 -0.381648 0.728898 1 
0.0742915 0.241259 0.0320597 -0.601764 -0.34736 0.719181 1 
0.0741492 0.241235 0.0316484 -0.587933 -0.415693 0.693926 1 
0.0745548 0.240927 0.0316227 -0.628536 -0.381081 0.678027 1 
0.0745795 0.241162 0.0311389 -0.628626 -0.40305 0.665116 1 
0.0745903 0.240834 0.0309593 -0.638409 -0.409577 0.651675 1 
0.0747503 0.240984 0.0313087 -0.636814 -0.398629 0.659971 1 
0.0746698 0.24076 0.0311548 -0.644037 -0.402316 0.65066 1 
0.0747718 0.240672 0.0314891 -0.660304 -0.392211 0.640445 1 
0.0735158 0.241437 0.030908 -0.380547 -0.743128 0.550405 1 
0.0733665 0.241304 0.0309185 -0.390146 -0.752542 0.530534 1 
0.0739606 0.241288 0.0315405 -0.55065 -0.454161 0.700373 1 
0.0737222 0.241165 0.0304144 -0.484712 -0.555154 0.675913 1 
0.0739607 0.240943 0.0310008 -0.574296 -0.444455 0.687491 1 
0.0736061 0.241035 0.0309238 -0.487844 -0.511154 0.707623 1 
0.0732859 0.241081 0.0307646 -0.456952 -0.58751 0.667853 1 
0.0733773 0.240976 0.0307389 -0.466514 -0.576872 0.67051 1 
0.0735943 0.240721 0.0306053 -0.539476 -0.509225 0.670564 1 
0.0741315 0.241109 0.0317103 -0.584653 -0.409091 0.700589 1 
0.073994 0.240946 0.0314997 -0.56346 -0.433814 0.703078 1 
0.0740498 0.240589 0.0315978 -0.601922 -0.416205 0.681515 1 
0.0742453 0.24099 0.0318235 -0.605499 -0.394317 0.691292 1 
0.0741068 0.240529 0.0316544 -0.606087 -0.398003 0.68866 1 
0.0746236 0.240492 0.0309186 -0.641232 -0.405948 0.651174 1 
0.0747257 0.240404 0.0312529 -0.655074 -0.387764 0.648473 1 
0.0738731 0.240611 0.0312688 -0.583954 -0.437549 0.683775 1 
0.0739763 0.240475 0.031022 -0.603945 -0.430914 0.670495 1 
0.073929 0.240254 0.0313669 -0.626939 -0.424057 0.653547 1 
0.0747374 0.241062 0.032111 -0.559209 -0.345251 0.753716 1 
0.0746794 0.24048 0.0315563 -0.653184 -0.388603 0.649876 1 
0.0748503 0.239956 0.0311865 -0.678574 -0.38469 0.625741 1 
0.0747472 0.240092 0.0314333 -0.655074 -0.387764 0.648473 1 
0.0750427 0.239466 0.0315368 -0.661616 -0.38773 0.641817 1 
0.0753 0.239667 0.0320198 -0.534574 -0.372089 0.758802 1 
0.0753343 0.239622 0.0319376 -0.534574 -0.372089 0.758802 1 
0.0749965 0.239542 0.0318402 -0.620681 -0.395581 0.676957 1 
0.0711264 0.241925 0.0297623 -0.251365 -0.797812 0.548008 1 
0.0713434 0.242014 0.0301683 -0.31003 -0.75339 0.579901 1 
0.0714004 0.24161 0.0296853 -0.209227 -0.965561 0.154646 1 
0.0711941 0.241882 0.0301789 -0.300227 -0.789487 0.535326 1 
0.0711764 0.241411 0.0297011 -0.266951 -0.840974 0.470637 1 
0.0709298 0.241226 0.0295781 -0.235759 -0.84721 0.47608 1 
0.0723146 0.241892 0.031006 -0.400786 -0.796744 0.452293 1 
0.071851 0.241963 0.0310166 -0.319448 -0.768922 0.553816 1 
0.0713756 0.241719 0.0307087 -0.32084 -0.749701 0.578801 1 
0.0714326 0.24166 0.0307653 -0.336031 -0.732125 0.592518 1 
0.0720289 0.241893 0.0307645 -0.342404 -0.804251 0.485736 1 
0.0723028 0.241579 0.0306876 -0.413904 -0.906189 0.0866311 1 
0.0720111 0.241767 0.0308264 -0.0861249 0.498395 0.862661 1 
0.0717028 0.241783 0.030446 -0.0949624 0.62383 0.77577 1 
0.0717194 0.241611 0.0304257 -0.0846163 0.555025 0.827519 1 
0.0720681 0.241363 0.0303434 -0.477325 -0.861549 0.172901 1 
0.0725091 0.241307 0.030194 -0.438683 -0.678874 0.588802 1 
0.0724001 0.241286 0.0302815 -0.453513 -0.664371 0.594085 1 
0.0718914 0.241385 0.0300144 0.036015 0.019551 0.99916 1 
0.0727831 0.240992 0.030117 -0.446799 -0.62418 0.640914 1 
