0.0678339 0.200048 0.0540885 0.276578 0.669863 0.689048 1 
0.0678753 0.200294 0.0543483 0.311562 0.554421 0.771716 1 
0.0683332 0.199882 0.0539736 0.792607 -0.295843 0.533151 1 
0.0685556 0.20058 0.0535833 0.597455 0.56022 0.57376 1 
0.0688656 0.19987 0.0528219 0.635717 0.618944 0.461272 1 
0.0691384 0.199868 0.0523576 0.245446 -0.0481025 0.968216 1 
0.0687705 0.20064 0.0533001 0.541807 0.639704 0.545183 1 
0.0693994 0.200084 0.052919 0.551555 0.795302 0.251559 1 
0.0696479 0.200023 0.05313 0.557354 0.527044 0.641546 1 
0.069897 0.19969 0.0532136 0.595101 -0.520924 0.611959 1 
0.0695005 0.200497 0.0525883 0.510171 0.628032 0.587623 1 
0.0697426 0.200297 0.0526241 0.471165 0.422255 0.774406 1 
0.0695312 0.200694 0.0520883 0.373799 0.630683 0.680084 1 
0.0698503 0.199805 0.0524963 0.844481 0.232803 -0.482343 1 
0.0696946 0.200955 0.0521613 0.336346 0.622322 0.706815 1 
0.0697865 0.2005 0.0523472 0.386214 0.486404 0.783741 1 
0.069942 0.200393 0.0526545 0.441231 0.425069 0.790337 1 
0.070235 0.200264 0.0524613 0.33504 0.442001 0.832095 1 
0.0702211 0.200529 0.0523654 0.156301 0.675283 0.720807 1 
0.0690931 0.19944 0.0513858 0.713698 -0.561354 0.418946 1 
0.0696391 0.199159 0.0519882 0.202989 -0.807376 0.554022 1 
0.0700259 0.198803 0.0515714 0.713698 -0.561354 0.418946 1 
0.0702946 0.20043 0.0518707 -0.171252 0.0218375 0.984985 1 
0.0647162 0.209338 0.0525478 0.942782 -0.00124872 0.333408 1 
0.0647023 0.209604 0.052452 0.91697 0.228883 0.32677 1 
0.0644089 0.208962 0.0528002 0.931701 -0.0349874 0.361536 1 
0.0646012 0.209191 0.0527827 0.931701 -0.0349874 0.361536 1 
0.0647967 0.209106 0.0521011 0.865026 0.17892 0.468741 1 
0.0647041 0.209833 0.0520425 0.753845 0.528182 0.390822 1 
0.064725 0.209434 0.0521863 0.759949 0.464505 0.454657 1 
0.0648117 0.209341 0.0519147 0.780923 0.433486 0.449721 1 
0.064833 0.209714 0.0519035 0.698712 0.579217 0.419891 1 
0.0650041 0.20957 0.0518972 0.790138 0.450815 0.415267 1 
0.0650407 0.209134 0.0517273 0.826718 0.34934 0.441021 1 
0.0651487 0.209414 0.0514445 0.672462 0.609366 0.420081 1 
0.0652643 0.20929 0.0510825 0.644125 0.634138 0.427752 1 
0.0645309 0.208976 0.0526133 0.915238 -0.00128726 0.402911 1 
0.0647232 0.209205 0.0525958 0.942782 -0.00124872 0.333408 1 
0.0642521 0.210659 0.0510614 0.538615 0.805595 0.246801 1 
0.0638148 0.210948 0.0500489 0.713698 -0.561354 0.418946 1 
0.0641483 0.210565 0.0503978 0.496636 0.835877 0.233801 1 
0.0644545 0.210441 0.0504278 0.548149 0.78826 0.279603 1 
0.0642277 0.2106 0.0517366 0.742811 0.641309 0.192239 1 
0.0645169 0.210289 0.0508314 0.573846 0.762464 0.298912 1 
0.0646389 0.210303 0.0506445 0.563762 0.762926 0.316413 1 
0.0648013 0.210064 0.0509998 0.601737 0.706672 0.372192 1 
0.0647995 0.209835 0.0514093 0.620512 0.6991 0.35528 1 
0.0651567 0.209782 0.0512103 0.645458 0.668451 0.369537 1 
0.0651654 0.209878 0.0508487 0.630531 0.717169 0.296815 1 
0.0653145 0.209632 0.0509808 0.544006 0.737941 0.399376 1 
0.0655988 0.209407 0.0511492 0.644125 0.634138 0.427752 1 
0.0655208 0.209596 0.0510591 0.57621 0.708292 0.407805 1 
0.0645915 0.21069 0.0500545 0.472296 0.819805 0.323815 1 
0.0647915 0.210515 0.0499576 0.579597 0.747503 0.32451 1 
0.0657671 0.210629 0.0484626 0.355852 0.838683 -0.412287 1 
0.0656024 0.210912 0.0486441 0.409307 0.618103 0.671131 1 
0.0659079 0.21106 0.0488013 0.0755353 0.348522 0.934252 1 
0.0646124 0.210291 0.0501982 0.583601 0.790832 0.184375 1 
0.0650961 0.210163 0.050397 0.624523 0.73836 0.254552 1 
0.0650337 0.210315 0.0499934 0.573296 0.761733 0.301819 1 
0.0654602 0.209977 0.050246 0.63192 0.709495 0.311919 1 
0.065433 0.210237 0.049927 0.587052 0.730157 0.34963 1 
0.0653654 0.209703 0.0507518 0.636904 0.701729 0.319263 1 
0.0655522 0.209522 0.0504318 0.668389 0.690722 0.27597 1 
0.0653734 0.21007 0.0505175 0.624523 0.73836 0.254552 1 
0.0655023 0.209952 0.0503785 0.665066 0.709089 0.234267 1 
0.0655891 0.209858 0.050107 0.630025 0.688937 0.358378 1 
0.0656752 0.210036 0.0499627 0.603668 0.699071 0.383255 1 
0.0652929 0.209534 0.0494609 0.736207 0.525391 0.426572 1 
0.0654992 0.209498 0.0495393 0.6878 0.547228 0.476941 1 
0.0658313 0.209658 0.0501428 0.594022 0.727474 0.343394 1 
0.0656647 0.21076 0.0490478 0.475559 0.64024 0.603271 1 
0.0660274 0.209301 0.0493339 0.642838 0.534854 0.548352 1 
0.066378 0.210153 0.0489319 0.324458 0.835441 0.443583 1 
0.0659804 0.21046 0.0485889 0.185796 0.726292 0.661801 1 
0.0666201 0.209953 0.0489677 0.345294 -0.407791 0.845268 1 
0.0665288 0.210136 0.0486545 0.379122 0.268233 0.885617 1 
0.0661061 0.209888 0.0476106 0.460571 -0.523754 0.716628 1 
0.067018 0.208602 0.0493385 0.713698 -0.561354 0.418946 1 
0.0668337 0.20874 0.0491217 0.713698 -0.561354 0.418946 1 
0.0674734 0.208233 0.0495005 0.713698 -0.561354 0.418946 1 
0.0661438 0.210721 0.0486619 0.238288 0.959733 -0.148765 1 
0.0662438 0.210633 0.0486134 0.311698 0.902596 0.296926 1 
0.0664571 0.210464 0.0487397 0.34986 0.52076 0.778721 1 
0.0667344 0.210372 0.0488602 0.406879 0.44226 0.799284 1 
0.0671753 0.21054 0.0490536 0.467703 0.520965 0.714038 1 
0.0668305 0.210102 0.0480997 0.278536 -0.261396 0.92417 1 
0.0671142 0.210149 0.0483954 0.41213 0.447686 0.793553 1 
0.067486 0.209558 0.0481649 0.383671 0.686655 0.617496 1 
0.0671996 0.210598 0.0483783 0.22351 0.931994 -0.285362 1 
0.0672153 0.210561 0.0480647 0.172896 0.946165 -0.273639 1 
0.0673916 0.210056 0.0485158 0.319278 -0.301458 0.898434 1 
0.0677839 0.210111 0.0484014 0.530123 0.647929 0.546953 1 
0.0674574 0.210361 0.0481005 0.251777 0.955152 -0.155862 1 
0.0676644 0.210053 0.0480515 0.530123 0.647929 0.546953 1 
0.0671592 0.210852 0.0478362 -0.269133 0.561875 -0.782218 1 
0.0674303 0.210621 0.0477815 0.519162 0.673735 0.525883 1 
0.0677989 0.210345 0.048215 0.530123 0.647929 0.546953 1 
0.067454 0.209904 0.0489195 0.521863 0.528575 0.669528 1 
0.0674125 0.209657 0.0486597 0.465453 0.555541 0.689004 1 
0.0676275 0.209717 0.0483763 0.340055 -0.499705 0.796654 1 
0.0678985 0.209486 0.0483216 0.573944 0.584103 0.573944 1 
0.06737 0.207863 0.050368 0.713698 -0.561354 0.418946 1 
0.0673542 0.2079 0.0506816 0.713698 -0.561354 0.418946 1 
0.0664403 0.209233 0.0478323 0.0119002 0.895156 0.445595 1 
0.067602 0.210206 0.0476478 0.584096 0.577324 0.570552 1 
0.0677383 0.210726 0.0474019 0.536691 0.536691 0.651095 1 
0.0675303 0.210533 0.047733 0.592578 0.595955 0.541931 1 
0.0681146 0.210046 0.0477561 0.584096 0.577324 0.570552 1 
0.0679644 0.209791 0.0479062 0.584096 0.577324 0.570552 1 
0.0682707 0.209667 0.0479362 0.638417 0.557562 0.530611 1 
0.0683487 0.209478 0.0480262 0.617045 0.573091 0.53928 1 
0.0690076 0.208344 0.0489583 0.713698 -0.561354 0.418946 1 
0.0782893 0.221575 0.0433951 0.713698 -0.561354 0.418946 1 
0.0785935 0.221498 0.0423034 0.713698 -0.561354 0.418946 1 
0.0786105 0.221686 0.0432386 0.713698 -0.561354 0.418946 1 
0.0792677 0.22137 0.0428942 0.713698 -0.561354 0.418946 1 
0.0791865 0.221106 0.0419649 0.713698 -0.561354 0.418946 1 
0.0803309 0.222376 0.0471963 -0.713698 0.561354 -0.418946 1 
0.080708 0.223239 0.0472407 -0.713698 0.561354 -0.418946 1 
0.0805567 0.221716 0.0461697 0.683585 0.719328 -0.123611 1 
0.0802459 0.22193 0.045555 0.530352 0.847185 0.0316834 1 
0.0804591 0.221761 0.0456813 0.562918 0.82552 0.0405077 1 
0.0802811 0.222037 0.0456398 0.535711 0.842234 0.0604609 1 
0.0806515 0.22199 0.0456638 0.596076 0.790286 -0.141923 1 
0.0809866 0.221835 0.0456032 0.651948 0.758047 0.0181484 1 
0.0809469 0.221817 0.0449338 0.647133 0.736712 0.196148 1 
0.081179 0.222065 0.0455857 0.636967 0.768654 -0.0586868 1 
0.0813104 0.221903 0.04491 0.615876 0.780502 0.107301 1 
0.0810563 0.221554 0.0443965 0.821748 0.524878 0.221887 1 
0.0812065 0.221809 0.0442464 0.837741 0.523403 0.155686 1 
0.0813354 0.22169 0.0441074 0.781739 0.591296 0.198123 1 
0.081763 0.221852 0.0440778 0.7229 0.674606 0.149409 1 
0.0814668 0.221529 0.0434317 0.71621 0.649807 0.254547 1 
0.0815309 0.221605 0.0434259 0.655403 0.749242 0.0953047 1 
0.0817379 0.221297 0.043377 0.710769 0.64688 0.276322 1 
0.0822397 0.219762 0.0476006 0.932007 -0.354987 -0.0731247 1 
0.0814915 0.220264 0.0459735 0.830736 0.539611 0.136741 1 
0.0815048 0.22027 0.0461966 0.835202 0.541947 -0.0934391 1 
0.0823993 0.21984 0.0469616 0.755286 -0.571699 -0.320473 1 
0.0821382 0.219624 0.0464003 0.57142 0.740729 0.353271 1 
0.0825884 0.219617 0.0461049 0.464955 0.729698 0.501357 1 
0.0805574 0.222212 0.0475458 -0.713698 0.561354 -0.418946 1 
0.0813418 0.22155 0.047472 0.485368 0.602931 -0.633161 1 
0.0807554 0.222084 0.0463274 0.638298 0.763912 -0.0949413 1 
0.081316 0.221266 0.0468985 0.802721 0.579329 -0.141481 1 
0.0818962 0.222408 0.0476852 0.50809 0.432452 -0.744869 1 
0.0809163 0.222388 0.0469372 0.780558 0.533729 -0.325366 1 
0.0809188 0.222345 0.0464004 0.711499 0.647831 -0.272184 1 
0.0809025 0.222654 0.0468413 0.758418 0.544047 -0.358909 1 
0.0818195 0.222054 0.0473406 0.517722 0.47111 -0.714156 1 
0.0819418 0.221025 0.0471814 0.842901 0.398775 -0.361243 1 
0.0826227 0.221808 0.0477924 0.806724 0.186868 -0.560604 1 
0.0827801 0.220886 0.047718 0.713698 -0.561354 0.418946 1 
0.0832223 0.220511 0.0476568 0.713698 -0.561354 0.418946 1 
0.0812762 0.221248 0.046229 0.722485 0.687737 -0.0709455 1 
0.081049 0.221683 0.0460069 0.714274 0.69374 -0.0924009 1 
0.0811895 0.221342 0.0465006 0.756712 0.609443 -0.23657 1 
0.081278 0.221477 0.0458195 0.713471 0.692791 0.104879 1 
0.0814096 0.22104 0.0466748 0.708896 0.654976 -0.261673 1 
0.0816177 0.221232 0.0463437 0.718782 0.662894 -0.20958 1 
0.0810093 0.221665 0.0453375 0.619249 0.783627 0.0495966 1 
0.0813648 0.221384 0.045548 0.712432 0.694805 0.0984185 1 
0.0812672 0.221428 0.0450596 0.667544 0.740261 0.0799889 1 
0.0811601 0.221648 0.0450601 0.64047 0.75692 0.129886 1 
0.08167 0.22076 0.0458601 0.774533 0.632187 0.0209333 1 
0.0817549 0.220437 0.0459981 0.755613 0.653542 0.0439475 1 
0.0816491 0.221158 0.0457163 0.734853 0.666287 0.126699 1 
0.0817341 0.220836 0.0458543 0.774533 0.632187 0.0209333 1 
0.0820756 0.22082 0.0459689 0.763275 0.642531 0.0675592 1 
0.0820334 0.220845 0.0458363 0.732388 0.677495 0.0678939 1 
0.0819466 0.220939 0.0461078 0.763997 0.645183 0.00690774 1 
0.081878 0.220952 0.045529 0.726297 0.675591 0.126766 1 
0.0819742 0.221451 0.0462719 0.750793 0.650095 -0.116987 1 
0.0819898 0.221414 0.0459582 0.751661 0.657881 0.04689 1 
0.0820546 0.221219 0.0458251 0.756964 0.652652 0.0324212 1 
0.0824254 0.220128 0.0458769 0.801968 0.583384 0.128492 1 
0.0824686 0.220603 0.0457272 0.747732 0.648436 0.142927 1 
0.0827631 0.220698 0.0467828 0.890998 0.27312 -0.362668 1 
0.0821088 0.222511 0.0479388 0.567118 0.349371 -0.745866 1 
0.0822513 0.22317 0.0478679 0.381276 0.441898 -0.812007 1 
0.0822722 0.222771 0.0480117 0.504863 0.387981 -0.771093 1 
0.0823799 0.222279 0.0478839 0.701919 0.050035 -0.710497 1 
0.0814309 0.220645 0.0451603 0.745657 0.657064 0.110741 1 
0.0817828 0.220954 0.0445038 0.648068 0.749843 0.133206 1 
0.0818679 0.220631 0.0446418 0.627021 0.74838 0.216268 1 
0.0819961 0.220785 0.0446301 0.631728 0.756551 0.168968 1 
0.0822093 0.220615 0.0447564 0.581545 0.801669 0.138321 1 
0.0824515 0.220415 0.0447921 0.56312 0.809391 0.166683 1 
0.0814849 0.220401 0.0442673 0.601999 0.766887 0.222444 1 
0.0821469 0.220768 0.0443527 0.574816 0.79248 0.203868 1 
0.082318 0.220624 0.0443463 0.551903 0.802346 0.227254 1 
0.0815884 0.221539 0.0449031 0.706003 0.706003 0.0558501 1 
0.0817682 0.221491 0.0445352 0.706003 0.706003 0.0558501 1 
0.0817909 0.221321 0.0442695 0.673534 0.713607 0.192658 1 
0.0820619 0.22109 0.0442147 0.622627 0.753052 0.212718 1 
0.0819511 0.221128 0.0435033 0.603414 0.752288 0.264489 1 
0.0824261 0.220904 0.0440636 0.58724 0.779371 0.218472 1 
0.0827017 0.220583 0.0445935 0.445192 0.8679 0.220348 1 
0.0827947 0.220628 0.0444972 0.48215 0.855332 0.189576 1 
0.0828682 0.220529 0.0440025 0.310106 0.897675 0.313073 1 
0.0827762 0.219936 0.0455026 0.618368 0.706473 0.344263 1 
0.0829975 0.220134 0.0453946 0.604187 0.727293 0.325581 1 
0.0830307 0.220289 0.0443577 0.368719 0.870545 0.32588 1 
0.083223 0.220518 0.0443402 0.3473 0.878109 0.329101 1 
0.0825574 0.220742 0.0433878 0.345609 0.85395 0.389004 1 
0.0659367 0.205582 0.0492588 -0.586934 -0.79602 -0.147854 1 
0.0654669 0.206492 0.0474699 -0.634754 -0.711888 -0.300504 1 
0.0652405 0.206655 0.0471205 -0.632645 -0.736255 -0.240185 1 
0.0654468 0.206619 0.0471988 -0.637021 -0.714041 -0.29043 1 
0.0656063 0.20565 0.0482458 -0.538898 -0.773761 -0.332991 1 
0.0659548 0.205501 0.0484083 -0.588591 -0.743398 -0.317678 1 
0.0653837 0.205995 0.0486084 -0.635026 -0.724152 -0.268971 1 
0.0653854 0.206224 0.0481989 -0.579321 -0.752636 -0.31293 1 
0.0655987 0.206055 0.0483252 -0.566518 -0.762312 -0.312949 1 
0.065323 0.206376 0.0477952 -0.634754 -0.711888 -0.300504 1 
0.0654589 0.206125 0.0477042 -0.591465 -0.748548 -0.29974 1 
0.0656722 0.205956 0.0478305 -0.560185 -0.76564 -0.316208 1 
0.0659286 0.206262 0.0478071 -0.555233 -0.769645 -0.315219 1 
0.0658697 0.205824 0.0482704 -0.563762 -0.762926 -0.316413 1 
0.0658986 0.205792 0.0481799 -0.563762 -0.762926 -0.316413 1 
0.0662962 0.205485 0.048523 -0.620811 -0.732525 -0.279285 1 
0.0662547 0.205239 0.048263 -0.608113 -0.727477 -0.317767 1 
0.0658733 0.206281 0.0474514 -0.563762 -0.762926 -0.316413 1 
0.0659889 0.206156 0.0470893 -0.540586 -0.782973 -0.307767 1 
0.0660513 0.206004 0.047493 -0.543804 -0.7748 -0.322432 1 
0.0659785 0.205832 0.0478604 -0.554674 -0.777179 -0.297203 1 
0.0660433 0.205637 0.0477273 -0.591465 -0.748548 -0.29974 1 
0.0662513 0.205829 0.0473961 -0.581735 -0.746104 -0.323903 1 
0.0666199 0.205553 0.0478297 -0.634511 -0.714829 -0.293963 1 
0.0659203 0.20617 0.0465105 -0.635986 -0.733346 -0.240261 1 
0.0679865 0.205497 0.0449715 -0.713698 0.561354 -0.418946 1 
0.0673569 0.206325 0.0454799 -0.713698 0.561354 -0.418946 1 
0.0681562 0.205897 0.0452197 -0.713698 0.561354 -0.418946 1 
0.0678047 0.20636 0.0457213 -0.713698 0.561354 -0.418946 1 
0.0663234 0.205226 0.048842 -0.605846 -0.784474 -0.132482 1 
0.0663812 0.205163 0.0486609 -0.570955 -0.799337 -0.187273 1 
0.0672342 0.204487 0.0491661 -0.643551 -0.765342 0.00968787 1 
0.0667517 0.205116 0.048685 -0.611808 -0.782819 -0.113516 1 
0.0670186 0.204699 0.0495765 -0.587654 -0.801613 -0.10991 1 
0.0673046 0.204702 0.0493354 -0.593683 -0.789072 -0.157814 1 
0.0666892 0.205268 0.0482813 -0.632735 -0.757157 -0.162356 1 
0.0667471 0.205206 0.0481003 -0.646683 -0.746638 -0.155991 1 
0.0668963 0.204961 0.0482325 -0.649364 -0.75041 -0.123335 1 
0.0669102 0.204695 0.0483283 -0.639052 -0.762455 -0.101367 1 
0.0669603 0.205037 0.0482266 -0.649364 -0.75041 -0.123335 1 
0.0669551 0.205399 0.0477691 -0.65609 -0.718724 -0.230179 1 
0.0669813 0.204638 0.0483703 -0.654127 -0.754322 -0.0558227 1 
0.067536 0.204453 0.0486112 -0.648918 -0.756345 -0.0827479 1 
0.0676862 0.204708 0.0484611 -0.648918 -0.756345 -0.0827479 1 
0.0678441 0.204558 0.0482316 -0.64443 -0.763402 -0.0439062 1 
0.0674053 0.204343 0.0491597 -0.62816 -0.776297 0.0527028 1 
0.0680632 0.203756 0.0486881 -0.562918 -0.82552 -0.0405077 1 
0.0678179 0.204271 0.0493164 -0.618199 -0.767053 -0.171638 1 
0.0677764 0.204024 0.0490565 -0.563587 -0.825202 0.0375724 1 
0.0681914 0.203909 0.0486764 -0.562918 -0.82552 -0.0405077 1 
0.0683054 0.203556 0.0487238 -0.823103 -0.484455 -0.296317 1 
0.0669415 0.204621 0.047701 -0.705693 -0.699775 -0.110958 1 
0.0670694 0.204002 0.0478443 -0.678458 -0.734414 -0.0181855 1 
0.0670439 0.20449 0.0471157 -0.903158 -0.411548 -0.1222 1 
0.0668356 0.205341 0.0474192 -0.742149 -0.629654 -0.229675 1 
0.067413 0.204986 0.0473944 -0.731555 -0.68177 -0.0041487 1 
0.0674565 0.204418 0.0472725 -0.652652 -0.756964 0.0324212 1 
0.0674168 0.2044 0.0466031 -0.713698 0.561354 -0.418946 1 
0.0683492 0.203759 0.048447 -0.71029 -0.701681 -0.0559623 1 
0.068344 0.204121 0.0479895 -0.734427 -0.678041 -0.0296026 1 
0.0671147 0.205477 0.0471301 -0.744573 -0.647521 -0.162259 1 
0.067377 0.204382 0.0459336 -0.713698 0.561354 -0.418946 1 
0.0678506 0.203933 0.0452452 -0.713698 0.561354 -0.418946 1 
0.0682119 0.204834 0.0456032 -0.713698 0.561354 -0.418946 1 
0.0818622 0.198161 0.0464042 0.287573 0.957331 -0.0286328 1 
0.0820546 0.198391 0.0463867 0.334188 0.942486 -0.0062582 1 
0.082649 0.198224 0.0472969 0.541348 0.83817 -0.0664317 1 
0.0828887 0.198066 0.0478695 -0.713698 0.561354 -0.418946 1 
0.0822904 0.198052 0.0462472 0.300017 0.953933 0.00122456 1 
0.0822678 0.198222 0.0465129 0.325224 0.945536 -0.0138126 1 
0.082949 0.197961 0.0471516 0.534379 0.844842 -0.0261008 1 
0.0820085 0.198234 0.045542 0.246949 0.960356 0.129354 1 
0.0818486 0.198431 0.04465 -0.713698 0.561354 -0.418946 1 
0.0824033 0.198246 0.0448909 0.46459 0.885501 0.00661809 1 
0.0825542 0.198229 0.0446135 0.379561 0.919441 -0.102769 1 
0.0829935 0.197125 0.0452441 0.667033 0.732987 -0.133407 1 
0.0825695 0.198188 0.0459581 0.522313 0.851022 0.0543206 1 
0.0827124 0.197804 0.045915 0.527307 0.841077 0.120569 1 
0.082733 0.198449 0.0460311 0.336721 0.939413 0.0641998 1 
0.0830619 0.198155 0.0457953 0.375959 0.894931 0.240319 1 
0.0835232 0.197153 0.0462875 0.325963 0.799801 0.50405 1 
0.0832734 0.197757 0.0463311 0.392885 0.888068 0.238696 1 
0.0832601 0.197752 0.046108 0.41698 0.877302 0.237634 1 
0.0838023 0.197289 0.0459984 0.16962 0.689178 0.704459 1 
0.0829354 0.198231 0.0453975 0.327139 0.942004 0.0748874 1 
0.0832932 0.197906 0.0450712 0.239081 0.902055 0.359355 1 
0.0832702 0.197304 0.0454919 0.480003 0.845719 0.233144 1 
0.0838462 0.197492 0.0457216 0.192352 0.737091 0.64784 1 
0.0834145 0.197144 0.0466976 0.587903 0.800079 0.119349 1 
0.0839225 0.197074 0.0462211 0.195583 0.743832 0.63911 1 
0.0841835 0.197291 0.0467825 0.332039 0.857124 0.393814 1 
0.0847944 0.196815 0.0472519 -0.800162 0.37683 0.466627 1 
0.0845546 0.196972 0.0466793 -0.323094 0.824283 0.46494 1 
0.0845686 0.196706 0.0467752 -0.0737242 0.950655 0.301364 1 
0.0841438 0.197273 0.0461131 0.132746 0.774104 0.618985 1 
0.0843365 0.196459 0.0461233 0.406306 0.882563 0.23664 1 
0.0844654 0.19634 0.0459843 0.310593 0.926105 0.214153 1 
0.0845288 0.196688 0.0461057 -0.267106 0.876773 0.399905 1 
0.0849571 0.196579 0.0459488 -0.32588 0.870545 0.368719 1 
0.0849794 0.196405 0.0473414 -0.118174 0.988681 -0.0924329 1 
0.0851926 0.196236 0.0474676 -0.713698 0.561354 -0.418946 1 
0.0840218 0.19649 0.0447966 -0.133378 0.457502 0.879149 1 
0.0849289 0.197106 0.0474153 -0.707702 0.494559 0.50455 1 
0.0853568 0.198041 0.0472307 -0.713698 0.561354 -0.418946 1 
0.0851132 0.196969 0.0476322 -0.399371 0.557148 0.728072 1 
0.0843152 0.197901 0.0459518 0.154496 0.79948 0.580485 1 
0.0830863 0.198214 0.0451201 0.254733 0.960745 0.10991 1 
0.0836762 0.198136 0.0454457 0.206437 0.845337 0.492737 1 
0.0840675 0.197691 0.0456135 0.220162 0.839651 0.496503 1 
0.084224 0.198084 0.0456386 0.21637 0.872941 0.437217 1 
0.0842598 0.19792 0.045596 0.229001 0.822253 0.521016 1 
0.0847902 0.197676 0.0465121 -0.252024 0.887302 0.386237 1 
0.084848 0.197614 0.0463311 -0.358107 0.794901 0.489787 1 
0.0841525 0.197369 0.0457515 0.253656 0.748364 0.612871 1 
0.0844525 0.197106 0.0456062 -0.0379045 0.596645 0.80161 1 
0.0844316 0.197505 0.0454624 0.160791 0.572538 0.803957 1 
0.0848581 0.197167 0.045715 -0.492837 0.573574 0.654312 1 
0.0845787 0.198074 0.0459763 0.146772 0.867554 0.475193 1 
0.0854669 0.197506 0.0465661 -0.559893 0.742716 0.367277 1 
0.0847295 0.198057 0.0456989 0.109526 0.910868 0.397898 1 
0.0856958 0.1973 0.0463787 -0.811984 0.550935 0.192751 1 
0.0861014 0.19736 0.0464875 -0.713698 0.561354 -0.418946 1 
0.0847316 0.197242 0.0453171 -0.527222 0.0720866 0.846664 1 
0.0847107 0.197641 0.0451733 -0.519181 -0.324288 0.790752 1 
0.0849239 0.197472 0.0452996 -0.4988 -0.0202764 0.86648 1 
0.0852794 0.19719 0.0455101 -0.47731 0.236368 0.846348 1 
0.0754331 0.214473 0.0422743 0.738257 0.653015 -0.168962 1 
0.0755805 0.213999 0.0428159 0.677746 0.684125 -0.269504 1 
0.0759815 0.214149 0.04234 0.6528 0.740648 -0.159035 1 
0.0757816 0.215092 0.0439402 -0.713698 0.561354 -0.418946 1 
0.0757917 0.214644 0.043324 -0.713698 0.561354 -0.418946 1 
0.0761704 0.213921 0.0431415 -0.713698 0.561354 -0.418946 1 
0.0766422 0.213243 0.0428626 0.613549 0.788445 -0.0437242 1 
0.0774743 0.212966 0.0432239 0.626415 0.579138 -0.521731 1 
0.0774182 0.213256 0.0429955 0.52128 0.840251 -0.149148 1 
0.0784426 0.213208 0.0433393 0.0685338 0.917816 -0.391046 1 
0.0784535 0.213257 0.0440992 -0.713698 0.561354 -0.418946 1 
0.0784824 0.213226 0.0440087 -0.713698 0.561354 -0.418946 1 
0.0809051 0.210677 0.04577 0.713698 -0.561354 0.418946 1 
0.0810176 0.209051 0.0462547 0.11331 0.0187016 -0.993384 1 
0.0811326 0.209199 0.0460199 0.11331 0.0187016 -0.993384 1 
0.081304 0.209827 0.0458585 0.963976 0.265966 -0.0036104 1 
0.0811601 0.209711 0.0461839 0.87352 0.0595267 -0.483135 1 
0.0811828 0.209541 0.0459181 0.947409 0.304383 0.0988257 1 
0.0812967 0.209188 0.0459656 0.11331 0.0187016 -0.993384 1 
0.0816246 0.210209 0.0458294 0.830273 0.0262482 -0.556739 1 
0.0755267 0.213478 0.0405473 0.647856 0.62787 -0.431349 1 
0.075925 0.2129 0.0407631 0.718006 0.0266969 0.695525 1 
0.0761383 0.212731 0.0408894 0.471103 0.63205 -0.615284 1 
0.0753854 0.214088 0.0418392 0.559241 0.8061 -0.193525 1 
0.0755986 0.213918 0.0419655 0.649324 0.745743 -0.149149 1 
0.0754721 0.213994 0.0415677 0.658081 0.714622 -0.23716 1 
0.0757721 0.213732 0.0414223 0.716682 0.657089 -0.233667 1 
0.0756432 0.21385 0.0415613 0.716682 0.657089 -0.233667 1 
0.0755777 0.214317 0.0418217 0.580458 0.809167 -0.0911942 1 
0.0757512 0.21413 0.0412786 0.629477 0.70715 -0.32202 1 
0.0758408 0.213718 0.0420013 0.679875 0.721714 -0.129998 1 
0.0757097 0.213884 0.0410187 0.76397 0.597685 -0.243153 1 
0.0759229 0.213715 0.041145 0.677245 0.657756 -0.32969 1 
0.0760035 0.213483 0.0406982 0.813028 0.563323 -0.147148 1 
0.0759864 0.214063 0.0412664 0.677245 0.657756 -0.32969 1 
0.076001 0.213525 0.041235 0.516967 0.74673 -0.418497 1 
0.0762167 0.213313 0.0408245 0.521395 0.729953 -0.441945 1 
0.0762438 0.213054 0.0411434 0.533982 0.729059 -0.428178 1 
0.0764066 0.213586 0.0413438 0.530485 0.740708 -0.412234 1 
0.0768711 0.213037 0.0426753 0.589498 0.807627 0.0151861 1 
0.0766596 0.213435 0.0421395 0.570445 0.815954 -0.0938708 1 
0.0773687 0.212643 0.0429699 0.783681 0.608872 -0.122959 1 
0.0774555 0.212549 0.0426984 0.768473 0.638749 -0.0380711 1 
0.0774548 0.212821 0.0428256 0.778696 0.624386 -0.0614384 1 
0.0774917 0.213157 0.0425007 0.550167 0.831648 -0.0753459 1 
0.0773993 0.21284 0.0424699 0.727186 0.684157 -0.0559374 1 
0.0772105 0.213068 0.0416683 0.51614 0.84969 -0.107829 1 
0.0773262 0.212943 0.0413062 0.529016 0.827435 -0.188396 1 
0.0773446 0.212588 0.0419868 0.766251 0.629367 0.129444 1 
0.0773596 0.212822 0.0418004 0.678214 0.73438 0.0266792 1 
0.0775596 0.212647 0.0417036 0.758448 0.631283 0.161984 1 
0.0779948 0.212405 0.0415946 0.77523 0.603976 0.185016 1 
0.0779941 0.211629 0.0434079 0.69779 0.691628 -0.186385 1 
0.0775356 0.211545 0.0424065 0.812652 0.562146 0.153584 1 
0.0778857 0.211625 0.0421595 0.732538 0.641947 0.226478 1 
0.0775178 0.212397 0.043102 0.749883 0.597041 -0.284987 1 
0.0778837 0.21244 0.0425414 0.740691 0.664118 -0.101606 1 
0.0779203 0.212004 0.0423715 0.800653 0.560918 0.210536 1 
0.0781837 0.212177 0.0423961 0.761989 0.646919 -0.0294692 1 
0.0783761 0.212407 0.0423786 0.761989 0.646919 -0.0294692 1 
0.0781993 0.21214 0.0420824 0.71351 0.696072 0.0799247 1 
0.0769533 0.212265 0.0403156 -0.713698 0.561354 -0.418946 1 
0.0773954 0.21189 0.0402545 0.654768 0.693379 -0.300839 1 
0.0777147 0.212816 0.0404799 0.589819 0.689507 -0.42035 1 
0.0776101 0.211946 0.0416296 0.72667 0.68333 0.0707889 1 
0.0776551 0.21265 0.0410705 0.589236 0.768364 -0.249836 1 
0.0779673 0.211893 0.0414305 0.713999 0.700135 0.00415922 1 
0.0781648 0.211761 0.0418705 0.668182 0.720408 0.185862 1 
0.0780962 0.211774 0.0412916 0.70709 0.70709 0.00694587 1 
0.0781439 0.212159 0.0417266 0.7379 0.638058 0.219966 1 
0.0784596 0.21186 0.0412677 0.772224 0.634377 0.035165 1 
0.0782885 0.212004 0.0412741 0.70709 0.70709 0.00694587 1 
0.0783816 0.212049 0.0411777 0.699895 0.708662 -0.0891307 1 
0.0785885 0.211741 0.0411288 0.743814 0.667598 -0.0324625 1 
0.0785868 0.211513 0.0415383 0.514082 0.852031 0.0988069 1 
0.0791705 0.211296 0.0416887 0.37731 0.882394 0.281103 1 
0.0783143 0.211519 0.0403443 0.625741 0.678574 -0.38469 1 
0.0778872 0.212897 0.0417223 0.722064 0.687196 0.0799065 1 
0.0789426 0.212771 0.0430971 -0.713698 0.561354 -0.418946 1 
0.0781098 0.212552 0.0413598 0.746508 0.658511 0.0953302 1 
0.0783363 0.212389 0.0417091 0.738562 0.646049 0.192735 1 
0.0784809 0.212233 0.0412565 0.723233 0.688997 0.0470744 1 
0.0787231 0.212033 0.0412923 0.760442 0.649226 0.0152923 1 
0.0792318 0.211412 0.0438779 0.713698 -0.561354 0.418946 1 
0.0796081 0.210732 0.0442322 0.713698 -0.561354 0.418946 1 
0.079945 0.210806 0.043762 0.68654 0.476068 0.549566 1 
0.0789998 0.211165 0.0432261 0.352909 0.926901 0.127706 1 
0.0792928 0.211035 0.0430328 0.325252 0.937968 0.120114 1 
0.0789311 0.211178 0.0426472 0.473257 0.879298 0.0534986 1 
0.0796008 0.21114 0.0426532 0.270049 0.961971 0.0410673 1 
0.0801688 0.210961 0.0431172 0.571302 0.820647 -0.0123303 1 
0.0801827 0.210695 0.0432131 0.57551 0.723076 0.382033 1 
0.0806736 0.20939 0.0434875 0.343615 0.821825 0.454458 1 
0.0802956 0.209842 0.0435428 0.691209 0.533888 0.487026 1 
0.0806319 0.210187 0.0431999 0.504878 0.403576 0.763036 1 
0.0793524 0.211201 0.0424423 0.34604 0.927829 0.139243 1 
0.0809109 0.210323 0.0429108 0.504878 0.403576 0.763036 1 
0.0809959 0.210001 0.0430488 0.0564936 0.480885 0.874962 1 
0.0808841 0.209539 0.0426196 0.258332 0.676736 0.689415 1 
0.0814248 0.20962 0.0427645 0.0626343 0.867137 0.494115 1 
0.0817086 0.209666 0.0430602 -0.120231 0.847414 0.51714 1 
0.0807535 0.211245 0.0429853 0.697895 0.64284 -0.315753 1 
0.0801504 0.212085 0.04394 0.713698 -0.561354 0.418946 1 
0.0797025 0.211281 0.0421953 0.199819 0.968154 0.150831 1 
0.0806134 0.210543 0.0425193 0.646541 0.716437 0.262111 1 
0.081275 0.210137 0.0427597 0.0564936 0.480885 0.874962 1 
0.0818078 0.209851 0.0431391 -0.120231 0.847414 0.51714 1 
0.0773766 0.211474 0.0397289 -0.713698 0.561354 -0.418946 1 
0.0779191 0.211783 0.0394644 -0.713698 0.561354 -0.418946 1 
0.0789143 0.210994 0.0400537 -0.713698 0.561354 -0.418946 1 
0.081698 0.209342 0.0438313 -0.713698 0.561354 -0.418946 1 
0.0816357 0.209494 0.0434276 0.0703047 0.932532 0.354177 1 
0.0813716 0.210361 0.0450337 0.713698 -0.561354 0.418946 1 
0.082118 0.209909 0.043881 -0.713698 0.561354 -0.418946 1 
0.0818904 0.209571 0.0438138 -0.713698 0.561354 -0.418946 1 
0.0826911 0.214811 0.0459127 0.767314 0.640135 0.0381538 1 
0.0819102 0.215931 0.0451674 0.844033 0.36486 0.393047 1 
0.0823098 0.214809 0.0451287 0.839908 0.510532 0.184151 1 
0.0821694 0.215151 0.044635 0.899227 0.386216 0.205496 1 
0.0824461 0.21533 0.0448827 0.854009 0.435468 0.28467 1 
0.0827235 0.215237 0.0450032 0.859633 0.439706 0.260172 1 
0.0825537 0.214838 0.0447549 0.88078 0.44403 0.164509 1 
0.0828039 0.215005 0.0445564 0.860973 0.431249 0.269721 1 
0.0828907 0.214912 0.0442848 0.826719 0.472187 0.305902 1 
0.0825074 0.214677 0.0455686 0.788306 0.606952 0.100915 1 
0.0827363 0.214471 0.0453812 0.808056 0.583356 0.082102 1 
0.0826147 0.215229 0.0454131 0.816095 0.542544 0.199085 1 
0.0830182 0.214289 0.0460864 0.693485 0.719117 -0.0441438 1 
0.0826966 0.214453 0.0447119 0.807497 0.550079 0.212983 1 
0.0828959 0.21455 0.0447423 0.836064 0.523099 0.165424 1 
0.0828249 0.214606 0.0447002 0.843851 0.511649 0.161652 1 
0.0828335 0.214702 0.0443386 0.820837 0.471075 0.322978 1 
0.0814443 0.217024 0.0440905 0.713698 -0.561354 0.418946 1 
0.0818147 0.216976 0.0441146 0.189487 0.321425 0.927783 1 
0.0831607 0.214948 0.0460157 0.764307 0.639106 0.0858936 1 
0.0818705 0.215914 0.044498 0.878893 0.420858 0.224556 1 
0.0818917 0.216287 0.0444869 0.789644 0.463452 0.402089 1 
0.0818565 0.216179 0.0444022 0.891688 0.433756 0.129416 1 
0.082283 0.215841 0.0446547 0.873982 0.375432 0.308554 1 
0.0823339 0.215912 0.0444258 0.906038 0.380507 0.185228 1 
0.0819973 0.21661 0.0447409 0.660375 0.529309 0.532669 1 
0.0821067 0.216346 0.0442035 0.937254 0.271567 0.218646 1 
0.082299 0.216576 0.0441861 0.920307 0.283725 0.269323 1 
0.0824656 0.215475 0.045281 0.840381 0.465847 0.277032 1 
0.0822416 0.215595 0.0443949 0.906933 0.384197 0.172817 1 
0.0823698 0.215748 0.0443832 0.889588 0.413388 0.194278 1 
0.082413 0.216223 0.0442335 0.888895 0.3949 0.232207 1 
0.082713 0.21596 0.0440882 0.904041 0.36074 0.229296 1 
0.0824416 0.21542 0.044298 0.906514 0.376153 0.191679 1 
0.082705 0.215593 0.0443225 0.894842 0.391036 0.215289 1 
0.0827259 0.215194 0.0444664 0.870677 0.405708 0.27807 1 
0.0826565 0.215479 0.0440147 0.894842 0.391036 0.215289 1 
0.0827395 0.215972 0.0445345 0.914355 0.320242 0.247789 1 
0.0825758 0.216755 0.0444338 0.389504 0.255192 0.884965 1 
0.0826545 0.216294 0.0443965 0.868534 0.378356 0.320148 1 
0.0828123 0.216145 0.0441671 0.914122 0.344055 0.214495 1 
0.083205 0.216971 0.0438977 0.678901 0.675691 -0.287289 1 
0.0852026 0.214217 0.0451519 -0.713698 0.561354 -0.418946 1 
0.0857717 0.214538 0.0453337 -0.713698 0.561354 -0.418946 1 
0.0858117 0.213512 0.0460309 -0.713698 0.561354 -0.418946 1 
0.0865253 0.213677 0.04576 -0.713698 0.561354 -0.418946 1 
0.0827435 0.214342 0.0437709 0.760886 0.608398 0.225621 1 
0.0828283 0.215064 0.0438811 0.825365 0.519107 0.222037 1 
0.0828353 0.214931 0.0439291 0.841648 0.49589 0.213824 1 
0.0832401 0.214495 0.0426618 0.697692 0.697692 0.162643 1 
0.0829983 0.21442 0.044157 0.715958 0.601796 0.353902 1 
0.0832837 0.214695 0.0440432 0.642514 0.74884 0.162527 1 
0.083036 0.214484 0.0437049 0.720615 0.665064 0.19597 1 
0.083685 0.213801 0.0435949 0.50954 0.801613 -0.312708 1 
0.0839914 0.213678 0.0436248 0.23133 0.575996 -0.784038 1 
0.0842046 0.213509 0.0437511 0.355643 0.683424 -0.637534 1 
0.0833199 0.214534 0.0423423 0.622874 0.765332 0.162159 1 
0.084415 0.213658 0.0428831 -0.713698 0.561354 -0.418946 1 
0.0822251 0.216183 0.0416464 0.730137 0.445367 0.518215 1 
0.0824279 0.215689 0.0425438 0.809795 0.550538 0.20283 1 
0.0821819 0.215708 0.041796 0.818642 0.467117 0.334107 1 
0.0823084 0.215632 0.0421939 0.797266 0.554822 0.237781 1 
0.0823352 0.216416 0.0424852 0.998888 -0.04451 0.0155268 1 
0.0822164 0.216087 0.042008 0.956675 0.230829 0.177458 1 
0.082752 0.216529 0.0416956 0.394317 0.691292 0.605499 1 
0.0823032 0.215994 0.0417365 0.694085 0.621888 0.362631 1 
0.0824955 0.216223 0.0417189 0.676445 0.62352 0.391974 1 
0.0824962 0.215951 0.0415917 0.768629 0.435719 0.468358 1 
0.0828516 0.21567 0.0418021 0.776717 0.586818 0.228812 1 
0.0827112 0.216011 0.0413084 0.737039 0.512794 0.440245 1 
0.0822823 0.216392 0.0415927 0.534934 0.605808 0.588933 1 
0.0824753 0.21635 0.0414479 0.596799 0.532555 0.60018 1 
0.0825823 0.21613 0.0414473 0.768629 0.435719 0.468358 1 
0.0828388 0.216436 0.041424 0.614131 0.482892 0.624226 1 
0.0821332 0.21559 0.0431466 0.831185 0.555502 -0.0234331 1 
0.0825597 0.215252 0.0433991 0.898144 0.439122 0.0225531 1 
0.0824168 0.215636 0.0434422 0.869727 0.491704 0.0424591 1 
0.0825614 0.215481 0.0429896 0.837602 0.546144 0.0122576 1 
0.0826168 0.215461 0.0433453 0.893198 0.448608 0.0307999 1 
0.0825959 0.21586 0.0432015 0.896771 0.441013 -0.0361925 1 
0.0825179 0.216049 0.0431115 0.986317 0.151651 -0.0646573 1 
0.0828994 0.215007 0.0439232 0.841648 0.49589 0.213824 1 
0.0831698 0.215048 0.0439958 0.788007 0.578283 0.211266 1 
0.0829942 0.215281 0.0434173 0.828877 0.55939 -0.00680523 1 
0.0832854 0.214923 0.0436336 0.73572 0.667625 0.113985 1 
0.0832151 0.214708 0.0434643 0.730751 0.667469 0.143137 1 
0.0827349 0.215294 0.0424465 0.734388 0.647807 0.202536 1 
0.0825858 0.21554 0.0423143 0.780287 0.573878 0.248628 1 
0.0840315 0.214467 0.0441392 0.240148 0.543819 0.804108 1 
0.0845151 0.214339 0.044338 -0.487636 -0.435096 0.756903 1 
0.0848075 0.214481 0.0442721 -0.769528 0.175239 0.614099 1 
0.0835074 0.21485 0.0433984 0.661775 0.745764 0.0767485 1 
0.0841677 0.214988 0.0438933 0.121588 0.824748 0.552274 1 
0.0845231 0.214706 0.0441037 -0.471198 -0.13401 0.871788 1 
0.0829241 0.21507 0.0415897 0.650725 0.634082 0.417729 1 
0.0831951 0.214839 0.0415349 0.584653 0.700589 0.409091 1 
0.0834516 0.215145 0.0415116 0.594085 0.664371 0.453513 1 
0.0835122 0.214764 0.0423248 0.672924 0.713145 0.196463 1 
0.0836614 0.214518 0.0424569 0.673476 0.698711 0.241316 1 
0.0832223 0.214579 0.0418539 0.593928 0.709094 0.380048 1 
0.0834147 0.214808 0.0418364 0.593928 0.709094 0.380048 1 
0.0837353 0.215191 0.0418072 0.624503 0.683822 0.377338 1 
0.0838625 0.214844 0.0420778 0.636413 0.707304 0.307734 1 
0.0832328 0.214903 0.0410828 0.759955 0.625935 0.17514 1 
0.0834534 0.215373 0.0411021 0.782416 0.620536 0.0525397 1 
0.0832987 0.215209 0.0406674 0.862069 0.506381 -0.0203638 1 
0.0836855 0.215621 0.0417539 0.701902 0.592901 0.394717 1 
0.0833942 0.215979 0.0415376 0.687521 0.58431 0.431157 1 
0.0841914 0.21455 0.0418419 0.241828 0.787891 0.566345 1 
0.0844624 0.214319 0.0417872 0.293983 0.773891 0.560952 1 
0.084797 0.213388 0.0435399 0.254641 0.735455 -0.627904 1 
0.0848416 0.21332 0.0431357 -0.713698 0.561354 -0.418946 1 
0.084834 0.214493 0.0447184 -0.713698 0.561354 -0.418946 1 
0.0851629 0.214199 0.0444826 -0.721662 0.0528742 0.690223 1 
0.0850409 0.213417 0.0431661 -0.713698 0.561354 -0.418946 1 
0.085097 0.213126 0.0433946 -0.713698 0.561354 -0.418946 1 
0.0856323 0.21538 0.0445578 -0.713698 0.561354 -0.418946 1 
0.0871588 0.216174 0.0409056 -0.713698 0.561354 -0.418946 1 
0.0875187 0.215034 0.0401974 -0.700495 -0.0499335 -0.711908 1 
0.0878229 0.215726 0.0406092 -0.623436 0.0152735 -0.781725 1 
0.0874957 0.216248 0.0404355 -0.622627 0.212718 -0.753052 1 
0.0877379 0.216048 0.0404712 -0.6116 0.116425 -0.782554 1 
0.0878599 0.216062 0.0402844 -0.666331 0.0951902 -0.739555 1 
0.0880748 0.216122 0.0400011 -0.651449 0.0889002 -0.753466 1 
0.0879535 0.215836 0.0400607 -0.70784 -0.044151 -0.704992 1 
0.0878752 0.215253 0.0401257 -0.650101 0.0497889 -0.758215 1 
0.0880832 0.215446 0.0397945 -0.769784 -0.0645071 -0.635036 1 
0.0881888 0.215768 0.0400486 -0.684918 -0.0411234 -0.727459 1 
0.0883177 0.21565 0.0399096 -0.742234 -0.0984746 -0.662866 1 
0.0884044 0.215557 0.039638 -0.803485 -0.0292429 -0.594607 1 
0.0881679 0.216167 0.0399047 -0.708464 -0.00974312 -0.70568 1 
0.0885094 0.216151 0.0400193 -0.752874 -0.243623 -0.611415 1 
0.0886484 0.215585 0.0392642 -0.90085 -0.00130369 -0.434129 1 
0.0888362 0.215904 0.0386621 -0.971663 -0.0501109 -0.230999 1 
0.0890494 0.215735 0.0387883 -0.960362 -0.170408 -0.220606 1 
0.0886783 0.216054 0.0388915 -0.958561 -0.121618 -0.257622 1 
0.0891198 0.215951 0.0389577 -0.962127 -0.0670075 -0.264237 1 
0.0887515 0.215183 0.0385518 -0.970554 -0.133913 -0.200232 1 
0.0886267 0.215487 0.0377444 -0.929939 -0.281671 0.236377 1 
0.0886476 0.215088 0.0378882 -0.954069 -0.262136 0.14504 1 
0.0889665 0.215242 0.0382685 -0.979152 -0.191967 -0.0664037 1 
0.08884 0.215318 0.0378707 -0.953174 -0.276302 0.122948 1 
0.0888728 0.215469 0.0384921 -0.976382 -0.161272 -0.143769 1 
0.0889243 0.215268 0.0381359 -0.975175 -0.220278 -0.0226231 1 
0.088925 0.214996 0.0380086 -0.958068 -0.266491 0.105297 1 
0.0887406 0.215134 0.0377919 -0.939319 -0.298437 0.16916 1 
0.0888689 0.215287 0.0377802 -0.933103 -0.282036 0.223103 1 
0.0886943 0.214205 0.0371022 -0.959464 -0.242819 0.143066 1 
0.0892229 0.215548 0.0382452 -0.978038 -0.1917 -0.0818084 1 
0.0879828 0.214761 0.0399979 -0.731408 -0.0529591 -0.67988 1 
0.0885017 0.21474 0.0402814 -0.63044 0.15572 -0.760458 1 
0.0881752 0.214991 0.0399804 -0.657276 0.107823 -0.745897 1 
0.0882901 0.215138 0.0397456 -0.81021 -0.00136629 -0.586138 1 
0.0885675 0.215045 0.039866 -0.781337 0.0585646 -0.621356 1 
0.088541 0.215033 0.0394198 -0.85507 0.0956422 -0.509616 1 
0.0889769 0.214519 0.0391835 -0.898839 0.18961 -0.395142 1 
0.0885114 0.215336 0.0396375 -0.828889 0.0040832 -0.559398 1 
0.0886334 0.21535 0.0394507 -0.855873 0.0513246 -0.514633 1 
0.0888466 0.215181 0.0395769 -0.881789 0.0228164 -0.471093 1 
0.0887271 0.215124 0.0392271 -0.918456 -0.0301348 -0.394373 1 
0.0889068 0.215076 0.0388591 -0.96032 -0.0912754 -0.263542 1 
0.0888483 0.21541 0.0391674 -0.934272 -0.0981322 -0.342791 1 
0.0887906 0.215472 0.0393485 -0.886001 0.00929836 -0.46359 1 
0.0892603 0.215609 0.0394514 -0.909065 -0.0495367 -0.413698 1 
0.0891735 0.215703 0.039723 -0.851778 -0.089586 -0.516186 1 
0.088773 0.213744 0.037065 -0.799943 0.0236505 0.59961 1 
0.0889434 0.21464 0.0386892 -0.970051 -0.167869 -0.175558 1 
0.0889661 0.21447 0.0384235 -0.967088 -0.253603 -0.020628 1 
0.0890239 0.214408 0.0382425 -0.93551 -0.326404 0.135205 1 
0.0887981 0.2143 0.0377658 -0.96167 -0.234203 0.142615 1 
0.0888207 0.21413 0.0375001 -0.863346 -0.185108 0.469435 1 
0.0889974 0.214396 0.0377962 -0.96167 -0.234203 0.142615 1 
0.0891748 0.214391 0.0379651 -0.96167 -0.234203 0.142615 1 
0.0893239 0.214146 0.0380972 -0.874605 -0.378742 0.302689 1 
0.0891974 0.214221 0.0376994 -0.847508 -0.351177 0.398001 1 
0.0895957 0.213643 0.0379152 -0.796835 -0.220401 0.562563 1 
0.0888936 0.21507 0.038636 -0.974734 -0.147534 -0.16771 1 
0.0889452 0.214869 0.0382797 -0.956761 -0.284098 0.0624251 1 
0.0894149 0.215006 0.0383826 -0.964985 -0.26208 -0.0108697 1 
0.089396 0.21459 0.037857 -0.96167 -0.234203 0.142615 1 
0.0894375 0.214836 0.0381169 -0.937868 -0.304359 0.16664 1 
0.0894937 0.214545 0.0383454 -0.965726 -0.258742 0.0206507 1 
0.0894954 0.214774 0.0379359 -0.962652 -0.248717 0.106961 1 
0.0889786 0.21398 0.0372706 -0.850288 -0.12936 0.510173 1 
0.0891709 0.214209 0.0372531 -0.766917 -0.36157 0.530194 1 
0.089164 0.214342 0.0372052 -0.90246 -0.26058 0.343023 1 
0.0880569 0.212854 0.0363693 -0.713698 0.561354 -0.418946 1 
0.0888177 0.209281 0.0338645 0.326043 0.682906 -0.653708 1 
0.0895851 0.210734 0.0373656 -0.852432 -0.358674 0.380411 1 
0.0898834 0.210243 0.0376298 0.713698 -0.561354 0.418946 1 
0.088581 0.212471 0.0371102 -0.713698 0.561354 -0.418946 1 
0.0886747 0.212245 0.0368866 -0.713698 0.561354 -0.418946 1 
0.0899907 0.210795 0.0374744 0.713698 -0.561354 0.418946 1 
0.0886346 0.211455 0.0363721 -0.713698 0.561354 -0.418946 1 
0.0888478 0.211286 0.0364984 -0.863483 -0.4325 0.2595 1 
0.0887394 0.211282 0.0352501 -0.713698 0.561354 -0.418946 1 
0.088469 0.211241 0.0351776 -0.713698 0.561354 -0.418946 1 
0.0888679 0.210391 0.0352661 0.749684 0.462992 -0.472877 1 
0.0894816 0.209596 0.0367298 0.713698 -0.561354 0.418946 1 
0.089676 0.209011 0.0363304 0.713698 -0.561354 0.418946 1 
0.0898318 0.209676 0.0364827 -0.873083 -0.327597 0.361118 1 
0.0893096 0.211056 0.0368357 -0.834631 -0.457097 0.307332 1 
0.0893304 0.210657 0.0369795 -0.777696 -0.272904 0.566314 1 
0.0899147 0.210169 0.0370025 -0.52799 -0.320622 0.786402 1 
0.0896739 0.209826 0.0367122 0.645066 -0.269175 0.715147 1 
0.0889843 0.209995 0.0347768 0.888003 0.453006 -0.0789644 1 
0.0890711 0.209901 0.0345052 0.336584 0.720323 -0.606502 1 
0.0885303 0.209821 0.0343602 0.550231 0.661287 -0.509847 1 
0.0888365 0.209697 0.0343901 0.336584 0.720323 -0.606502 1 
0.0887748 0.209578 0.0338592 0.326043 0.682906 -0.653708 1 
0.0890516 0.209757 0.0341069 0.336584 0.720323 -0.606502 1 
0.0894244 0.210435 0.0350975 -0.403882 0.323415 -0.855735 1 
0.0891766 0.210224 0.0347593 0.888003 0.453006 -0.0789644 1 
0.0895202 0.209393 0.0344921 0.336584 0.720323 -0.606502 1 
0.0896 0.209433 0.0341725 0.340865 0.699671 -0.62791 1 
0.0900125 0.20936 0.0343293 0.377469 0.631313 -0.677467 1 
0.0891812 0.210134 0.035344 0.75718 0.518415 -0.397397 1 
0.0899899 0.20953 0.034595 0.380081 0.68612 -0.620305 1 
0.0890004 0.211498 0.0358115 -0.828927 -0.468524 0.305559 1 
0.089191 0.211499 0.0362035 -0.713698 0.561354 -0.418946 1 
0.0893175 0.211423 0.0366013 -0.83186 -0.499731 0.241408 1 
0.089976 0.208748 0.0361851 0.713698 -0.561354 0.418946 1 
0.0900878 0.20921 0.0366144 0.713698 -0.561354 0.418946 1 
0.0903203 0.21023 0.0371113 0.713698 -0.561354 0.418946 1 
0.0894944 0.20911 0.0339185 0.326043 0.682906 -0.653708 1 
0.0897076 0.208941 0.0340448 -0.713698 0.561354 -0.418946 1 
0.0930398 0.210033 0.0455597 0.534247 0.490703 0.688324 1 
0.093383 0.210246 0.0452648 0.453296 0.767493 0.453296 1 
0.0935294 0.210319 0.0444027 0.541128 0.685206 0.487518 1 
0.093128 0.211212 0.044851 0.897535 0.125796 0.422619 1 
0.0936534 0.210286 0.0453373 0.429749 0.783279 0.44921 1 
0.0941113 0.209874 0.0449626 0.476752 0.833928 0.277976 1 
0.0938357 0.210195 0.0444326 0.548122 0.744464 0.381231 1 
0.0935883 0.210757 0.0439394 0.713698 -0.561354 0.418946 1 
0.0938085 0.210455 0.0441136 0.676875 0.640819 0.362202 1 
0.0937228 0.211049 0.0441029 0.713698 -0.561354 0.418946 1 
0.0943903 0.21001 0.0446735 0.564551 0.793465 0.227367 1 
0.0940197 0.211101 0.0446217 0.67107 0.644818 0.365889 1 
0.094828 0.209725 0.0440277 0.465206 0.849572 0.248618 1 
0.0951071 0.209861 0.0437386 0.408434 0.906862 0.103839 1 
0.0955207 0.210289 0.043613 0.359652 0.924622 0.125396 1 
0.0943018 0.209875 0.0453545 0.306224 0.951438 0.0315046 1 
0.0947075 0.209935 0.0454633 0.204074 0.917618 -0.341074 1 
0.0946036 0.209841 0.0447997 0.435151 0.900357 0.00130676 1 
0.0952225 0.209732 0.0450348 -0.115474 0.949012 -0.293331 1 
0.0958741 0.209774 0.0458913 -0.713698 0.561354 -0.418946 1 
0.0960236 0.210301 0.0458684 -0.713698 0.561354 -0.418946 1 
0.0958055 0.209788 0.0453124 -0.320426 0.876237 -0.35991 1 
0.0961072 0.209754 0.0447576 -0.548751 0.829641 -0.1028 1 
0.0951966 0.209449 0.0444613 0.191353 0.980536 -0.0439755 1 
0.0951412 0.209468 0.0441055 0.249025 0.968161 -0.0255099 1 
0.0953562 0.209528 0.0438223 0.336721 0.939413 0.0641998 1 
0.0954694 0.209446 0.043997 0.274214 0.961575 -0.013406 1 
0.0958179 0.209297 0.0441595 0.286117 0.958188 -0.00365256 1 
0.0958071 0.209248 0.0433996 0.527595 0.793769 0.302614 1 
0.095544 0.209847 0.04322 0.469694 0.799923 0.373511 1 
0.0957221 0.20957 0.0432616 0.527595 0.793769 0.302614 1 
0.0965253 0.209324 0.0437135 0.540166 0.839162 0.063466 1 
0.0961292 0.210624 0.0461225 -0.713698 0.561354 -0.418946 1 
0.096056 0.210727 0.0449589 -0.713698 0.561354 -0.418946 1 
0.0964114 0.210445 0.0451694 -0.713698 0.561354 -0.418946 1 
0.0961441 0.209322 0.0429294 0.655158 0.681169 0.326766 1 
0.0960012 0.209707 0.0429726 0.623218 0.688993 0.369984 1 
0.0963364 0.209552 0.042912 0.693779 0.638537 0.333079 1 
0.0962353 0.209139 0.0432426 0.623218 0.688993 0.369984 1 
0.096673 0.208854 0.0425968 0.713698 -0.561354 0.418946 1 
0.0685272 0.201946 0.0454819 0.887196 0.390842 0.245205 0 
0.0688593 0.202874 0.0475887 -0.713698 0.561354 -0.418946 0 
0.0685465 0.203903 0.0473558 -0.713698 0.561354 -0.418946 0 
0.0684488 0.203179 0.0453641 0.754231 0.348731 -0.556347 0 
0.068206 0.203651 0.0454557 0.0443052 0.202367 -0.978307 0 
0.0687245 0.202858 0.0458941 0.813708 0.44746 -0.371025 0 
0.0688753 0.202841 0.0456167 0.468697 0.45883 -0.754849 0 
0.0694384 0.202748 0.0471543 -0.713698 0.561354 -0.418946 0 
0.0692736 0.203031 0.0473358 -0.713698 0.561354 -0.418946 0 
0.0682791 0.20278 0.0451159 0.734925 0.431046 -0.523531 0 
0.0685774 0.202289 0.0453802 0.495662 0.479085 -0.724429 0 
0.0685767 0.20256 0.0455075 0.702007 0.50191 -0.505245 0 
0.0685791 0.202517 0.0449707 0.918601 0.363233 0.155671 0 
0.0689136 0.202634 0.0450373 0.879478 0.276063 0.387695 0 
0.0689942 0.204986 0.0459112 -0.713698 0.561354 -0.418946 0 
0.0816689 0.195825 0.0547686 0.713698 -0.561354 0.418946 0 
0.0812504 0.196531 0.0542817 0.713698 -0.561354 0.418946 0 
0.0817592 0.196189 0.053678 0.4303 -0.702767 -0.566534 0 
0.0819515 0.196419 0.0536605 0.4303 -0.702767 -0.566534 0 
0.0816933 0.195884 0.0540934 0.713698 -0.561354 0.418946 0 
0.0818856 0.196113 0.0540759 0.713698 -0.561354 0.418946 0 
0.0806598 0.198207 0.0492081 0.910277 0.202763 -0.360947 0 
0.0806964 0.199587 0.0488556 0.713698 -0.561354 0.418946 0 
0.0811176 0.198563 0.0503367 0.713698 -0.561354 0.418946 0 
0.0808817 0.198902 0.0504761 0.713698 -0.561354 0.418946 0 
0.0814187 0.1988 0.0499092 0.713698 -0.561354 0.418946 0 
0.0811368 0.198983 0.049204 0.841696 0.509801 -0.177907 0 
0.0813859 0.19865 0.0492877 0.93192 0.329969 -0.150488 0 
0.0810762 0.198316 0.0500768 0.713698 -0.561354 0.418946 0 
0.0815598 0.198187 0.0502756 0.713698 -0.561354 0.418946 0 
0.0815264 0.198308 0.0497814 0.713698 -0.561354 0.418946 0 
0.081277 0.19759 0.053042 0.713698 -0.561354 0.418946 0 
0.0813619 0.197268 0.0531799 0.713698 -0.561354 0.418946 0 
0.0819115 0.197444 0.0529634 0.713698 -0.561354 0.418946 0 
0.0817849 0.19752 0.0525655 0.713698 -0.561354 0.418946 0 
0.0816326 0.196265 0.0532802 0.682576 0.50145 0.531637 0 
0.0819532 0.196647 0.053251 0.682576 0.50145 0.531637 0 
0.0816407 0.196632 0.0530459 0.682576 0.50145 0.531637 0 
0.0818041 0.196893 0.0531189 0.682576 0.50145 0.531637 0 
0.0813689 0.198183 0.0515419 0.713698 -0.561354 0.418946 0 
0.0809697 0.213062 0.0486159 0.863949 0.38824 0.32072 0 
0.0814701 0.213396 0.0482187 0.999856 -0.000994882 -0.016913 0 
0.0814147 0.213416 0.047863 0.927948 -0.216098 0.303667 0 
0.0813676 0.213527 0.0488039 0.613477 -0.732008 -0.296327 0 
0.0816851 0.213456 0.0479355 0.910037 -0.0303786 0.413413 0 
0.0818346 0.213982 0.0479126 0.791716 -0.553417 0.258679 0 
0.0816849 0.216315 0.0477252 0.908999 0.264091 -0.322454 0 
0.0808754 0.216423 0.0470981 0.713698 -0.561354 0.418946 0 
0.082137 0.214445 0.0487339 0.773113 -0.191365 0.604712 0 
0.0818917 0.214192 0.0478589 0.904726 -0.370313 -0.21057 0 
0.0818046 0.215329 0.0481027 0.976033 0.0445292 -0.213018 0 
0.0820799 0.216051 0.048605 0.796927 0.602279 0.0465462 0 
0.0817838 0.215727 0.047959 0.884065 0.290672 -0.365976 0 
0.0819761 0.215957 0.0479414 0.961194 0.166993 -0.219589 0 
0.0822953 0.215067 0.0483494 0.779077 0.184478 -0.599172 0 
0.0813091 0.213093 0.0476089 0.973223 0.015448 0.229343 0 
0.0817693 0.212637 0.0466974 0.970216 0.214335 0.112875 0 
0.0818484 0.212949 0.0465052 0.949714 0.117886 0.29008 0 
0.0814743 0.213582 0.0472724 0.807248 -0.42529 0.409241 0 
0.0815014 0.213322 0.0475914 0.962388 -0.123051 0.242216 0 
0.0817032 0.213376 0.0470851 0.950937 -0.171304 0.25763 0 
0.0816579 0.213716 0.0476165 0.695311 -0.596217 0.401332 0 
0.0818729 0.213775 0.0473332 0.976423 -0.210696 -0.046955 0 
0.0820547 0.212912 0.0465835 0.892577 0.0335555 0.449644 0 
0.0813709 0.216075 0.0462712 0.866524 0.498826 -0.0175738 0 
0.0814356 0.21588 0.0461381 0.77855 0.559732 0.28383 0 
0.0819817 0.215599 0.0467405 0.803041 0.581206 -0.131622 0 
0.0815865 0.215863 0.0458607 0.798352 0.533809 0.278715 0 
0.0821199 0.215305 0.0461127 0.747873 0.626597 0.219231 0 
0.0818778 0.215505 0.046077 0.724736 0.653042 0.219759 0 
0.0821778 0.215243 0.0459317 0.730687 0.656849 0.186133 0 
0.0816102 0.215146 0.0469987 0.982597 0.185461 0.0103674 0 
0.0829266 0.214468 0.0474316 0.713698 -0.561354 0.418946 0 
0.0821761 0.215014 0.0463412 0.687083 0.719451 0.101518 0 
0.0823432 0.219852 0.0499225 0.713698 -0.561354 0.418946 0 
0.0822753 0.221409 0.0490337 0.941733 0.0425132 -0.333665 0 
0.0815729 0.223112 0.0482234 0.398673 0.653427 -0.643501 0 
0.0817496 0.223379 0.0485196 0.235102 0.571408 -0.78627 0 
0.0819565 0.223071 0.0484707 0.259591 0.511411 -0.81919 0 
0.0821074 0.223054 0.0481933 0.342804 0.447067 -0.826206 0 
0.0819123 0.223911 0.0487199 -0.201252 0.519019 -0.830733 0 
0.0823042 0.223194 0.0487605 0.329663 0.262265 -0.90694 0 
0.082689 0.223653 0.0487255 -0.0686073 0.0490052 -0.996439 0 
0.0826475 0.223406 0.0484655 0.0969487 0.108629 -0.989344 0 
0.083211 0.22227 0.0500309 0.964608 -0.114314 -0.23762 0 
0.0832127 0.222498 0.0496213 0.90745 -0.197648 -0.37077 0 
0.0826102 0.222298 0.0489454 0.80432 -0.0974493 -0.58615 0 
0.0828026 0.222528 0.0489279 0.813378 -0.115778 -0.570098 0 
0.0826182 0.222666 0.048711 0.652933 0.0294873 -0.756841 0 
0.0828754 0.2227 0.0485604 0.70301 -0.086232 -0.705933 0 
0.0830886 0.222531 0.0486867 0.844469 -0.145395 -0.515493 0 
0.0828523 0.222098 0.0489811 0.824921 -0.115343 -0.553354 0 
