0.0920144 0.211452 0.038616 -0.66786 -0.680734 0.300939 1 
0.091392 0.21179 0.0393147 -0.436205 -0.813291 0.385075 1 
0.0914095 0.211929 0.0400361 -0.492223 -0.793649 0.357543 1 
0.091804 0.211672 0.039868 -0.603881 -0.708619 0.364947 1 
0.0915176 0.211564 0.039064 -0.624914 -0.65491 0.424942 1 
0.0916988 0.211373 0.0388883 -0.642962 -0.694787 0.322291 1 
0.0920669 0.211038 0.0387773 -0.748096 -0.615801 0.247266 1 
0.0921809 0.210991 0.0391161 -0.765463 -0.524935 0.372168 1 
0.0922277 0.211101 0.0387613 -0.747122 -0.596737 0.292769 1 
0.0921487 0.210867 0.0389328 -0.782218 -0.561875 0.269133 1 
0.092058 0.210257 0.038761 -0.897063 -0.356165 0.261582 1 
0.0922275 0.210531 0.0390369 -0.841806 -0.420122 0.338909 1 
0.09233 0.211519 0.0395519 -0.708687 -0.590298 0.386407 1 
0.0923678 0.210562 0.0393186 -0.819805 -0.472296 0.323815 1 
0.0925462 0.211048 0.0398864 -0.739451 -0.559893 0.373806 1 
0.0924788 0.21035 0.0396061 -0.951873 -0.184974 0.244382 1 
0.0921109 0.211811 0.0403743 -0.499582 -0.78873 0.358221 1 
0.0920992 0.211991 0.0409637 -0.788362 0.516513 0.334214 1 
0.0924762 0.211868 0.0411445 -0.788362 0.516513 0.334214 1 
0.0925405 0.212116 0.0415113 -0.788362 0.516513 0.334214 1 
0.092371 0.211854 0.0400271 -0.51827 -0.76847 0.375299 1 
0.0925287 0.211466 0.0400976 -0.681928 -0.598968 0.419776 1 
0.0924849 0.211807 0.0403659 -0.489097 -0.796987 0.354395 1 
0.0925726 0.211683 0.0407619 -0.489097 -0.796987 0.354395 1 
0.0925053 0.211269 0.0403439 -0.680666 -0.58747 0.43769 1 
0.0744142 0.21535 0.0338886 0.788362 -0.516513 -0.334214 1 
0.0745719 0.214962 0.0339591 0.788362 -0.516513 -0.334214 1 
0.0749137 0.21455 0.0339052 0.764354 0.621512 0.171714 1 
0.074265 0.21481 0.034661 0.788362 -0.516513 -0.334214 1 
0.0745105 0.214868 0.034852 0.742831 0.664332 0.0828598 1 
0.0744901 0.214836 0.0351496 0.788362 -0.516513 -0.334214 1 
0.0748173 0.214735 0.0342878 0.806585 0.589047 0.0494404 1 
0.0749401 0.2149 0.0349185 0.742831 0.664332 0.0828598 1 
0.0750627 0.214223 0.0347543 0.856998 0.515275 0.00672683 1 
0.0748612 0.214667 0.0350899 0.806585 0.589047 0.0494404 1 
0.0751679 0.214249 0.0346636 0.808757 0.586525 0.0436025 1 
0.0754806 0.213878 0.0344777 0.700029 0.580875 0.415384 1 
0.0753694 0.213521 0.0344657 0.626727 0.710938 0.319031 1 
0.0753372 0.213113 0.0344202 0.52426 0.767725 0.368443 1 
0.0755856 0.213335 0.0346625 0.512741 0.725139 0.459642 1 
0.0758077 0.213183 0.0363079 0.0729888 -0.0842178 0.993771 1 
0.0762811 0.212875 0.0361061 -0.620256 -0.720141 -0.310933 1 
0.07584 0.213876 0.0362157 -0.788362 0.516513 0.334214 1 
0.0760532 0.213525 0.0363611 -0.788362 0.516513 0.334214 1 
0.0759743 0.213292 0.0365325 -0.339231 -0.856597 0.388799 1 
0.0738877 0.212941 0.0354447 0.788362 -0.516513 -0.334214 1 
0.0741069 0.212636 0.0358306 0.788362 -0.516513 -0.334214 1 
0.0744224 0.212431 0.0356961 0.788362 -0.516513 -0.334214 1 
0.0745189 0.212802 0.0362461 0.100148 -0.938717 0.329819 1 
0.0742997 0.212538 0.0361358 0.788362 -0.516513 -0.334214 1 
0.0741478 0.212687 0.0364436 0.788362 -0.516513 -0.334214 1 
0.0744898 0.213401 0.0370468 0.788362 -0.516513 -0.334214 1 
0.0745629 0.213303 0.0367727 0.165345 -0.769084 0.617391 1 
0.0747294 0.213127 0.037135 -0.585575 -0.47148 -0.659401 1 
0.0747205 0.212631 0.0369809 0.48308 -0.797644 -0.361106 1 
0.0755008 0.212759 0.0359394 -0.0238925 -0.313118 0.949414 1 
0.0762285 0.212719 0.0362204 -0.488121 -0.659215 -0.571991 1 
0.0763861 0.212047 0.0364287 -0.597313 -0.800653 -0.0465989 1 
0.0743318 0.21208 0.037803 0.565841 -0.689358 -0.452339 1 
0.0746503 0.21204 0.0377198 0.436212 -0.748968 -0.498764 1 
0.0742528 0.211847 0.0379744 0.525608 -0.759934 -0.382408 1 
0.0739493 0.213853 0.0377632 0.788362 -0.516513 -0.334214 1 
0.074554 0.21277 0.0402433 0.788362 -0.516513 -0.334214 1 
0.0744841 0.214196 0.0376012 0.788362 -0.516513 -0.334214 1 
0.0751415 0.213281 0.0387588 0.934752 0.152809 0.320762 1 
0.0754716 0.212491 0.0383617 -0.0545017 -0.998513 -0.00102833 1 
0.0755856 0.213014 0.038425 0.0738479 -0.949658 -0.304461 1 
0.076132 0.212904 0.036603 -0.521491 0.291468 0.801931 1 
0.0759129 0.213197 0.0374254 -0.290319 -0.855597 -0.428566 1 
0.0767983 0.212782 0.0365687 -0.344802 -0.759211 -0.552006 1 
0.0770496 0.212886 0.0370001 -0.834376 -0.549263 0.0461213 1 
0.0763248 0.211952 0.0373216 -0.335243 -0.846683 -0.413206 1 
0.0761846 0.212478 0.0379726 -0.189495 -0.947473 -0.257658 1 
0.0760004 0.212219 0.0382348 -0.11684 -0.987829 -0.102678 1 
0.0764738 0.21191 0.038033 -0.130177 -0.99135 -0.0166894 1 
0.076579 0.211937 0.0379422 -0.226668 -0.958368 -0.173646 1 
0.0771314 0.212703 0.0383639 0.0590166 -0.994374 -0.0879681 1 
0.0771226 0.211922 0.0383476 -0.152794 -0.988071 -0.0192408 1 
0.074738 0.2122 0.037978 0.466893 -0.779239 -0.418088 1 
0.0747906 0.212071 0.0380015 0.383449 -0.80059 -0.460459 1 
0.0752523 0.212227 0.0382514 -0.00766037 -0.992565 -0.121472 1 
0.0749572 0.21218 0.0382261 0.266779 -0.945357 -0.18743 1 
0.0746035 0.211931 0.0380746 0.243335 -0.956054 -0.163553 1 
0.0745772 0.211853 0.0381317 0.276155 -0.945457 -0.172767 1 
0.0747116 0.211838 0.0381729 0.153233 -0.983345 -0.0977313 1 
0.0749104 0.21207 0.0385809 0.141241 -0.983861 -0.109854 1 
0.0752289 0.21203 0.0384977 -0.0770171 -0.997002 -0.0073852 1 
0.0752026 0.211952 0.0385548 -0.0770171 -0.997002 -0.0073852 1 
0.0754744 0.212372 0.0385508 -0.0787849 -0.996891 0.00105046 1 
0.0747555 0.212054 0.0388373 0.172007 -0.975543 -0.136852 1 
0.0752377 0.212242 0.0387895 0.099319 -0.984814 -0.142397 1 
0.0752436 0.212288 0.03903 0.0707284 -0.981806 -0.176222 1 
0.0743405 0.211723 0.0383704 0.419586 -0.903829 -0.0839171 1 
0.0746677 0.211325 0.0388546 0.327377 -0.919229 -0.218728 1 
0.0743435 0.212445 0.0393544 0.509801 -0.841696 0.177907 1 
0.0747731 0.212192 0.0395587 -0.442336 -0.896628 0.0199251 1 
0.0750244 0.212023 0.0389197 0.0963312 -0.985908 -0.136767 1 
0.0752991 0.212039 0.0392427 -0.156517 -0.98664 -0.0452162 1 
0.0750536 0.211994 0.0378435 0.163997 -0.92371 -0.346216 1 
0.0755533 0.21232 0.0385172 -0.0550751 -0.985492 -0.160538 1 
0.0759478 0.212063 0.0383491 -0.0865112 -0.995427 -0.0405179 1 
0.0756059 0.211907 0.0386785 -0.11162 -0.993746 -0.00325108 1 
0.0753955 0.211854 0.0388601 -0.098529 -0.995035 -0.0140756 1 
0.0757257 0.212191 0.0391201 -0.194151 -0.965542 -0.173302 1 
0.0759799 0.211903 0.0386702 -0.086166 -0.991483 -0.0976548 1 
0.0767105 0.211756 0.0379321 -0.0396433 -0.999213 -0.00101649 1 
0.0764737 0.211626 0.0381708 -0.156859 -0.986471 -0.0476388 1 
0.0767777 0.211884 0.0384879 -0.18206 -0.981696 -0.0559269 1 
0.0763948 0.211392 0.0383422 -0.200172 -0.9763 -0.0822794 1 
0.0767455 0.211476 0.0384424 -0.14266 -0.989771 -0.00110589 1 
0.0756731 0.212035 0.0392343 -0.18675 -0.971862 -0.143556 1 
0.075673 0.211466 0.0395099 -0.144845 -0.988823 -0.0353558 1 
0.0749397 0.212586 0.0396455 -0.0862072 -0.958573 -0.271488 1 
0.075413 0.211992 0.0395815 -0.143547 -0.985847 -0.0866027 1 
0.0750974 0.211914 0.0398538 -0.230389 -0.972887 -0.0202933 1 
0.0759449 0.212158 0.0405764 -0.0449963 -0.995407 -0.0845053 1 
0.0760179 0.212073 0.039094 -0.177743 -0.974437 -0.137404 1 
0.0761845 0.212181 0.0393186 -0.148484 -0.980485 -0.12885 1 
0.0764212 0.212027 0.0392177 -0.140348 -0.984838 -0.101963 1 
0.0769297 0.212292 0.0391129 -0.128771 -0.991644 -0.00770423 1 
0.0772102 0.212082 0.0386058 -0.195612 -0.978058 -0.0716838 1 
0.0764124 0.211815 0.0389259 -0.157674 -0.983356 -0.0902714 1 
0.0768157 0.21177 0.0390496 -0.111638 -0.990929 -0.0748088 1 
0.0769296 0.211723 0.0393884 -0.102165 -0.994762 -0.00322626 1 
0.0778211 0.21248 0.0394293 -0.148744 -0.905216 -0.398069 1 
0.0774118 0.211911 0.0393407 -0.307409 -0.943704 -0.122158 1 
0.0773329 0.211677 0.0395121 -0.290135 -0.954763 -0.0651846 1 
0.0759653 0.211917 0.0392083 -0.170198 -0.977705 -0.12299 1 
0.0761056 0.211948 0.03949 -0.151955 -0.987128 -0.0498784 1 
0.0757285 0.211502 0.0395848 -0.144845 -0.988823 -0.0353558 1 
0.076693 0.211877 0.0394893 -0.0752847 -0.996158 0.0447344 1 
0.076655 0.21198 0.0401359 -0.0805352 0.127222 -0.988599 1 
0.0769005 0.212037 0.0403269 -0.138008 -0.935992 -0.32384 1 
0.0767777 0.211872 0.0396962 -0.0755448 -0.996978 -0.0180882 1 
0.0741856 0.211694 0.039835 0.446519 -0.708787 0.546115 1 
0.0757461 0.211641 0.0403063 -0.0772155 -0.984795 -0.155619 1 
0.0757198 0.211563 0.0403634 0.0334598 -0.986489 -0.160377 1 
0.0767631 0.212208 0.0364718 -0.139718 -0.710608 -0.689576 1 
0.0770174 0.212193 0.0370923 -0.504135 -0.832052 -0.231381 1 
0.0767982 0.211928 0.0369821 -0.399163 -0.852687 -0.337037 1 
0.0774469 0.21194 0.0372967 0.59439 -0.74499 -0.302803 1 
0.0770582 0.211674 0.0379809 -0.219719 -0.973392 -0.0650564 1 
0.0779291 0.212115 0.0384572 -0.228342 -0.971381 0.065417 1 
0.0781541 0.212141 0.0389458 0.020933 -0.648923 -0.760566 1 
0.0771722 0.211627 0.0383198 -0.310086 -0.950343 -0.0263635 1 
0.0780342 0.211572 0.038642 -0.388765 -0.875855 0.285901 1 
0.078189 0.211304 0.0385234 -0.225932 -0.962496 -0.150186 1 
0.0785865 0.211212 0.0384066 0.66149 -0.540301 -0.520103 1 
0.0778034 0.211488 0.0391212 -0.320777 -0.944 -0.0772482 1 
0.0780956 0.21137 0.0390951 -0.206664 -0.919297 -0.334938 1 
0.0777362 0.211632 0.0396358 -0.413463 -0.887253 -0.204524 1 
0.0785778 0.211558 0.0390474 0.351372 -0.495771 0.794197 1 
0.0776017 0.211362 0.0397323 -0.431254 -0.870022 -0.238918 1 
0.0779962 0.21139 0.0394264 -0.308563 -0.886555 -0.344688 1 
0.0781218 0.211163 0.0391758 -0.231321 -0.906371 -0.353528 1 
0.0784199 0.211091 0.0393902 -0.304287 -0.854165 -0.421677 1 
0.0782095 0.211039 0.0395718 -0.578658 -0.760385 -0.294908 1 
0.0786306 0.212839 0.0395902 0.788362 -0.516513 -0.334214 1 
0.0790688 0.212241 0.0391537 0.686498 -0.0892887 -0.721628 1 
0.0796387 0.212305 0.039502 0.788362 -0.516513 -0.334214 1 
0.0784082 0.211271 0.0399797 -0.263233 -0.370311 -0.89083 1 
0.067926 0.211447 0.0409912 0.471188 -0.881271 0.036663 1 
0.0677156 0.211394 0.0411728 0.269953 -0.954712 0.1251 1 
0.0680254 0.211711 0.0405221 0.486771 -0.87352 -0.00400086 1 
0.0679465 0.211478 0.0406936 0.486771 -0.87352 -0.00400086 1 
0.06823 0.211705 0.0413084 0.256528 -0.965969 -0.03314 1 
0.0675929 0.211501 0.0416125 -0.0785056 -0.987765 0.134748 1 
0.0679085 0.21158 0.0413402 -0.0328738 -0.997878 0.0562035 1 
0.0680751 0.211689 0.0415648 0.00727199 -0.99834 0.057137 1 
0.0677829 0.211522 0.0417286 -0.154545 -0.982032 0.108303 1 
0.0679962 0.211456 0.0417362 0.00106697 -0.99548 0.0949601 1 
0.0683995 0.211695 0.0417221 0.101712 -0.993652 0.0480619 1 
0.0682738 0.211637 0.0421105 -0.191883 -0.974463 0.116635 1 
0.0684959 0.211782 0.0424099 -0.230666 -0.967267 0.105775 1 
0.0681102 0.211706 0.040729 0.441164 -0.89699 -0.0279893 1 
0.0680312 0.211473 0.0409004 0.471188 -0.881271 0.036663 1 
0.0668186 0.211989 0.0426189 -0.398424 -0.868595 0.29462 1 
0.0664973 0.212705 0.0434456 0.788362 -0.516513 -0.334214 1 
0.0669414 0.212438 0.0431119 -0.441728 -0.844707 0.302235 1 
0.0672073 0.212242 0.0431429 -0.38842 -0.883319 0.262446 1 
0.0667484 0.211695 0.0420117 -0.1396 -0.927444 0.346928 1 
0.0673037 0.212057 0.0427603 -0.352791 -0.903203 0.244465 1 
0.0673884 0.212052 0.0429672 -0.362561 -0.90422 0.225691 1 
0.0676193 0.211851 0.0426258 -0.307506 -0.936308 0.169611 1 
0.067742 0.211744 0.0421861 -0.282459 -0.941072 0.18601 1 
0.0680137 0.211594 0.0424576 -0.250647 -0.952995 0.170226 1 
0.0679962 0.211728 0.0428066 -0.282775 -0.927899 0.242987 1 
0.0682592 0.211652 0.0426486 -0.362027 -0.922406 0.134546 1 
0.0685748 0.211446 0.0425141 -0.230666 -0.967267 0.105775 1 
0.0683907 0.211471 0.0426385 -0.32172 -0.938011 0.12896 1 
0.0671371 0.212221 0.0436062 -0.458254 -0.864265 0.207483 1 
0.067406 0.21219 0.0436887 -0.344055 -0.914122 0.214495 1 
0.068084 0.212148 0.0453435 -0.42583 -0.412975 0.80506 1 
0.0677333 0.212064 0.0452434 -0.384749 -0.903512 -0.188772 1 
0.0677566 0.211692 0.0452726 -0.388475 -0.6695 -0.633132 1 
0.0674528 0.2123 0.0433339 -0.351259 -0.866643 0.354327 1 
0.0677946 0.211887 0.04328 -0.299354 -0.909743 0.287672 1 
0.0676982 0.212072 0.0436626 -0.353042 -0.903846 0.241709 1 
0.0681716 0.211764 0.0434608 -0.277052 -0.932414 0.232049 1 
0.0679933 0.211835 0.0438257 -0.329688 -0.923974 0.193851 1 
0.0682651 0.211698 0.0428891 -0.270597 -0.935173 0.228536 1 
0.0685661 0.211791 0.0431549 -0.23684 -0.934747 0.264868 1 
0.068005 0.211655 0.0432363 -0.299354 -0.909743 0.287672 1 
0.0681949 0.211676 0.0433524 -0.25235 -0.918555 0.304262 1 
0.0683615 0.211785 0.0435769 -0.272125 -0.944918 0.181873 1 
0.0682855 0.211717 0.0437997 -0.298516 -0.941893 0.154029 1 
0.0685633 0.212467 0.0438984 -0.0907447 -0.9913 0.0953394 1 
0.0686947 0.212287 0.0438883 -0.138697 -0.989219 0.0469965 1 
0.0686537 0.211667 0.0435509 -0.317515 -0.927142 0.198976 1 
0.0678297 0.211879 0.0448607 -0.354881 -0.929708 -0.0985031 1 
0.0691798 0.21207 0.0441675 -0.173923 -0.984006 -0.0385198 1 
0.0687385 0.211649 0.044966 -0.573443 -0.81698 0.0608841 1 
0.0683206 0.211994 0.0452426 -0.598911 -0.77224 -0.212018 1 
0.0690307 0.211531 0.04494 0.393344 -0.514122 -0.762206 1 
0.0688787 0.21168 0.0452477 -0.145672 -0.84019 -0.52236 1 
0.0690104 0.212626 0.0458947 0.573257 -0.489201 -0.657312 1 
0.070299 0.211608 0.044229 0.788362 -0.516513 -0.334214 1 
0.0701178 0.211799 0.0444047 0.788362 -0.516513 -0.334214 1 
0.0708278 0.211336 0.044102 0.788362 -0.516513 -0.334214 1 
0.0681862 0.211724 0.0453392 -0.631142 -0.506597 0.587383 1 
0.0683206 0.211709 0.0453804 -0.611069 -0.762676 0.211941 1 
0.0685573 0.211555 0.0452795 -0.352628 -0.871648 -0.340416 1 
0.0687676 0.211323 0.0452358 -0.259772 -0.892132 -0.369619 1 
0.0688435 0.210821 0.0452886 -0.282775 -0.927899 -0.242987 1 
0.0691593 0.211742 0.0458111 0.22388 -0.56356 -0.795159 1 
0.0692323 0.21136 0.0456748 -0.262695 -0.894943 -0.360649 1 
0.069957 0.211439 0.0457667 -0.446446 -0.88576 -0.126945 1 
0.0689137 0.211115 0.0458958 -0.598441 -0.416091 0.684643 1 
0.0690014 0.211275 0.046154 -0.639871 -0.388552 0.663018 1 
0.0694426 0.211128 0.045631 0.287644 -0.564164 -0.773938 1 
0.0696325 0.210864 0.0458849 -0.322174 -0.946308 -0.026532 1 
0.0692936 0.211157 0.046128 -0.621439 -0.510287 0.594493 1 
0.0696677 0.211153 0.0461196 -0.322174 -0.946308 -0.026532 1 
0.0687676 0.211311 0.046444 -0.485535 0.360546 0.796406 1 
0.0691154 0.211229 0.0464928 -0.34547 -0.938422 0.00376876 1 
0.0694777 0.210848 0.0461413 -0.322174 -0.946308 -0.026532 1 
0.069539 0.210942 0.0452484 -0.249573 -0.951076 -0.182121 1 
0.0697583 0.211207 0.0453587 -0.30262 -0.930382 -0.206908 1 
0.0698722 0.21116 0.0456976 0.473568 -0.447349 -0.758691 1 
0.07022 0.211078 0.0457464 -0.245305 -0.967524 -0.061015 1 
0.0709389 0.211136 0.0431813 0.788362 -0.516513 -0.334214 1 
0.0708511 0.210976 0.0429231 0.788362 -0.516513 -0.334214 1 
0.0696971 0.212535 0.0455627 -0.79631 -0.604529 -0.0208458 1 
0.0695713 0.211339 0.0465022 -0.238919 -0.969295 -0.0581824 1 
0.0692585 0.21114 0.0469637 -0.246045 -0.95625 -0.158267 1 
0.0692498 0.211213 0.0465341 -0.243312 -0.969615 -0.0254206 1 
0.0699686 0.210962 0.0465232 -0.238919 -0.969295 -0.0581824 1 
0.0700709 0.211108 0.0462433 -0.238919 -0.969295 -0.0581824 1 
0.0703368 0.210912 0.0462744 -0.185461 -0.982597 -0.0103674 1 
0.0705209 0.210887 0.04615 -0.215212 -0.976184 -0.0273474 1 
0.0716693 0.210395 0.0451353 0.788362 -0.516513 -0.334214 1 
0.0668283 0.200597 0.0582773 0.788362 -0.516513 -0.334214 1 
0.0672287 0.200943 0.0592823 0.788362 -0.516513 -0.334214 1 
0.0669393 0.200385 0.0585648 0.788362 -0.516513 -0.334214 1 
0.0676143 0.200189 0.0589601 0.788362 -0.516513 -0.334214 1 
0.0679301 0.200825 0.0596204 0.788362 -0.516513 -0.334214 1 
0.0667108 0.196815 0.0560536 -0.788362 0.516513 0.334214 1 
0.0662051 0.196146 0.0564854 -0.788362 0.516513 0.334214 1 
0.067535 0.197432 0.0567468 -0.191894 -0.756831 0.624807 1 
0.0672837 0.197885 0.0572481 -0.404877 -0.772356 0.48943 1 
0.0675204 0.197731 0.0571472 -0.372269 -0.791274 0.485078 1 
0.0672019 0.197771 0.0572304 -0.40269 -0.790824 0.46091 1 
0.0674415 0.197498 0.0573186 -0.297576 -0.712573 0.635364 1 
0.0677629 0.197338 0.0574246 -0.262904 -0.819824 0.508695 1 
0.0678594 0.19771 0.0579746 -0.273223 -0.899421 0.34116 1 
0.067684 0.197105 0.057596 -0.266742 -0.774973 0.572944 1 
0.0679938 0.19741 0.0581536 -0.315551 -0.84717 0.427471 1 
0.0682189 0.198005 0.0583666 -0.00863209 -0.95323 0.302123 1 
0.0681166 0.197859 0.0586465 0.0114808 -0.932493 0.361006 1 
0.0683065 0.19788 0.0587626 -0.0834711 -0.939381 0.332559 1 
0.0684146 0.197503 0.0589988 -0.176303 -0.904451 0.388441 1 
0.0686164 0.198185 0.0593203 -0.179607 -0.94191 0.283807 1 
0.06859 0.198108 0.0593774 -0.267584 -0.857799 0.438838 1 
0.0689641 0.198104 0.0593691 -0.180865 -0.947841 0.262458 1 
0.0698434 0.196256 0.0553361 0.819176 -0.519892 0.242205 1 
0.0692708 0.197426 0.056664 -0.00383439 -0.924088 0.382161 1 
0.0692386 0.197302 0.0564807 0.0320713 -0.812938 0.581467 1 
0.0699662 0.196421 0.0559668 0.935177 -0.173181 0.308955 1 
0.070086 0.19699 0.0562706 -0.348672 -0.917933 0.189279 1 
0.070387 0.196799 0.0566742 -0.415916 -0.909243 0.0170565 1 
0.0669153 0.196537 0.0557693 -0.788362 0.516513 0.334214 1 
0.067903 0.196255 0.0558409 -0.124474 -0.298469 0.946268 1 
0.0673187 0.197048 0.0568257 -0.257349 -0.756259 0.601534 1 
0.0682099 0.19668 0.0562095 -0.00967809 -0.783925 0.62078 1 
0.0674733 0.195369 0.0561877 0.041739 -0.199155 0.979079 1 
0.0670643 0.196495 0.0564807 0.0469644 -0.653232 0.7557 1 
0.0671842 0.196779 0.0569222 -0.0983574 -0.676757 0.729606 1 
0.0668539 0.196442 0.0566622 0.0294298 -0.620829 0.783394 1 
0.0677743 0.195747 0.0563158 0.0106896 -0.231607 0.972751 1 
0.0687095 0.196164 0.0560883 0.192341 -0.626261 0.755514 1 
0.0683499 0.195015 0.0561096 0.377974 -0.409604 0.830278 1 
0.0692032 0.195318 0.0558644 0.788362 -0.516513 -0.334214 1 
0.0697643 0.195169 0.0559209 0.788362 -0.516513 -0.334214 1 
0.0683064 0.197051 0.0567595 -0.154126 -0.800558 0.579095 1 
0.0678593 0.197153 0.057042 -0.157994 -0.783953 0.600379 1 
0.0681398 0.196942 0.0565349 -0.044061 -0.712082 0.700712 1 
0.0681837 0.197159 0.0571993 -0.192271 -0.882098 0.430041 1 
0.0684817 0.196815 0.0563433 -0.101698 -0.679463 0.726627 1 
0.0684904 0.196741 0.0567729 -0.114087 -0.718599 0.686003 1 
0.0679558 0.197524 0.057592 -0.306572 -0.822243 0.479511 1 
0.0683503 0.197267 0.0574238 -0.193276 -0.877857 0.438191 1 
0.0683357 0.197567 0.0578242 -0.247728 -0.855648 0.45442 1 
0.0680961 0.197555 0.0578737 -0.285166 -0.867698 0.407162 1 
0.0689815 0.197141 0.057017 -0.0952548 -0.86298 0.496178 1 
0.0692708 0.197142 0.0568018 -0.121857 -0.8702 0.477392 1 
0.0686658 0.197062 0.0572893 -0.159112 -0.898769 0.408531 1 
0.0689551 0.197063 0.0570741 -0.0952548 -0.86298 0.496178 1 
0.0691392 0.196753 0.0570875 -0.114951 -0.881289 0.458384 1 
0.0691158 0.196841 0.057196 -0.159009 -0.873818 0.45952 1 
0.0689493 0.196732 0.0569714 -0.107619 -0.853776 0.509396 1 
0.0689902 0.197067 0.0574466 -0.171578 -0.895379 0.410923 1 
0.0685196 0.196415 0.0570427 -0.0978943 -0.784616 0.612205 1 
0.0686073 0.196575 0.0573009 -0.127994 -0.87007 0.476022 1 
0.0688236 0.196674 0.0573598 -0.122261 -0.86446 0.487607 1 
0.0699136 0.196823 0.0570137 -0.0547556 -0.91749 0.393973 1 
0.0695717 0.196666 0.0573432 -0.139293 -0.91033 0.389739 1 
0.0694927 0.195876 0.0565819 0.325707 -0.607663 0.724334 1 
0.0674673 0.195038 0.056085 0.139809 -0.206508 0.968405 1 
0.0670173 0.19469 0.0564539 -0.0244319 -0.0669222 0.997459 1 
0.0673329 0.194769 0.0561816 0.083005 -0.164807 0.982827 1 
0.0678151 0.194957 0.0561339 0.457631 -0.201238 0.86607 1 
0.0690517 0.197719 0.0574864 -0.143865 -0.895954 0.420201 1 
0.0690955 0.197651 0.0582885 -0.274534 -0.872139 0.404976 1 
0.0693848 0.197652 0.0580733 -0.298688 -0.896065 0.328409 1 
0.0693322 0.197496 0.0581876 -0.298213 -0.879501 0.370874 1 
0.0695689 0.197342 0.0580867 -0.354347 -0.847624 0.394933 1 
0.0698611 0.197224 0.0580607 -0.376355 -0.847971 0.373232 1 
0.06942 0.198226 0.0581703 -0.32531 -0.888982 0.322312 1 
0.0694725 0.197527 0.0584693 -0.362311 -0.869853 0.334794 1 
0.0696858 0.197461 0.0584769 -0.386937 -0.867168 0.313526 1 
0.0684467 0.197354 0.0581117 -0.199039 -0.857513 0.4744 1 
0.0686425 0.197422 0.0584683 -0.198529 -0.858302 0.473185 1 
0.0688354 0.197608 0.0586357 -0.241318 -0.905308 0.349546 1 
0.0691832 0.197526 0.0586845 -0.310057 -0.891227 0.331027 1 
0.0692008 0.197949 0.0592682 -0.32573 -0.903494 0.278565 1 
0.0695601 0.197403 0.0588653 -0.350656 -0.878918 0.323332 1 
0.0698932 0.197063 0.0583818 -0.494929 -0.811178 0.311505 1 
0.0699224 0.197022 0.0585138 -0.461153 -0.819299 0.340714 1 
0.0701212 0.197254 0.0589217 -0.610597 -0.767475 0.195329 1 
0.0703227 0.196823 0.0573779 -0.290654 -0.935934 0.198868 1 
0.0702993 0.196626 0.0576242 -0.31252 -0.926248 0.210704 1 
0.070352 0.197054 0.0585804 -0.55787 -0.807163 0.19305 1 
0.0702731 0.196821 0.0587518 -0.575362 -0.797005 0.183691 1 
0.0698699 0.197708 0.059423 -0.568025 -0.81294 0.128359 1 
0.0721871 0.213731 0.0427361 0.350182 0.851332 -0.390648 1 
0.0714596 0.2146 0.0444582 0.276071 0.930148 -0.242093 1 
0.0712551 0.214878 0.0447425 0.291636 0.90715 -0.30336 1 
0.0713866 0.214697 0.0447324 0.274322 0.928146 -0.25158 1 
0.0721054 0.214458 0.0435133 0.385983 0.898685 -0.208285 1 
0.0723947 0.214175 0.0434359 0.335769 0.915078 -0.223365 1 
0.0716437 0.214302 0.0432634 0.286371 0.919552 -0.269102 1 
0.0715209 0.21441 0.0437031 0.346815 0.909844 -0.227824 1 
0.0717576 0.214256 0.0436022 0.360028 0.905172 -0.225929 1 
0.0714245 0.214595 0.0440858 0.276071 0.930148 -0.242093 1 
0.0717197 0.214643 0.0441111 0.334085 0.912587 -0.235739 1 
0.0719564 0.214488 0.0440102 0.369784 0.901805 -0.223624 1 
0.0718511 0.214177 0.0442387 0.370268 0.900059 -0.229771 1 
0.0721054 0.214174 0.0436511 0.366288 0.903317 -0.223275 1 
0.0721609 0.21421 0.0437259 0.366288 0.903317 -0.223275 1 
0.0725787 0.213865 0.0434493 0.298351 0.918112 -0.260877 1 
0.0727979 0.214129 0.0435596 0.311648 0.923558 -0.223419 1 
0.0718599 0.214389 0.0445306 0.363518 0.903686 -0.226287 1 
0.072082 0.214534 0.04483 0.394132 0.890118 -0.228803 1 
0.0721785 0.214349 0.0444474 0.385042 0.897455 -0.215214 1 
0.0722223 0.214292 0.0440413 0.376684 0.893701 -0.243737 1 
0.0724385 0.214391 0.0441002 0.334738 0.911473 -0.239099 1 
0.0724473 0.214318 0.0445299 0.341985 0.913403 -0.220775 1 
0.0728096 0.213937 0.0441783 0.276415 0.928471 -0.248065 1 
0.072123 0.214869 0.0453052 0.288438 0.909238 -0.300151 1 
0.0740546 0.21435 0.0470628 -0.788362 0.516513 0.334214 1 
0.0729499 0.214228 0.0467388 -0.788362 0.516513 0.334214 1 
0.0737827 0.21393 0.0470668 -0.788362 0.516513 0.334214 1 
0.073131 0.213753 0.0467008 -0.788362 0.516513 0.334214 1 
0.0727569 0.213794 0.0430844 0.326182 0.854875 -0.403476 1 
0.072868 0.213866 0.0432341 0.362549 0.862405 -0.353293 1 
0.0738147 0.213249 0.0428305 0.267931 0.803792 -0.531161 1 
0.0731076 0.213593 0.0433223 0.321981 0.847727 -0.42153 1 
0.0734582 0.21312 0.0424898 0.349902 0.836312 -0.422079 1 
0.073651 0.213021 0.042795 0.339955 0.862964 -0.373797 1 
0.0730112 0.213778 0.0437049 0.292019 0.879082 -0.376749 1 
0.0731222 0.213851 0.0438547 0.279171 0.879767 -0.384804 1 
0.0733853 0.213774 0.0436966 0.27458 0.869249 -0.411111 1 
0.0735957 0.213827 0.0435151 0.287122 0.855225 -0.431451 1 
0.0733589 0.213696 0.0437538 0.27458 0.869249 -0.411111 1 
0.073131 0.213778 0.0442843 0.263424 0.912523 -0.312906 1 
0.0736745 0.213775 0.0434814 0.266563 0.839751 -0.473034 1 
0.0740953 0.213311 0.0433939 0.274995 0.849565 -0.450131 1 
0.073993 0.213166 0.0436738 0.274995 0.849565 -0.450131 1 
0.0742385 0.213223 0.0438648 0.274998 0.831207 -0.483188 1 
0.0740281 0.213183 0.0428381 0.279911 0.776476 -0.564566 1 
0.0749456 0.213164 0.0432352 0.372269 0.791274 -0.485078 1 
0.074291 0.212822 0.0428178 0.311177 0.875849 -0.368859 1 
0.0745102 0.213086 0.0429282 0.358515 0.754342 -0.54994 1 
0.074893 0.213009 0.0433494 0.372269 0.791274 -0.485078 1 
0.0752379 0.213046 0.0432092 -0.0105898 0.975435 -0.220032 1 
0.0737711 0.214147 0.0440315 0.201756 0.882132 -0.425603 1 
0.0743263 0.214237 0.0437097 0.228124 0.83135 -0.506771 1 
0.0740253 0.214416 0.0445143 -0.144249 0.91731 -0.371126 1 
0.0731661 0.214067 0.044519 0.140335 0.938749 -0.314733 1 
0.0737798 0.213789 0.0445989 0.15189 0.84203 -0.517605 1 
0.0742883 0.214055 0.044494 0.254287 0.797182 -0.547575 1 
0.0743848 0.214426 0.0450441 -0.788362 0.516513 0.334214 1 
0.0751385 0.213066 0.0435404 0.195659 0.858807 -0.473464 1 
0.0749106 0.213147 0.0440709 0.154122 0.858681 -0.488788 1 
0.0732538 0.213942 0.044915 0.144099 0.916355 -0.373537 1 
0.0744813 0.214798 0.0455942 -0.788362 0.516513 0.334214 1 
0.0752177 0.21497 0.046167 -0.788362 0.516513 0.334214 1 
0.0746244 0.21414 0.0463406 -0.788362 0.516513 0.334214 1 
0.0875073 0.206165 0.0477239 -0.617727 -0.604262 0.503271 1 
0.0874284 0.205932 0.0478953 -0.58599 -0.646437 0.488605 1 
0.0877526 0.205096 0.0472578 -0.374429 -0.730873 0.570637 1 
0.0879249 0.204694 0.0467901 -0.788362 0.516513 0.334214 1 
0.087858 0.205964 0.0479619 -0.617217 -0.623944 0.47931 1 
0.0876651 0.205777 0.0477944 -0.590321 -0.634049 0.499503 1 
0.0881559 0.205051 0.0473814 -0.391652 -0.745614 0.539136 1 
0.0876622 0.206454 0.0485379 -0.666698 -0.65687 0.352187 1 
0.0875513 0.206938 0.0493209 -0.788362 0.516513 0.334214 1 
0.087972 0.206474 0.0492334 -0.469448 -0.728225 0.499307 1 
0.0881123 0.206505 0.0495151 -0.525288 -0.623251 0.579337 1 
0.0891614 0.206318 0.0486938 -0.209501 -0.746445 0.631608 1 
0.0879456 0.205839 0.0483578 -0.420768 -0.778177 0.466256 1 
0.088346 0.205913 0.0482924 -0.417813 -0.808412 0.414611 1 
0.0878112 0.20557 0.0484544 -0.590497 -0.68032 0.43414 1 
0.0882699 0.205561 0.0486529 -0.564166 -0.779086 0.273391 1 
0.0892693 0.205384 0.0479973 -0.555013 -0.831841 -0.001357 1 
0.0886293 0.205299 0.0481123 -0.544957 -0.788213 0.285905 1 
0.0886615 0.205423 0.0482957 -0.528339 -0.799606 0.285461 1 
0.089357 0.205259 0.0483933 -0.577379 -0.770366 -0.270498 1 
0.0881999 0.205824 0.0489784 -0.602446 -0.678789 0.419886 1 
0.0887142 0.20585 0.0492518 -0.663898 -0.735833 0.133379 1 
0.0891291 0.20591 0.0486482 -0.465764 -0.833391 0.297528 1 
0.0892576 0.205279 0.0487246 -0.598117 -0.776476 -0.198347 1 
0.0891524 0.205265 0.0476071 -0.348514 -0.842374 0.411028 1 
0.0895644 0.205146 0.0481604 -0.603976 -0.77523 -0.185016 1 
0.0894445 0.204578 0.0478566 -0.574601 -0.809731 0.119035 1 
0.090099 0.204079 0.0474791 -0.82329 0.218424 -0.523912 1 
0.0899267 0.204481 0.0479467 -0.92629 -0.330316 -0.181322 1 
0.0901371 0.204533 0.0477651 -0.865582 -0.492803 0.0889587 1 
0.089541 0.204949 0.0484067 -0.655266 -0.734692 -0.175654 1 
0.0903125 0.205138 0.0481438 -0.533339 -0.797648 0.281615 1 
0.0905025 0.205159 0.0482598 -0.62005 -0.728999 0.289997 1 
0.0902336 0.204905 0.0483152 -0.928996 -0.358961 -0.0900763 1 
0.0905842 0.204704 0.0485531 -0.95032 -0.300306 -0.0819017 1 
0.0905228 0.204065 0.0473051 -0.86179 -0.276078 0.425557 1 
0.0907594 0.20391 0.0472042 -0.788362 0.516513 0.334214 1 
0.0903185 0.206026 0.0491791 -0.585198 -0.527859 -0.615555 1 
0.089909 0.203773 0.0475008 -0.874063 0.0769175 -0.479686 1 
0.0894092 0.20315 0.0481731 -0.788362 0.516513 0.334214 1 
0.0900902 0.203582 0.047325 -0.790822 -0.293191 -0.537252 1 
0.0891465 0.204637 0.0488504 -0.660031 -0.740487 -0.126643 1 
0.0883401 0.205855 0.0492601 -0.663977 -0.647501 0.374002 1 
0.088679 0.205277 0.0491549 -0.653579 -0.756703 -0.0153292 1 
0.0892342 0.205082 0.0489708 -0.644617 -0.764352 -0.0153149 1 
0.0889945 0.204786 0.0491582 -0.663897 -0.746351 0.0469135 1 
0.0891553 0.204849 0.0491422 -0.627369 -0.777484 -0.0439016 1 
0.0895058 0.204091 0.0484476 -0.924731 -0.374963 -0.065385 1 
0.0896169 0.204163 0.0485973 -0.925206 -0.302717 -0.228814 1 
0.0895235 0.205083 0.0487557 -0.568972 -0.809633 -0.1441 1 
0.0899268 0.205038 0.0488793 -0.632726 -0.619299 -0.464894 1 
0.0896111 0.204959 0.0491517 -0.504211 -0.762028 -0.406306 1 
0.0900845 0.20465 0.0489499 -0.843667 -0.190312 -0.502004 1 
0.0891464 0.204353 0.0489882 -0.705658 -0.708442 -0.0125265 1 
0.0900113 0.203621 0.0485669 -0.974397 -0.0674111 -0.21449 1 
0.0892867 0.204384 0.0492699 -0.751669 -0.657173 0.0558382 1 
0.0903357 0.203627 0.0487242 -0.929344 0.292807 -0.22491 1 
0.0904934 0.20324 0.0487947 -0.788362 0.516513 0.334214 1 
0.0900144 0.204913 0.0492753 -0.481981 -0.0508072 -0.874707 1 
0.0896988 0.204834 0.0495476 -0.141134 0.136225 -0.980573 1 
0.0899355 0.20468 0.0494468 -0.393543 -0.0437269 -0.918266 1 
0.09033 0.204423 0.0492786 -0.589199 -0.154421 -0.793095 1 
0.071239 0.206292 0.0554554 -0.0983981 -0.750469 0.65354 1 
0.0716247 0.206108 0.0548576 -0.139567 -0.664818 0.733851 1 
0.0717971 0.205978 0.0554605 -0.219707 -0.727684 0.649773 1 
0.070666 0.204937 0.0543987 -0.788362 0.516513 0.334214 1 
0.0711337 0.205424 0.0547513 -0.788362 0.516513 0.334214 1 
0.0719636 0.20553 0.0547524 -0.788362 0.516513 0.334214 1 
0.0728228 0.205594 0.0548855 -0.297411 -0.77454 0.558242 1 
0.0734539 0.204898 0.0547542 -0.0503505 -0.455876 0.888618 1 
0.0732201 0.204933 0.0550442 -0.377568 -0.671048 0.638073 1 
0.0737723 0.204004 0.0550844 -0.652526 -0.24057 0.718565 1 
0.0736202 0.203596 0.0544594 -0.788362 0.516513 0.334214 1 
0.0736758 0.203632 0.0545343 -0.788362 0.516513 0.334214 1 
0.0768286 0.201979 0.0528621 0.788362 -0.516513 -0.334214 1 
0.0781466 0.202331 0.0518477 0.1998 0.401059 0.893997 1 
0.0781261 0.202299 0.0521453 0.1998 0.401059 0.893997 1 
0.0777316 0.201987 0.0525891 0.31313 -0.842803 0.437759 1 
0.0776965 0.201982 0.0522166 0.510102 -0.447371 0.734613 1 
0.0778894 0.202169 0.052384 0.261999 -0.895532 0.359693 1 
0.0782343 0.202206 0.0522437 0.1998 0.401059 0.893997 1 
0.0776 0.201598 0.0528748 0.523576 -0.36472 0.769965 1 
0.0723731 0.207498 0.0565685 -0.090077 -0.536172 0.839289 1 
0.0730335 0.20733 0.0562937 0.268873 -0.903588 -0.33352 1 
0.0732702 0.207175 0.0561928 -0.164389 -0.313583 0.935223 1 
0.0715956 0.206706 0.0556583 -0.319595 -0.66677 0.673259 1 
0.0718323 0.206552 0.0555574 -0.226997 -0.731085 0.643418 1 
0.0717622 0.206815 0.0558829 -0.186343 -0.679151 0.709951 1 
0.0721655 0.206769 0.0560065 -0.107809 -0.698541 0.707402 1 
0.0719755 0.206748 0.0558904 -0.107809 -0.698541 0.707402 1 
0.0715167 0.206473 0.0558297 -0.328198 -0.732382 0.596576 1 
0.0718499 0.20669 0.0562789 -0.184857 -0.612624 0.768453 1 
0.0721245 0.206434 0.0555313 -0.195377 -0.75228 0.629208 1 
0.0720691 0.206954 0.0563891 -0.0325097 -0.708145 0.705318 1 
0.0723057 0.2068 0.0562882 -0.113471 -0.623352 0.773664 1 
0.0726097 0.207059 0.0566054 0.0124537 -0.77905 0.626838 1 
0.0720368 0.206546 0.0563436 -0.113471 -0.623352 0.773664 1 
0.0724898 0.206775 0.0561638 -0.258564 -0.497 0.828333 1 
0.0728464 0.206905 0.0565045 -0.240129 -0.481787 0.842745 1 
0.0730246 0.206834 0.0561396 -0.234399 -0.497907 0.834952 1 
0.0726476 0.206388 0.0562344 -0.25224 -0.506028 0.82481 1 
0.0731471 0.2056 0.0550428 -0.337855 -0.792599 0.507583 1 
0.0727877 0.205862 0.0555834 -0.339998 -0.72392 0.600284 1 
0.0736994 0.20524 0.0548073 -0.0496349 -0.789904 0.611218 1 
0.073866 0.205349 0.0550319 -0.0935172 -0.833023 0.545277 1 
0.0736234 0.205172 0.0550301 -0.0757561 -0.821882 0.564597 1 
0.0734188 0.205166 0.0554521 -0.367583 -0.726997 0.579964 1 
0.0736322 0.205384 0.055322 -0.150781 -0.810637 0.565803 1 
0.0734657 0.205832 0.0560301 -0.394317 -0.691292 0.605499 1 
0.0736878 0.205977 0.0563295 -0.362296 -0.65082 0.667214 1 
0.0738836 0.205772 0.0556156 -0.112423 -0.909103 0.401115 1 
0.0737287 0.205755 0.055872 -0.230909 -0.836471 0.496989 1 
0.0739975 0.205725 0.0559544 -0.125848 -0.919657 0.372012 1 
0.0744534 0.20555 0.0561017 -0.0982879 -0.933062 0.346027 1 
0.0748069 0.20497 0.05425 -0.149714 -0.724373 0.672956 1 
0.0747778 0.205853 0.0549129 -0.0325097 -0.927177 0.373211 1 
0.0749444 0.205677 0.0552753 -0.152291 -0.937067 0.314185 1 
0.0739624 0.205163 0.0546493 -0.0295977 -0.675109 0.737124 1 
0.0742166 0.205147 0.0552699 -0.119419 -0.788757 0.602994 1 
0.0746199 0.205386 0.0552558 -0.0500704 -0.946202 0.31968 1 
0.0746199 0.205102 0.0553936 -0.102383 -0.834926 0.540755 1 
0.0745409 0.204869 0.055565 -0.102383 -0.834926 0.540755 1 
0.0747076 0.205262 0.0556518 -0.184472 -0.872183 0.453063 1 
0.0741906 0.207037 0.056779 -0.788362 0.516513 0.334214 1 
0.0747517 0.206889 0.0568354 -0.158787 -0.636662 0.754618 1 
0.074135 0.206147 0.0571175 -0.171798 -0.527346 0.832101 1 
0.0746113 0.206016 0.0557588 -0.168377 -0.87117 0.461208 1 
0.0741466 0.205967 0.056528 -0.268563 -0.643598 0.716698 1 
0.074883 0.205867 0.0560304 -0.178255 -0.837349 0.51679 1 
0.075032 0.205552 0.0556713 -0.248526 -0.90146 0.354408 1 
0.075073 0.205888 0.0561465 -0.184509 -0.835539 0.517524 1 
0.0747164 0.205474 0.0559436 -0.146419 -0.937358 0.316102 1 
0.0752074 0.205588 0.0563255 -0.0977589 -0.868496 0.485961 1 
0.074994 0.205655 0.0563179 -0.184509 -0.835539 0.517524 1 
0.0750232 0.205613 0.0564499 -0.178153 -0.781131 0.598411 1 
0.0753973 0.205609 0.0564416 -0.130864 -0.827824 0.545511 1 
0.07552 0.205502 0.0560018 -0.427409 -0.798367 0.424183 1 
0.0759963 0.205074 0.0559892 -0.556968 -0.79589 0.237371 1 
0.0755494 0.206302 0.0569287 -0.147256 -0.566711 0.81065 1 
0.0739712 0.205362 0.0561494 -0.177164 -0.877034 0.44657 1 
0.0744444 0.203928 0.0552905 -0.788362 0.516513 0.334214 1 
0.0744329 0.205518 0.0563993 -0.138492 -0.889489 0.435464 1 
0.0746374 0.20524 0.056115 -0.15148 -0.926944 0.343261 1 
0.0749151 0.205421 0.0564893 -0.16955 -0.859546 0.482113 1 
0.0752073 0.205303 0.0564633 -0.113897 -0.854951 0.50605 1 
0.0755957 0.203886 0.0541893 0.788362 -0.516513 -0.334214 1 
0.0763058 0.203708 0.0537488 0.788362 -0.516513 -0.334214 1 
0.0765045 0.203656 0.0542945 -0.0964372 -0.994301 -0.0454474 1 
0.0757712 0.204491 0.0545679 -0.581962 -0.719665 0.378685 1 
0.0760692 0.204419 0.0547824 -0.604427 -0.69995 0.380443 1 
0.0758121 0.204827 0.0550431 -0.469149 -0.752285 0.462565 1 
0.0762124 0.204331 0.0552533 -0.646334 -0.626293 0.4359 1 
0.076601 0.203743 0.0549824 -0.357853 -0.769141 0.529493 1 
0.0768114 0.203796 0.0548008 -0.334 -0.929935 0.153834 1 
0.0781089 0.203831 0.0542219 -0.551682 -0.832436 0.0519395 1 
0.0775215 0.203902 0.0542226 -0.131587 -0.990839 0.0303662 1 
0.0774776 0.203674 0.0547665 -0.170489 -0.932836 -0.317414 1 
0.0760576 0.204599 0.0553719 -0.59195 -0.716572 0.368944 1 
0.0775653 0.203549 0.0551625 -0.170489 -0.932836 -0.317414 1 
0.0778546 0.20355 0.0549473 -0.500797 -0.678337 -0.537645 1 
0.0782375 0.204042 0.055093 -0.518403 -0.822984 -0.232282 1 
0.0784478 0.203526 0.0551871 -0.751583 -0.656737 -0.0617937 1 
0.0785208 0.203143 0.0550507 -0.83808 -0.524724 -0.149288 1 
0.0767119 0.203246 0.0554077 -0.0918735 -0.640198 0.762696 1 
0.075543 0.202877 0.0547169 0.788362 -0.516513 -0.334214 1 
0.0762241 0.204423 0.0557342 -0.704084 -0.632866 0.322098 1 
0.0772819 0.203879 0.0554804 -0.268118 -0.921924 0.279588 1 
0.0779422 0.203426 0.0553433 -0.500797 -0.678337 -0.537645 1 
0.0784127 0.202952 0.0550902 -0.83808 -0.524724 -0.149288 1 
0.0751638 0.20734 0.0571131 -0.788362 0.516513 0.334214 1 
0.0752514 0.20693 0.0576469 -0.788362 0.516513 0.334214 1 
0.0763559 0.20621 0.0571761 -0.788362 0.516513 0.334214 1 
0.078661 0.202902 0.054262 -0.788362 0.516513 0.334214 1 
0.0785646 0.203087 0.0546446 -0.78097 -0.61869 0.0854865 1 
0.0774598 0.202124 0.0535257 0.788362 -0.516513 -0.334214 1 
0.0784213 0.202322 0.0545871 -0.788362 0.516513 0.334214 1 
0.0785821 0.202669 0.0544334 -0.788362 0.516513 0.334214 1 
0.0744084 0.198824 0.0549817 -0.103908 -0.869694 0.482531 1 
0.0731753 0.199321 0.0557896 0.108604 -0.989117 0.099262 1 
0.0743209 0.199506 0.0555184 0.0163488 -0.944455 0.328233 1 
0.0740404 0.199716 0.0560254 0.14652 -0.947674 0.28363 1 
0.0740081 0.199308 0.0559798 0.0677873 -0.97244 0.223082 1 
0.0742185 0.199076 0.055936 0.0742989 -0.965885 0.248083 1 
0.0744904 0.199495 0.0559321 0.0946876 -0.937541 0.334741 1 
0.0745225 0.199335 0.0562532 0.0813088 -0.969451 0.231417 1 
0.074689 0.199443 0.0564778 0.0200769 -0.97668 0.213759 1 
0.0744698 0.199191 0.0551593 -0.0780741 -0.902646 0.423244 1 
0.0747942 0.199197 0.0553166 -0.0416437 -0.898698 0.436587 1 
0.0741016 0.198957 0.0555458 -0.0214457 -0.944874 0.326732 1 
0.0749899 0.198708 0.0547405 -0.19972 -0.806505 0.556473 1 
0.0748907 0.199569 0.0558666 -0.0367456 -0.949051 0.312972 1 
0.074917 0.199362 0.0559473 0.00631473 -0.935843 0.352362 1 
0.0748381 0.199414 0.0559809 0.0165633 -0.936462 0.350377 1 
0.0748206 0.199547 0.0563299 0.0174275 -0.981749 0.189379 1 
0.0721906 0.199756 0.0569776 0.788362 -0.516513 -0.334214 1 
0.0724301 0.199482 0.0570658 -0.302946 -0.742137 -0.597877 1 
0.0745398 0.198359 0.0551093 -0.111459 -0.89026 0.441603 1 
0.0732718 0.199693 0.0563396 0.108446 -0.95511 0.275688 1 
0.0729796 0.199526 0.0565035 -0.00543914 -0.993188 0.116398 1 
0.0730614 0.19964 0.0565212 0.116894 -0.922774 0.367184 1 
0.0735347 0.199332 0.0563194 0.126692 -0.974653 0.184394 1 
0.0735406 0.199378 0.0565599 0.157641 -0.938992 0.305686 1 
0.072734 0.199184 0.0564503 -0.147389 -0.98897 -0.0146264 1 
0.0730935 0.199479 0.0568423 0.262594 -0.933824 0.242935 1 
0.0730145 0.199246 0.0570137 0.233703 -0.952373 0.195878 1 
0.0738386 0.199034 0.0557039 0.0401147 -0.971262 0.23461 1 
0.073754 0.199596 0.0564297 0.160867 -0.936328 0.312109 1 
0.0737013 0.19944 0.056544 0.121432 -0.946101 0.300244 1 
0.0733594 0.199284 0.0568734 0.133145 -0.955747 0.262336 1 
0.0737627 0.199238 0.0569971 0.167821 -0.951882 0.256431 1 
0.0740228 0.199565 0.0565121 0.159474 -0.941851 0.295777 1 
0.0740227 0.199281 0.0566499 0.140284 -0.949921 0.279231 1 
0.0743384 0.19936 0.0563776 0.107683 -0.969151 0.221701 1 
0.0741368 0.199519 0.056851 0.140284 -0.949921 0.279231 1 
0.0736983 0.19899 0.0566304 0.2008 -0.952789 0.227753 1 
0.0729823 0.198838 0.0569682 -0.133129 -0.844128 -0.519351 1 
0.073409 0.198989 0.0568456 0.120972 -0.976504 0.17834 1 
0.0736545 0.199046 0.0570365 0.19056 -0.944574 0.267332 1 
0.0732365 0.198537 0.0577265 -0.133282 -0.65443 0.744283 1 
0.0764012 0.197546 0.0562597 -0.788362 0.516513 0.334214 1 
0.0764244 0.196889 0.0564268 -0.788362 0.516513 0.334214 1 
0.0771784 0.196939 0.0554424 -0.788362 0.516513 0.334214 1 
0.0774793 0.196463 0.0559838 -0.788362 0.516513 0.334214 1 
0.0751538 0.200049 0.0566412 -0.116273 -0.944887 0.306053 1 
0.0745926 0.199629 0.0568604 -0.00367043 -0.955534 0.294858 1 
0.0746979 0.199655 0.0567696 0.0237387 -0.953295 0.301106 1 
0.0754753 0.200162 0.0578177 -0.210343 -0.90375 0.372815 1 
0.0751713 0.199631 0.05643 -0.154393 -0.971015 0.182464 1 
0.0751215 0.199356 0.0567335 -0.285379 -0.880296 0.378995 1 
0.0752093 0.199801 0.0568539 -0.176414 -0.921586 0.345771 1 
0.0761444 0.199648 0.056902 -0.326634 -0.564771 0.757855 1 
0.0764103 0.199453 0.0569331 -0.221279 -0.0275103 0.974823 1 
0.076647 0.199298 0.0568322 -0.261573 -0.236395 0.935787 1 
0.0755367 0.200244 0.058133 -0.308905 -0.874977 0.372816 1 
0.0767756 0.199509 0.0577034 -0.788362 0.516513 0.334214 1 
0.0736899 0.200734 0.0589988 -0.0402919 -0.999034 -0.0175632 1 
0.0740668 0.200339 0.0581091 -0.0369225 -0.94598 0.322117 1 
0.0740318 0.200891 0.0586693 0.0196048 -0.983699 0.17875 1 
0.0741019 0.200628 0.0583439 -0.0468109 -0.955195 0.292252 1 
0.0734297 0.200135 0.0584133 0.58988 -0.744182 0.313424 1 
0.0737074 0.2006 0.0586498 0.313252 -0.910615 0.269542 1 
0.0736898 0.200165 0.0592744 -0.442897 -0.890012 -0.108264 1 
0.073874 0.200709 0.0588744 -0.184365 -0.968238 0.168894 1 
0.073795 0.200476 0.0590458 -0.195122 -0.970509 0.141559 1 
0.0740376 0.200652 0.0590476 -0.0071443 -0.999182 0.039804 1 
0.0744321 0.200395 0.0588794 -0.090535 -0.94865 0.303096 1 
0.0741515 0.200605 0.0593864 -0.0778159 -0.993563 0.082327 1 
0.0735583 0.20063 0.0591467 -0.293443 -0.952719 -0.0788546 1 
0.073722 0.200573 0.0593199 -0.199992 -0.975118 -0.0956485 1 
0.0739616 0.200584 0.0592704 -0.0071443 -0.999182 0.039804 1 
0.0738564 0.200274 0.0594989 -0.151246 -0.980028 -0.129113 1 
0.0738914 0.200303 0.0574549 0.00946455 -0.850457 0.525959 1 
0.0743648 0.199994 0.0572531 0.133539 -0.877335 0.460924 1 
0.0739644 0.199921 0.0573186 0.0705182 -0.886318 0.457677 1 
0.0742421 0.200102 0.0576929 0.0174974 -0.87083 0.491272 1 
0.0742333 0.19989 0.057401 0.12131 -0.880571 0.458125 1 
0.0739176 0.199811 0.0576734 0.14238 -0.846938 0.512273 1 
0.0737336 0.199836 0.0577978 0.431304 -0.779602 0.45409 1 
0.0746716 0.199577 0.0568267 0.0237387 -0.953295 0.301106 1 
0.0747767 0.199319 0.0568738 -0.0745224 -0.945258 0.317701 1 
0.0745781 0.199643 0.0573985 -0.00134105 -0.859615 0.510941 1 
0.0749988 0.199464 0.0571732 -0.156376 -0.893785 0.420351 1 
0.0751625 0.199692 0.0572086 -0.163939 -0.905228 0.392028 1 
0.0745752 0.200319 0.058142 -0.156796 -0.92829 0.337182 1 
0.0743123 0.200396 0.0583001 -0.0785069 -0.95624 0.281853 1 
0.0757059 0.198835 0.0568192 -0.436254 -0.810186 -0.39151 1 
0.0760477 0.198423 0.0567653 -0.031367 0.175423 -0.983993 1 
0.0761032 0.198174 0.0569779 -0.667203 0.202792 -0.71674 1 
0.075218 0.199443 0.0574213 -0.255405 -0.851858 0.457281 1 
0.0753932 0.198637 0.0572806 -0.695563 -0.710331 -0.107805 1 
0.0757876 0.19838 0.0571125 -0.290129 -0.0185189 -0.956808 1 
0.0749961 0.200697 0.0588494 -0.226693 -0.966968 0.116548 1 
0.0753438 0.200615 0.0588982 -0.314536 -0.940907 0.125544 1 
0.0752386 0.200304 0.0591268 -0.28492 -0.95532 0.0786431 1 
0.0754577 0.200011 0.0583044 -0.243273 -0.90754 0.34233 1 
0.0757207 0.199935 0.0581464 -0.235629 -0.923951 0.301319 1 
0.0755221 0.200544 0.0585333 -0.312109 -0.936328 0.160867 1 
0.0754431 0.20031 0.0587048 -0.312109 -0.936328 0.160867 1 
0.0753116 0.199922 0.0589905 -0.275117 -0.947322 0.163986 1 
0.0756242 0.199835 0.0586668 -0.274993 -0.932156 0.235507 1 
0.0753819 0.200785 0.0593221 -0.119053 -0.926425 0.357159 1 
0.0751159 0.200411 0.0595666 -0.0823994 -0.878462 0.470654 1 
0.0752328 0.200815 0.059819 0.0658936 -0.856617 0.511727 1 
0.0749404 0.199807 0.0591879 -0.160992 -0.977185 0.138528 1 
0.0745197 0.199986 0.0594132 -0.166556 -0.981102 0.0984749 1 
0.076083 0.199826 0.0588653 -0.598808 -0.795994 -0.0884438 1 
0.0764308 0.199744 0.0589141 -0.555535 -0.82833 -0.0724611 1 
0.0771057 0.199004 0.0571685 -0.364851 -0.190295 0.911412 1 
0.0772489 0.199201 0.0575016 -0.788362 0.516513 0.334214 1 
0.0760389 0.197927 0.0566112 -0.788362 0.516513 0.334214 1 
0.0764977 0.197917 0.0568098 -0.544345 0.182454 -0.818779 1 
0.0772752 0.198994 0.0575822 -0.788362 0.516513 0.334214 1 
0.077509 0.198959 0.0572922 -0.788362 0.516513 0.334214 1 
0.0757786 0.19703 0.0573718 -0.788362 0.516513 0.334214 1 
0.0765385 0.197362 0.061323 -0.788362 0.516513 0.334214 1 
0.0777806 0.197918 0.0616019 -0.237301 0.906986 0.347945 1 
0.0773187 0.197193 0.0616276 -0.238187 0.857168 0.456651 1 
0.0767372 0.19731 0.0618688 -0.400501 0.760134 0.51166 1 
0.0770294 0.197192 0.0618427 -0.311321 0.807539 0.500959 1 
0.0771142 0.197186 0.0620496 -0.327259 0.834588 0.44313 1 
0.0772281 0.19714 0.0623884 -0.314673 0.834433 0.452441 1 
0.0773859 0.197321 0.0621834 -0.246255 0.907794 0.339512 1 
0.0778097 0.197592 0.0618717 -0.284288 0.852863 0.437956 1 
0.0778185 0.197519 0.0623013 -0.274125 0.927479 0.25424 1 
0.077573 0.197177 0.0622481 -0.233042 0.901388 0.364952 1 
0.0777629 0.197198 0.0623642 -0.227938 0.935523 0.269889 1 
0.0779295 0.197307 0.0625888 -0.32824 0.918784 0.219304 1 
0.0772573 0.197098 0.0625204 -0.275294 0.894334 0.352674 1 
0.0774414 0.196788 0.0625338 -0.120008 0.978622 0.167022 1 
0.078099 0.197296 0.0630025 -0.425067 0.903097 0.0611118 1 
0.0780347 0.197321 0.0637063 -0.458561 0.874905 -0.155765 1 
0.0782714 0.197166 0.0636054 -0.356441 0.910585 -0.209247 1 
0.0777892 0.197263 0.0635153 -0.387958 0.908078 -0.157741 1 
0.0781077 0.196938 0.0635699 -0.432658 0.892269 -0.129088 1 
0.0785958 0.197741 0.0634871 -0.393759 0.894374 -0.212249 1 
0.078403 0.198112 0.0642523 -0.319192 0.704815 -0.633524 1 
0.0787187 0.198191 0.06398 -0.33335 0.761712 -0.555583 1 
0.0787098 0.197695 0.063826 -0.372516 0.857869 -0.353967 1 
0.0786397 0.197958 0.0641515 -0.318204 0.775522 -0.545264 1 
0.078438 0.19756 0.0636922 -0.386668 0.880159 -0.275332 1 
0.0786864 0.197782 0.0639345 -0.358519 0.843851 -0.399224 1 
0.078929 0.197959 0.0639363 -0.327423 0.787412 -0.52228 1 
0.0787479 0.198149 0.064112 -0.298866 0.752758 -0.586544 1 
0.0786952 0.197994 0.0642263 -0.322494 0.714672 -0.620679 1 
0.0795896 0.198917 0.0643185 -0.355443 0.757954 -0.54696 1 
0.0786046 0.197384 0.0640545 -0.371742 0.862257 -0.343977 1 
0.0782919 0.19778 0.0618239 -0.252796 0.91729 0.307689 1 
0.0785519 0.197253 0.0617523 -0.361595 0.78908 0.49659 1 
0.078213 0.197546 0.0619953 -0.335376 0.82663 0.451891 1 
0.0781925 0.197515 0.062293 -0.358599 0.907385 0.219224 1 
0.0784029 0.197283 0.0622492 -0.381577 0.879286 0.285052 1 
0.0784672 0.197531 0.0626159 -0.47033 0.865466 0.172504 1 
0.0791657 0.197532 0.0627649 -0.58718 0.802819 0.103449 1 
0.0781691 0.197318 0.0625392 -0.373466 0.906989 0.194664 1 
0.0782539 0.197313 0.0627461 -0.433403 0.88565 0.166693 1 
0.0784905 0.197158 0.0626452 -0.433888 0.894456 0.108121 1 
0.0785257 0.197447 0.0628799 -0.421439 0.906811 0.00913335 1 
0.0787214 0.197515 0.0632365 -0.414258 0.898271 -0.146627 1 
0.0783678 0.197266 0.063085 -0.381342 0.921912 -0.0682402 1 
0.0782568 0.197193 0.0629352 -0.426595 0.899046 0.0986588 1 
0.0783882 0.196728 0.0630629 -0.400127 0.916251 0.0195502 1 
0.0782216 0.196619 0.0628383 -0.31998 0.941197 0.108445 1 
0.0800163 0.199068 0.0641959 -0.556046 0.297939 -0.775916 1 
0.0791248 0.197754 0.0632224 -0.369203 0.894093 -0.253549 1 
0.0793177 0.19794 0.0633898 -0.324752 0.84995 -0.414875 1 
0.0794287 0.198013 0.0635395 -0.26998 0.778363 -0.5668 1 
0.0794668 0.198467 0.0638256 -0.361733 0.757531 -0.543411 1 
0.0796597 0.198654 0.063993 -0.398837 0.503023 -0.766744 1 
0.0794931 0.19826 0.0639062 -0.361733 0.757531 -0.543411 1 
0.079569 0.198044 0.0638213 -0.361733 0.757531 -0.543411 1 
0.079832 0.197967 0.0636632 -0.220411 0.667485 -0.711254 1 
0.0797619 0.19823 0.0639887 -0.242305 0.589348 -0.770686 1 
0.0804223 0.198062 0.0637139 -0.348982 0.414709 -0.840374 1 
0.0787537 0.197639 0.0634198 -0.393366 0.883951 -0.252771 1 
0.0790021 0.197861 0.0636621 -0.304208 0.814899 -0.493353 1 
0.0791335 0.197396 0.0637898 -0.318768 0.847456 -0.424506 1 
0.0795456 0.197847 0.0640675 -0.361733 0.757531 -0.543411 1 
0.0793264 0.197582 0.0639572 -0.295951 0.753475 -0.587102 1 
0.0795601 0.197547 0.0636672 -0.324398 0.83215 -0.449769 1 
0.0794374 0.197655 0.064107 -0.346154 0.780859 -0.520036 1 
0.0799052 0.198711 0.064184 -0.440008 0.443255 -0.780973 1 
0.0798263 0.198478 0.0643554 -0.208762 0.470089 -0.857575 1 
0.079721 0.198451 0.0644462 -0.33712 0.623753 -0.705183 1 
0.0804578 0.200331 0.0641923 -0.788362 0.516513 0.334214 1 
0.0841928 0.202496 0.0651828 -0.279213 -0.206979 0.937657 1 
0.0828831 0.199559 0.063034 -0.23601 0.608 -0.758047 1 
0.0834091 0.199406 0.0627179 0.788362 -0.516513 -0.334214 1 
0.0809457 0.199723 0.0635902 -0.788362 0.516513 0.334214 1 
0.0812175 0.199858 0.063724 -0.788362 0.516513 0.334214 1 
0.0830409 0.199172 0.0631045 0.788362 -0.516513 -0.334214 1 
0.0819219 0.200475 0.0638379 -0.788362 0.516513 0.334214 1 
0.0821586 0.200321 0.063737 -0.16297 0.708234 -0.68691 1 
0.082296 0.201028 0.0647622 -0.788362 0.516513 0.334214 1 
0.0821909 0.201287 0.0647152 -0.788362 0.516513 0.334214 1 
0.0830938 0.201295 0.0644422 0.108132 -0.526243 0.843431 1 
0.0838564 0.20043 0.0630926 0.788362 -0.516513 -0.334214 1 
0.0845052 0.200727 0.0632694 0.788362 -0.516513 -0.334214 1 
0.084023 0.200254 0.0634549 -0.272104 0.618998 -0.73675 1 
0.0825501 0.199899 0.0635175 -0.136398 0.672999 -0.726958 1 
0.0828657 0.199978 0.0632452 -0.293897 0.42315 -0.85707 1 
0.0835845 0.199726 0.0632343 -0.150348 0.145378 -0.977886 1 
0.0837774 0.200197 0.063264 0.465363 -0.73365 -0.495172 1 
0.0835585 0.201616 0.0647435 0.13076 -0.824228 0.550954 1 
0.0837251 0.201725 0.064968 -0.307689 -0.252796 0.91729 1 
0.0835148 0.202241 0.064874 -0.157417 -0.437589 0.885288 1 
