0.0642554 0.183916 0.0413959 0.027023 -0.35902 -0.932938 1 
0.0641328 0.183564 0.0414219 -0.0302899 -0.401671 -0.915283 1 
0.064356 0.18341 0.0415513 0.189213 -0.666092 -0.721471 1 
0.0636065 0.183364 0.0404714 -0.129857 -0.523805 -0.841882 1 
0.0634418 0.188494 0.037321 0.624332 0.293709 -0.72384 1 
0.0639625 0.188621 0.0372691 -0.0735501 0.638876 -0.765786 1 
0.0644308 0.188688 0.0377005 -0.103935 0.989138 -0.103935 1 
0.0645838 0.188727 0.0370186 0.0710095 0.997313 0.0180173 1 
0.0642261 0.188608 0.0367996 -0.0726473 0.996461 -0.0422872 1 
0.0646724 0.188302 0.0370585 0.0710095 0.997313 0.0180173 1 
0.0649699 0.188582 0.0368772 0.108656 0.991628 0.0697685 1 
0.0653057 0.188569 0.0367465 0.28038 0.931312 0.232476 1 
0.0654085 0.188739 0.0360753 0.193019 0.925647 0.325456 1 
0.0663329 0.188471 0.0371768 0.21064 0.977036 -0.0321315 1 
0.0661622 0.188199 0.0369179 0.201336 0.918149 0.341272 1 
0.0668678 0.188224 0.0371217 0.624332 0.293709 -0.72384 1 
0.0665242 0.187973 0.0367226 0.123084 0.937333 0.32597 1 
0.0656699 0.188777 0.0359015 0.113716 0.924797 0.363069 1 
0.065857 0.188866 0.0356846 0.0511403 0.932327 0.357982 1 
0.0662672 0.188802 0.0355971 0.170603 0.879264 0.444735 1 
0.0668141 0.189202 0.0351264 0.196745 0.965483 0.170686 1 
0.0669224 0.188475 0.0361656 0.124936 0.905432 0.40569 1 
0.0667638 0.188607 0.0356682 0.257947 0.85321 0.453316 1 
0.0624047 0.188622 0.0364796 0.624332 0.293709 -0.72384 1 
0.0633094 0.188413 0.0367589 0.624332 0.293709 -0.72384 1 
0.0632994 0.188201 0.0365248 0.624332 0.293709 -0.72384 1 
0.0636692 0.188481 0.0366822 -0.127418 0.978521 0.162056 1 
0.064156 0.188557 0.0361652 -0.0486426 0.998726 0.0134543 1 
0.0644677 0.188706 0.0358036 0.108446 0.95511 0.275688 1 
0.0653965 0.188578 0.0361368 0.209589 0.919626 0.332206 1 
0.0655353 0.188505 0.035812 0.131186 0.939942 0.315117 1 
0.0652597 0.188114 0.03652 0.259208 0.923698 0.282122 1 
0.0655714 0.188021 0.0363354 0.261856 0.898005 0.35358 1 
0.0662649 0.187642 0.0367777 0.126523 0.98447 0.121703 1 
0.0665122 0.187812 0.0367841 0.0175794 0.978585 0.205093 1 
0.0656162 0.188786 0.0346143 -0.0805991 0.973389 0.214518 1 
0.0657847 0.188624 0.0355228 0.062664 0.923961 0.377318 1 
0.06602 0.188875 0.0354137 0.0277088 0.909111 0.415631 1 
0.0662572 0.188348 0.03554 0.163029 0.865082 0.4744 1 
0.0662452 0.188671 0.0352475 0.177606 0.873352 0.453556 1 
0.0664946 0.18879 0.0349582 0.125271 0.923704 0.362048 1 
0.0660199 0.188148 0.0359447 0.168753 0.914671 0.367286 1 
0.0665186 0.188386 0.0353662 0.170603 0.879264 0.444735 1 
0.067339 0.188258 0.0351912 0.624332 0.293709 -0.72384 1 
0.0668863 0.18799 0.0363502 -0.0334844 0.961125 0.274076 1 
0.0674026 0.191264 0.0404919 0.442914 -0.0474067 0.89531 1 
0.0667932 0.190836 0.0410348 -0.222502 0.144431 0.964175 1 
0.0666599 0.189526 0.0434241 0.624332 0.293709 -0.72384 1 
0.0667166 0.189726 0.0421723 0.710387 0.415634 0.567978 1 
0.0678487 0.188778 0.0423438 0.49394 0.487287 0.720121 1 
0.0667307 0.188626 0.0427002 0.624332 0.293709 -0.72384 1 
0.067515 0.18874 0.0421788 0.49394 0.487287 0.720121 1 
0.0673421 0.188519 0.0422156 0.482421 0.492368 0.724461 1 
0.0680357 0.188383 0.0424809 0.3799 0.613431 0.692371 1 
0.0677884 0.188213 0.0424745 0.624332 0.293709 -0.72384 1 
0.0670284 0.190602 0.0412798 0.0227399 0.461486 0.886856 1 
0.0676575 0.191455 0.041205 0.30127 -0.0161173 0.953403 1 
0.067535 0.191345 0.0410541 0.469483 0.146804 0.870651 1 
0.0675853 0.191213 0.0410433 0.436164 0.107989 0.893364 1 
0.0674507 0.190941 0.0409538 0.663351 0.26884 0.698348 1 
0.067326 0.190882 0.0410984 0.405836 0.250091 0.879063 1 
0.0673139 0.190478 0.0413369 0.588604 0.260374 0.765343 1 
0.0674266 0.190618 0.0410769 0.573859 0.27033 0.77305 1 
0.0676136 0.190708 0.0408599 0.708123 0.230807 0.6673 1 
0.0683312 0.19041 0.0413561 0.770367 0.205328 0.603634 1 
0.0684637 0.191217 0.0413872 0.581982 0.193994 0.789724 1 
0.0677964 0.191383 0.0408802 0.806717 0.332552 0.488485 1 
0.0679211 0.1912 0.0409126 0.523181 -0.0176659 0.852038 1 
0.0677865 0.190928 0.0408231 0.658884 0.149267 0.737287 1 
0.0679254 0.190856 0.0404983 0.720267 0.110924 0.684771 1 
0.0681748 0.190975 0.0402091 0.810874 0.0378128 0.583998 1 
0.0685304 0.191145 0.0407236 0.772182 -0.026627 0.634843 1 
0.068667 0.190639 0.0410485 0.679708 0.182585 0.710394 1 
0.068784 0.19092 0.0400201 0.740763 -0.123709 0.660278 1 
0.0667691 0.19027 0.0413349 -0.0464863 0.5846 0.809989 1 
0.0670284 0.190359 0.0414568 0.150371 0.477392 0.865728 1 
0.0672395 0.189803 0.0418248 0.445973 0.495343 0.745482 1 
0.0674265 0.189892 0.0416078 0.459357 0.482407 0.745838 1 
0.0676497 0.189739 0.0417373 0.409979 0.468316 0.782686 1 
0.0674647 0.189356 0.0418356 0.441869 0.491148 0.750684 1 
0.0677765 0.189505 0.041474 0.622347 0.474729 0.622347 1 
0.0675371 0.190325 0.0414664 0.669324 0.322507 0.669324 1 
0.0675895 0.190142 0.0411599 0.650396 0.326009 0.686078 1 
0.067853 0.189887 0.0408675 0.632208 0.413175 0.655439 1 
0.067851 0.190665 0.0406322 0.711797 0.216499 0.668186 1 
0.0682633 0.19055 0.040249 0.756781 0.165309 0.63242 1 
0.0684142 0.190882 0.0396857 0.811603 0.344653 0.471714 1 
0.0684766 0.190911 0.0396134 0.660491 -0.073709 0.747207 1 
0.0682655 0.190741 0.0397764 0.761264 0.0949754 0.641449 1 
0.0686275 0.190516 0.0395811 0.713451 0.575045 0.400389 1 
0.0679636 0.190321 0.0407261 0.742386 0.247462 0.622596 1 
0.0681506 0.19041 0.0405091 0.791332 0.190591 0.58092 1 
0.0680784 0.190168 0.0403473 0.756244 0.333779 0.562749 1 
0.0683278 0.190287 0.0400581 0.686701 0.546353 0.479521 1 
0.0682654 0.190015 0.0403074 0.701189 0.448028 0.554622 1 
0.0688506 0.190363 0.0397105 0.640973 0.761247 0.0982727 1 
0.0690114 0.19018 0.0399123 0.555603 0.831357 -0.0122861 1 
0.068191 0.189581 0.0406182 0.668926 0.494569 0.554923 1 
0.0687784 0.190121 0.0395487 0.506804 0.61793 0.601093 1 
0.0685814 0.190062 0.0393545 0.527678 0.497525 0.688494 1 
0.0683462 0.189811 0.0394636 0.589088 0.514819 0.622846 1 
0.0674768 0.189033 0.042128 0.522369 0.449404 0.724684 1 
0.0678366 0.189101 0.0420513 0.543491 0.486634 0.683963 1 
0.0680981 0.189139 0.0418776 0.716047 0.38683 0.581068 1 
0.0681123 0.189492 0.0413434 0.673666 0.430814 0.600478 1 
0.0682632 0.189097 0.041311 0.74256 0.401605 0.53602 1 
0.0681888 0.188906 0.0414449 0.666924 0.492213 0.55941 1 
0.0691602 0.189836 0.0401756 0.415383 0.853929 0.313468 1 
0.0692969 0.190057 0.0399694 0.420566 0.854997 0.303486 1 
0.06952 0.189904 0.0400988 0.363818 0.930908 -0.0323681 1 
0.0695561 0.189661 0.0404452 0.286638 0.955033 0.075837 1 
0.0698275 0.18967 0.0406826 0.247399 0.959487 0.134826 1 
0.0700145 0.189759 0.0404656 0.247399 0.959487 0.134826 1 
0.0692367 0.189492 0.0401001 0.271196 0.907407 0.321037 1 
0.0704148 0.189725 0.039967 0.16891 0.983931 -0.0578783 1 
0.0707726 0.189601 0.0403629 0.624332 0.293709 -0.72384 1 
0.0707265 0.189631 0.0397824 0.624332 0.293709 -0.72384 1 
0.070057 0.189364 0.0399251 0.247399 0.959487 0.134826 1 
0.0704913 0.189381 0.0398915 0.16891 0.983931 -0.0578783 1 
0.0625932 0.195806 0.0386267 -0.429693 -0.739204 0.518595 1 
0.062742 0.195703 0.038713 -0.346921 -0.766453 0.540551 1 
0.064279 0.193807 0.0421626 -0.624332 -0.293709 0.72384 1 
0.0630211 0.195975 0.0394801 -0.340265 -0.762773 0.549906 1 
0.0631337 0.196115 0.03922 -0.340265 -0.762773 0.549906 1 
0.0630735 0.195792 0.0391737 -0.389607 -0.764543 0.513499 1 
0.0634313 0.195911 0.0393926 -0.554038 -0.374261 0.74362 1 
0.0632967 0.195639 0.0393031 -0.554038 -0.374261 0.74362 1 
0.0636303 0.195677 0.0394681 -0.548768 -0.384957 0.742066 1 
0.0638938 0.194695 0.0397067 -0.620919 0.107156 0.776516 1 
0.0636707 0.195575 0.0390463 -0.548768 -0.384957 0.742066 1 
0.0635985 0.195333 0.0388845 -0.548768 -0.384957 0.742066 1 
0.0639661 0.195664 0.0393375 -0.542507 -0.376334 0.751038 1 
0.0640646 0.195694 0.0394346 -0.542507 -0.376334 0.751038 1 
0.0640427 0.195562 0.039085 -0.542507 -0.376334 0.751038 1 
0.0637451 0.195524 0.0390894 -0.548768 -0.384957 0.742066 1 
0.0636729 0.195282 0.0389276 -0.548768 -0.384957 0.742066 1 
0.0647779 0.194529 0.0412301 -0.468961 -0.844129 -0.25985 1 
0.0649769 0.194537 0.0411286 -0.468961 -0.844129 -0.25985 1 
0.0642537 0.194763 0.03963 -0.742208 -0.667844 0.0557729 1 
0.0648466 0.194648 0.0400938 -0.71998 -0.691238 0.0617947 1 
0.0651158 0.194465 0.0408038 -0.767362 -0.639705 0.0439708 1 
0.0650436 0.194223 0.040642 -0.759006 -0.645808 0.0827214 1 
0.0647219 0.194346 0.0404154 -0.71998 -0.691238 0.0617947 1 
0.0647963 0.194295 0.0404586 -0.71998 -0.691238 0.0617947 1 
0.0643501 0.195328 0.0396687 -0.0496625 0.628585 0.776154 1 
0.0647121 0.194861 0.0396504 -0.793375 -0.572396 0.207168 1 
0.0656825 0.193835 0.0418634 -0.460478 -0.872715 -0.162264 1 
0.0654154 0.193968 0.0408578 -0.661405 -0.747488 0.0616928 1 
0.0649953 0.193819 0.0407111 -0.74355 -0.661422 0.09826 1 
0.0653411 0.193776 0.0409916 -0.661405 -0.747488 0.0616928 1 
0.065667 0.193793 0.0404499 -0.668459 -0.740647 0.0678565 1 
0.0656343 0.193674 0.0417555 -0.460478 -0.872715 -0.162264 1 
0.0660281 0.19355 0.0423208 -0.344966 -0.926836 0.148238 1 
0.0660041 0.19347 0.0422669 -0.344966 -0.926836 0.148238 1 
0.0663519 0.193376 0.0422517 -0.335775 -0.922319 0.191264 1 
0.0667457 0.193252 0.042817 -0.162981 -0.985978 -0.0358327 1 
0.0663661 0.193244 0.0420715 -0.346802 -0.913773 0.211535 1 
0.0667019 0.193232 0.0419409 -0.210055 -0.808021 0.550435 1 
0.0664207 0.193253 0.0412924 -0.51258 -0.81041 0.283722 1 
0.065682 0.193005 0.0482977 0.368103 0.872144 0.322281 1 
0.0672493 0.193302 0.0454842 -0.0728212 0.897213 0.435553 1 
0.0651527 0.193998 0.0392609 -0.624332 -0.293709 0.72384 1 
0.0643234 0.200368 0.0382598 0.491597 -0.101169 0.864926 1 
0.064424 0.200104 0.0382382 -0.214479 -0.169741 0.961866 1 
0.0645487 0.200163 0.0380936 -0.214479 -0.169741 0.961866 1 
0.0646231 0.19987 0.0383137 -0.413375 -0.0552064 0.908886 1 
0.0642894 0.199832 0.0381487 -0.432899 -0.055639 0.899724 1 
0.0642653 0.199752 0.0380948 -0.413375 -0.0552064 0.908886 1 
0.064402 0.19973 0.0380657 -0.413375 -0.0552064 0.908886 1 
0.0647378 0.19996 0.037758 -0.214479 -0.169741 0.961866 1 
0.0647378 0.199717 0.037935 -0.402174 -0.0438011 0.914515 1 
0.0649249 0.199806 0.0377181 -0.330403 -0.138468 0.933628 1 
0.0642455 0.198842 0.0379806 -0.496529 0.183403 0.848423 1 
0.064193 0.199509 0.037933 -0.572765 0.0639564 0.817221 1 
0.0644786 0.199386 0.0379901 -0.488383 0.0920142 0.867765 1 
0.064577 0.199416 0.0380873 -0.488383 0.0920142 0.867765 1 
0.0644063 0.199144 0.0378284 -0.504805 0.113617 0.855724 1 
0.0649128 0.199403 0.0379566 -0.488383 0.0920142 0.867765 1 
0.0641832 0.199297 0.0376989 -0.572765 0.0639564 0.817221 1 
0.0639621 0.199157 0.0374508 -0.661996 0.0920656 0.743832 1 
0.0645409 0.198931 0.0382718 -0.308068 0.188186 0.932567 1 
0.0645529 0.198608 0.0385643 -0.304101 0.197596 0.931922 1 
0.0645911 0.198315 0.0386151 -0.109782 0.297602 0.948357 1 
0.0648526 0.19908 0.0379103 -0.353147 0.154938 0.922649 1 
0.0650757 0.198927 0.0380397 -0.332121 0.177972 0.926295 1 
0.0648526 0.198838 0.0380873 -0.304101 0.197596 0.931922 1 
0.0651501 0.198634 0.0382599 -0.0535621 0.255354 0.965363 1 
0.0642716 0.198146 0.0382699 -0.19958 0.297276 0.933699 1 
0.0643942 0.198014 0.0385979 -0.124048 0.252013 0.95974 1 
0.0648766 0.198192 0.0386722 -0.061015 0.245305 0.967524 1 
0.0646655 0.198022 0.0388352 0.0554482 0.237811 0.969727 1 
0.0650637 0.198281 0.0384553 0.0160504 0.290141 0.956849 1 
0.0652868 0.198128 0.0385847 0.175324 0.242241 0.954244 1 
0.0652989 0.198531 0.0383462 0.00121353 0.280326 0.959904 1 
0.0654618 0.198056 0.0384293 0.220709 0.212584 0.951891 1 
0.0647179 0.197839 0.0385288 0.174426 0.230349 0.957348 1 
0.0650034 0.197958 0.0384089 0.143335 0.245906 0.958637 1 
0.0650034 0.197716 0.0385859 0.243577 0.202754 0.948452 1 
0.0652266 0.197805 0.0385384 0.243577 0.202754 0.948452 1 
0.0651543 0.197563 0.0383766 0.258582 0.198383 0.945399 1 
0.0646194 0.197567 0.0386087 0.323318 0.21507 0.921526 1 
0.0648688 0.197444 0.0384964 0.320116 0.211988 0.923356 1 
0.0653895 0.197813 0.0382675 0.22102 0.218308 0.950522 1 
0.0650657 0.197261 0.0388676 0.334257 0.203399 0.920273 1 
0.0651422 0.196917 0.0387921 0.429268 0.212406 0.877846 1 
0.0653775 0.19741 0.038506 0.304747 0.187858 0.933723 1 
0.0651805 0.197108 0.0384888 0.334257 0.203399 0.920273 1 
0.065653 0.196832 0.0385061 0.332387 0.190946 0.923612 1 
0.0657154 0.196862 0.0384337 0.332387 0.190946 0.923612 1 
0.0656892 0.197316 0.0383215 0.280672 0.129029 0.951091 1 
0.0648468 0.196828 0.0385009 0.451349 0.230958 0.861941 1 
0.0653172 0.196845 0.0386367 0.444085 0.193273 0.874891 1 
0.0654801 0.196611 0.0385428 0.378126 0.250601 0.89119 1 
0.0657033 0.196458 0.0386723 0.452956 0.271773 0.8491 1 
0.0650585 0.192708 0.0490208 0.291573 0.880762 0.373153 1 
0.0653441 0.192584 0.049078 0.377802 0.900015 0.217346 1 
0.0656055 0.192623 0.0489042 0.368103 0.872144 0.322281 1 
0.0655594 0.19241 0.0485006 0.403169 0.899597 0.167867 1 
0.0651875 0.192666 0.0482849 0.311654 0.874152 0.372465 1 
0.0655594 0.19241 0.0485006 0.403169 0.899597 0.167867 1 
0.0657302 0.19244 0.0489365 0.368103 0.872144 0.322281 1 
0.0659653 0.192206 0.0491815 0.368103 0.872144 0.322281 1 
0.0659533 0.192529 0.048889 0.368103 0.872144 0.322281 1 
0.066265 0.192435 0.0487044 0.383865 0.902445 0.195554 1 
0.0664018 0.192414 0.0486753 0.383865 0.902445 0.195554 1 
0.0662452 0.192253 0.0480592 0.341501 0.923319 0.175669 1 
0.0662529 0.192032 0.048943 0.368103 0.872144 0.322281 1 
0.0664783 0.192796 0.0480687 0.316035 0.928441 0.19524 1 
0.0665931 0.192159 0.048044 0.316035 0.928441 0.19524 1 
0.0668928 0.192389 0.047567 0.0308164 0.997815 0.058445 1 
0.066919 0.192661 0.0471483 0.0372807 0.97531 0.217671 1 
0.0677394 0.192533 0.0469733 -0.00590832 0.97251 0.232788 1 
0.066127 0.192525 0.0469629 -0.359825 0.933019 0.00126254 1 
0.0664606 0.192079 0.0474819 0.00933231 0.998557 0.0528831 1 
0.0674823 0.193119 0.0460248 -0.0704478 0.972674 0.221231 1 
0.066839 0.192397 0.0462797 -0.0157194 0.966136 0.257556 1 
0.0666442 0.192529 0.0456129 0.00603125 0.963794 0.266581 1 
0.0670162 0.192516 0.0456517 -0.110159 0.946304 0.303932 1 
0.067082 0.192669 0.0468774 -0.0227925 0.995271 0.0944259 1 
0.0669474 0.192397 0.0467879 -0.0227925 0.995271 0.0944259 1 
0.0670841 0.192376 0.0467588 -0.057544 0.985294 0.160888 1 
0.0668227 0.192338 0.0469325 -0.032 0.994206 0.102621 1 
0.067269 0.192758 0.0466604 -0.0157194 0.966136 0.257556 1 
0.0675687 0.192503 0.0465374 -0.0203293 0.972219 0.233189 1 
0.0679286 0.192813 0.0462837 0.0634807 0.947029 0.314813 1 
0.0678301 0.192299 0.0465406 -0.0824838 0.983828 0.158991 1 
0.0674603 0.192503 0.0460292 -0.0381997 0.964851 0.260005 1 
0.0676353 0.192431 0.0458738 -0.0309854 0.960546 0.276389 1 
0.0678082 0.19241 0.046014 -0.0309854 0.960546 0.276389 1 
0.0677514 0.19221 0.0472658 -0.0727732 0.989946 0.121289 1 
0.0638787 0.203322 0.0473879 0.624332 0.293709 -0.72384 1 
0.0641586 0.2024 0.0469737 -0.558043 -0.428881 -0.710387 1 
0.0643838 0.201954 0.0469845 -0.480231 -0.392916 -0.784216 1 
0.0641303 0.20339 0.046803 0.624332 0.293709 -0.72384 1 
0.0642911 0.203207 0.0470048 0.466666 0.106383 -0.878012 1 
0.0640821 0.203229 0.0466952 0.377545 0.0738968 -0.923038 1 
0.0643414 0.202833 0.047171 -0.367853 -0.421531 -0.828852 1 
0.0644922 0.20268 0.0469617 -0.558043 -0.428881 -0.710387 1 
0.0644922 0.202438 0.0471387 -0.510309 -0.415139 -0.753157 1 
0.0647154 0.202527 0.0470911 -0.52374 -0.41538 -0.743744 1 
0.0646792 0.201801 0.0474527 -0.570882 -0.396492 -0.718949 1 
0.0649024 0.201647 0.0475822 -0.589722 -0.44605 -0.673252 1 
0.0646551 0.201478 0.0475758 -0.597144 -0.449949 -0.664051 1 
0.0650129 0.202323 0.0472637 -0.492577 -0.395037 -0.775444 1 
0.0646913 0.202204 0.0472142 -0.532376 -0.401329 -0.745326 1 
0.0649144 0.202051 0.0473437 -0.562676 -0.404269 -0.721084 1 
0.0652262 0.201957 0.0471591 -0.583508 -0.463128 -0.667106 1 
0.0651659 0.201635 0.0471127 -0.616059 -0.555297 -0.558673 1 
0.0653891 0.201966 0.0468882 -0.364928 -0.536849 0.760671 1 
0.0651178 0.201473 0.0470048 -0.461552 -0.55153 0.694827 1 
0.065353 0.201724 0.0468958 -0.306257 -0.528412 0.791825 1 
0.0655641 0.201651 0.0469098 -0.640508 -0.600161 -0.47912 1 
0.065156 0.201422 0.0468786 -0.461552 -0.55153 0.694827 1 
0.0656385 0.2016 0.0469529 -0.643412 -0.586295 -0.492219 1 
0.0655279 0.201409 0.0469174 -0.219925 -0.542893 0.810494 1 
0.0657894 0.201205 0.0469206 -0.637459 -0.680066 -0.362155 1 
0.0659381 0.201103 0.0470069 -0.598341 -0.753878 -0.271396 1 
0.0659261 0.201426 0.0467144 -0.65948 -0.656191 -0.366743 1 
0.0661995 0.201141 0.0468331 -0.605925 -0.751474 -0.261038 1 
0.0651014 0.200445 0.0483657 -0.624332 -0.293709 0.72384 1 
0.066473 0.201099 0.0467748 -0.612884 -0.76649 -0.192006 1 
0.0672365 0.19956 0.0487365 -0.624332 -0.293709 0.72384 1 
0.0653288 0.200916 0.0473729 -0.642617 -0.406825 -0.649259 1 
0.0653551 0.201188 0.0469541 -0.258484 -0.549866 0.79425 1 
0.0656547 0.200933 0.0468311 -0.60452 -0.744883 -0.282322 1 
0.065343 0.200785 0.0471927 -0.666212 -0.439132 -0.602763 1 
0.0655661 0.200632 0.0473222 -0.588384 -0.504088 -0.632218 1 
0.0659402 0.20081 0.0468883 -0.516065 -0.466284 -0.718509 1 
0.0661273 0.200899 0.0466713 -0.50752 -0.477568 -0.717184 1 
0.0654216 0.200148 0.0469985 -0.52426 -0.581574 -0.622032 1 
0.0658998 0.199943 0.0480181 -0.5583 -0.714027 -0.422452 1 
0.0662476 0.199849 0.048003 -0.500142 -0.80499 -0.319138 1 
0.0663701 0.199717 0.0483309 -0.523641 -0.840466 -0.139344 1 
0.0665955 0.199756 0.0479878 -0.476951 -0.77647 -0.411839 1 
0.0661612 0.199497 0.0481983 -0.521483 -0.842844 -0.132927 1 
0.0663843 0.199344 0.0483278 -0.40855 -0.90712 -0.101099 1 
0.066475 0.199352 0.0477181 -0.507367 -0.765128 -0.396431 1 
0.0657652 0.200398 0.0473977 -0.541893 -0.585785 -0.602667 1 
0.0662881 0.200474 0.0470501 -0.504203 -0.534355 -0.678413 1 
0.0660911 0.200415 0.0468559 -0.493726 -0.540588 -0.681175 1 
0.0663504 0.200746 0.0468008 -0.651815 -0.723718 -0.22665 1 
0.0666501 0.200975 0.0463237 -0.439427 -0.653292 0.616534 1 
0.0664652 0.200593 0.046422 -0.495042 -0.498376 -0.711727 1 
0.0665013 0.200351 0.0467684 -0.54081 -0.547549 -0.638526 1 
0.0665112 0.199837 0.0475335 -0.478472 -0.754703 -0.448875 1 
0.0666883 0.199713 0.0470825 -0.530256 -0.661557 -0.530256 1 
0.0669114 0.19956 0.0472119 -0.554593 -0.671878 -0.490924 1 
0.0671084 0.200346 0.0468751 -0.578703 -0.51459 -0.632693 1 
0.0667244 0.200198 0.0468978 -0.549053 -0.549053 -0.630144 1 
0.0669476 0.200045 0.0470273 -0.58632 -0.569423 -0.576182 1 
0.0671346 0.200134 0.0468104 -0.586053 -0.521874 -0.619831 1 
0.0672232 0.199709 0.0468503 -0.573366 -0.610576 -0.546305 1 
0.0674584 0.199959 0.0467413 -0.664608 -0.533369 -0.523273 1 
0.0667003 0.19939 0.0473749 -0.53228 -0.695802 -0.482222 1 
0.0668874 0.19948 0.047158 -0.566513 -0.660652 -0.492547 1 
0.0670744 0.199569 0.046941 -0.727018 -0.46867 -0.501791 1 
0.0672855 0.199739 0.0467781 -0.66618 -0.548717 -0.505088 1 
0.0673861 0.199475 0.0467565 -0.885364 -0.220232 -0.409425 1 
0.0667442 0.199169 0.0484281 -0.40855 -0.90712 -0.101099 1 
0.0672047 0.199216 0.0481528 -0.319467 -0.924325 -0.208719 1 
0.0671813 0.197941 0.0469175 -0.274853 -0.595779 -0.754654 1 
0.0673202 0.198354 0.0462387 -0.725356 -0.41803 -0.546909 1 
0.0680039 0.198005 0.0462699 -0.2186 -0.590685 -0.776727 1 
0.0679677 0.19752 0.0464545 -0.602958 -0.423565 -0.676043 1 
0.0682412 0.197478 0.0463962 -0.688876 -0.709979 -0.146217 1 
0.0681678 0.200211 0.0423398 -0.624332 -0.293709 0.72384 1 
0.0668733 0.200822 0.0464532 -0.507831 -0.458206 -0.72949 1 
0.066801 0.20058 0.0462914 -0.659193 -0.645976 -0.384942 1 
0.0677078 0.200078 0.046452 -0.775821 -0.424506 -0.466794 1 
0.0679133 0.200418 0.0451096 0.290986 -0.926896 -0.237047 1 
0.0676355 0.199836 0.0462902 -0.824369 -0.289389 -0.486487 1 
0.0675633 0.199594 0.0461284 -0.800643 -0.0912125 -0.592158 1 
0.0679318 0.200669 0.0439842 -0.624332 -0.293709 0.72384 1 
0.0687457 0.199241 0.0457581 -0.349079 -0.479784 -0.804954 1 
0.0689086 0.199249 0.0454872 -0.355585 -0.686591 -0.634154 1 
0.0671617 0.199455 0.0450333 -0.990558 -0.135432 0.0212662 1 
0.0674812 0.199624 0.0453785 -0.774661 -0.626968 -0.0825339 1 
0.0672863 0.19903 0.0452427 -0.600188 -0.663717 -0.446379 1 
0.0677064 0.198936 0.0455663 -0.477491 -0.441392 -0.75972 1 
0.0682774 0.199416 0.0451496 -0.238917 -0.769844 -0.591827 1 
0.0679317 0.199216 0.0450461 -0.212675 -0.737376 -0.641129 1 
0.0676244 0.200177 0.0439314 -0.624332 -0.293709 0.72384 1 
0.0676364 0.199854 0.0442239 -0.624332 -0.293709 0.72384 1 
0.0675882 0.199692 0.044116 -0.624332 -0.293709 0.72384 1 
0.0680039 0.198731 0.0457389 -0.343746 -0.50043 -0.794612 1 
0.067632 0.198502 0.0458771 -0.422289 -0.507733 -0.750919 1 
0.0677807 0.198158 0.0461404 -0.269416 -0.556163 -0.786191 1 
0.0681527 0.198629 0.0458252 -0.267158 -0.480266 -0.835447 1 
0.0678934 0.19854 0.0457034 -0.181826 -0.530452 -0.827986 1 
0.0680925 0.199033 0.0452479 -0.159181 -0.665528 -0.729201 1 
0.068412 0.199203 0.0455931 -0.307027 -0.447293 -0.840038 1 
0.0686975 0.199079 0.0456502 -0.333352 -0.459742 -0.823112 1 
0.0684382 0.198748 0.0457054 -0.16029 -0.567755 -0.807441 1 
0.0686012 0.198757 0.0454345 -0.270317 -0.586477 -0.763527 1 
0.0683879 0.198396 0.0460701 -0.087968 -0.581165 -0.809017 1 
0.0684863 0.198183 0.0463442 -0.122385 -0.582434 -0.803612 1 
0.0681406 0.198226 0.0460638 -0.0646246 -0.633321 -0.771186 1 
0.068215 0.198175 0.0461069 -0.405897 -0.377468 -0.832325 1 
0.068227 0.197852 0.0463994 -0.492047 -0.314847 -0.811641 1 
0.0684381 0.198022 0.0462364 -0.19696 -0.494655 -0.846477 1 
0.0689611 0.198824 0.0453578 -0.495516 -0.699061 -0.515537 1 
0.0688746 0.198714 0.0453762 -0.531329 -0.581932 -0.615667 1 
0.0688122 0.1982 0.0458025 -0.300976 -0.398755 -0.866261 1 
0.0690716 0.199258 0.0452164 -0.44236 -0.789119 -0.426156 1 
0.0694882 0.199041 0.0442419 -0.535353 -0.768255 -0.350971 1 
0.0699444 0.198705 0.0449119 -0.604501 -0.628075 -0.49 1 
0.0696369 0.198939 0.0443282 -0.510288 -0.804138 -0.304909 1 
0.069824 0.199028 0.0441113 -0.363617 -0.817742 -0.446185 1 
0.0698721 0.198463 0.0447501 -0.704443 -0.429296 -0.565212 1 
0.069416 0.198799 0.0440801 -0.47831 -0.779888 -0.403726 1 
0.0693919 0.198718 0.0440262 -0.47831 -0.779888 -0.403726 1 
0.0695023 0.197941 0.0447697 -0.602478 -0.260916 -0.754283 1 
0.0696894 0.19803 0.0445528 -0.728222 -0.286487 -0.62259 1 
0.0695045 0.198374 0.0441201 -0.449 -0.686019 -0.572517 1 
0.0696653 0.198676 0.0439679 -0.152643 -0.726945 -0.669515 1 
0.0697999 0.198221 0.0445883 -0.678202 -0.444914 -0.584887 1 
0.0686843 0.200682 0.0427021 -0.624332 -0.293709 0.72384 1 
0.0686963 0.200359 0.0429946 -0.624332 -0.293709 0.72384 1 
0.0689095 0.199994 0.0428899 -0.624332 -0.293709 0.72384 1 
0.0690604 0.199598 0.0428575 -0.624332 -0.293709 0.72384 1 
0.0690965 0.199356 0.0432039 -0.90311 -0.086864 0.420532 1 
0.0690483 0.199195 0.0430961 -0.90311 -0.086864 0.420532 1 
0.069416 0.199526 0.0435491 0.129828 -0.658092 -0.74166 1 
0.0704715 0.198922 0.043796 -0.364537 -0.717632 -0.593395 1 
0.070548 0.198578 0.0437206 -0.370381 -0.653517 -0.660101 1 
0.0704999 0.198416 0.0436127 -0.370381 -0.653517 -0.660101 1 
0.0696064 0.198284 0.0456922 -0.671559 -0.402935 -0.621814 1 
0.0696382 0.197902 0.0468069 -0.33672 -0.865631 -0.370545 1 
0.0697147 0.197557 0.0467314 0.104179 -0.207103 0.972756 1 
0.0699017 0.197647 0.0465144 0.416818 -0.268279 0.868498 1 
0.0700888 0.197736 0.0462975 0.161239 -0.0600233 0.985088 1 
0.0689914 0.196815 0.0459408 -0.282805 -0.842235 0.458979 1 
0.0689433 0.197138 0.0454789 -0.699488 -0.294267 -0.651247 1 
0.0694519 0.197103 0.0454885 -0.86997 -0.411452 -0.271771 1 
0.0695745 0.197456 0.0454625 -0.790822 -0.293191 -0.537252 1 
0.0700569 0.196907 0.0460678 0.117811 -0.839221 0.530876 1 
0.0703644 0.198127 0.0455896 -0.844302 -0.450811 -0.289696 1 
0.0702036 0.19831 0.0453878 -0.570688 -0.677797 -0.46358 1 
0.0701696 0.198259 0.0449227 -0.496161 -0.607167 -0.620622 1 
0.070616 0.198679 0.0446506 -0.346921 -0.766453 -0.540551 1 
0.0704651 0.198348 0.045214 -0.571369 -0.628674 -0.527547 1 
0.0704431 0.198216 0.0448644 -0.230653 -0.654301 -0.720201 1 
0.0702659 0.197855 0.0456694 -0.948986 -0.160639 -0.271332 1 
0.0695788 0.197354 0.0448712 0.0456574 -0.518834 -0.853655 1 
0.0697637 0.197737 0.0447729 -0.153735 -0.487558 -0.859449 1 
0.0700492 0.197855 0.0446531 -0.0760814 -0.595731 -0.799572 1 
0.0699387 0.197422 0.0447945 -0.0801515 -0.490752 -0.867605 1 
0.0700974 0.198017 0.044761 -0.0792982 -0.598341 -0.797308 1 
0.0703709 0.197974 0.0447026 -0.128732 -0.593349 -0.794585 1 
0.070594 0.197821 0.0448321 -0.406349 -0.551122 -0.728797 1 
0.0708434 0.19794 0.0445428 -0.466911 -0.563975 -0.681121 1 
0.0704353 0.197711 0.0445116 -0.17196 -0.616317 -0.768494 1 
0.0702263 0.19749 0.044379 0.135079 -0.580395 -0.803053 1 
0.070827 0.197396 0.0455496 -0.90597 -0.0893597 -0.413804 1 
0.0707548 0.197154 0.0453878 -0.0638656 -0.566275 -0.821738 1 
0.071119 0.197604 0.0443658 -0.329489 -0.611907 -0.719032 1 
0.0706442 0.19672 0.0455293 0.170602 -0.795638 -0.581253 1 
0.0708072 0.196729 0.0452584 0.0238371 -0.752971 -0.657622 1 
0.0710665 0.19706 0.0452032 -0.994813 0.0520091 0.0874196 1 
0.0705317 0.19876 0.0441964 -0.368078 -0.718162 -0.590561 1 
0.0714407 0.198692 0.0437074 -0.510287 -0.621439 -0.594493 1 
0.0708073 0.198182 0.0441964 -0.423135 -0.528508 -0.735959 1 
0.0715675 0.198458 0.0434441 -0.530485 -0.740708 -0.412234 1 
0.0713323 0.198207 0.0435532 -0.62141 -0.611306 -0.490055 1 
0.0713946 0.198237 0.0434809 -0.530485 -0.740708 -0.412234 1 
0.0718771 0.198415 0.0435552 -0.462863 -0.795092 -0.391901 1 
0.0693535 0.197074 0.0453914 -0.81252 -0.486245 -0.321523 1 
0.0695143 0.196891 0.0455932 -0.409409 -0.877304 -0.250444 1 
0.0691182 0.196823 0.0455005 -0.585518 -0.609142 -0.534897 1 
0.0695022 0.196487 0.0458317 -0.322473 -0.940658 0.105707 1 
0.0696028 0.196708 0.0454562 -0.126523 -0.98447 -0.121703 1 
0.070035 0.196534 0.0458952 0.00595981 -0.969064 0.246736 1 
0.0696171 0.197061 0.044922 -0.128359 -0.568025 -0.81294 1 
0.0698544 0.197018 0.0446943 -0.0582874 -0.604199 -0.794699 1 
0.0698664 0.19718 0.0446327 0.00406156 -0.545602 -0.838034 1 
0.0698466 0.196755 0.0441645 -0.621865 -0.275148 -0.733197 1 
0.0704331 0.19655 0.0456923 0.0302075 -0.918045 -0.395324 1 
0.070572 0.196478 0.0453675 0.110045 -0.864636 -0.490199 1 
0.0716384 0.198284 0.0421892 0.624332 0.293709 -0.72384 1 
0.0671518 0.218447 0.0540757 0.164716 0.605973 -0.778245 1 
0.0669627 0.219378 0.0538803 0.617726 0.732652 -0.285718 1 
0.067013 0.219004 0.0540465 0.7692 0.126464 0.62637 1 
0.0672 0.219093 0.0538296 0.130293 0.717359 -0.684412 1 
0.067399 0.218859 0.0539051 0.0823408 0.611055 -0.787294 1 
0.0677469 0.218766 0.05389 0.164539 0.599283 -0.783446 1 
0.0673388 0.218536 0.0538588 0.100329 0.585982 -0.804089 1 
0.0675882 0.218655 0.0535695 0.198123 0.591296 -0.781739 1 
0.0678135 0.218451 0.0534033 0.224903 0.58785 -0.777079 1 
0.0672545 0.218617 0.0534045 0.100329 0.585982 -0.804089 1 
0.0675159 0.218413 0.0534077 0.204384 0.588563 -0.78219 1 
0.0677413 0.218209 0.0532416 0.229217 0.612805 -0.75626 1 
0.068099 0.218328 0.0534605 0.260788 0.599022 -0.757075 1 
0.0681996 0.218307 0.0532619 0.27375 0.583894 -0.764284 1 
0.0680268 0.218086 0.0532987 0.27375 0.583894 -0.764284 1 
0.0682258 0.217852 0.0533742 0.343809 0.604518 -0.718578 1 
0.0685737 0.217758 0.053359 0.294256 0.46863 -0.832946 1 
0.0684851 0.218183 0.053319 0.348269 0.549131 -0.759713 1 
0.068636 0.217788 0.0532867 0.194238 0.407462 -0.892327 1 
0.0673452 0.218384 0.0529718 0.201436 0.58893 -0.782678 1 
0.0678921 0.217814 0.0532092 0.285123 0.600511 -0.747055 1 
0.0678681 0.217733 0.0531552 0.285123 0.600511 -0.747055 1 
0.0681153 0.217661 0.0533386 0.33456 0.576994 -0.745082 1 
0.0684008 0.217537 0.0533958 0.200669 0.334449 -0.920802 1 
0.0686622 0.217576 0.053222 0.329596 0.647827 -0.686794 1 
0.0688109 0.217473 0.0533083 0.306846 0.605659 -0.734181 1 
0.0691588 0.21738 0.0532931 0.139197 0.449163 -0.88254 1 
0.0685156 0.217385 0.0530171 0.306846 0.605659 -0.734181 1 
0.0687507 0.217151 0.053262 0.630614 0.610434 -0.479266 1 
0.0693785 0.216862 0.0523015 0.660656 0.733556 -0.159469 1 
0.0682922 0.215358 0.0544806 0.575119 0.416008 0.704397 1 
0.0683305 0.215549 0.0541773 0.710683 0.432373 0.554962 1 
0.0683786 0.214984 0.0548161 0.624332 0.293709 -0.72384 1 
0.0694202 0.217176 0.0532963 0.419776 0.598968 -0.681928 1 
0.069185 0.216925 0.0534054 0.476712 0.543619 -0.690814 1 
0.0693479 0.216934 0.0531345 0.403829 0.555471 -0.726893 1 
0.0686181 0.215617 0.0537618 0.577728 0.434545 0.690943 1 
0.0692275 0.215804 0.0533959 0.608512 0.178436 0.773223 1 
0.0692275 0.215804 0.0533959 0.608512 0.178436 0.773223 1 
0.0694528 0.216084 0.0528756 0.603249 0.208283 0.769876 1 
0.0689901 0.215362 0.0539776 0.597903 0.412404 0.68734 1 
0.0693139 0.215429 0.0537315 0.587958 0.299586 0.751368 1 
0.0692756 0.215238 0.0540347 0.597903 0.412404 0.68734 1 
0.0695753 0.21571 0.0533807 0.608179 0.181387 0.772798 1 
0.0698247 0.215829 0.0530914 0.620294 0.198556 0.758822 1 
0.0698728 0.215506 0.0535533 0.394328 0.423064 0.815796 1 
0.069535 0.217023 0.0529176 0.668264 0.428289 0.60827 1 
0.0696498 0.21687 0.0525388 0.688914 0.585992 0.426628 1 
0.0700337 0.216534 0.0528701 0.803072 0.57104 0.170257 1 
0.0695753 0.216437 0.0528497 0.774242 0.546618 0.318994 1 
0.0698608 0.216313 0.0529068 0.735154 0.674493 0.0678826 1 
0.0701945 0.216593 0.0528948 0.777874 0.600598 0.184917 1 
0.0701223 0.216351 0.052733 0.52579 0.145807 0.838024 1 
0.0703957 0.216309 0.0526747 0.66244 0.265294 0.700566 1 
0.0700117 0.215918 0.0528745 0.56751 0.187141 0.801817 1 
0.0703596 0.215824 0.0528593 0.459733 0.401661 0.792031 1 
0.0702108 0.215684 0.05295 0.446382 0.339124 0.828093 1 
0.0703858 0.216096 0.0524406 0.390491 0.29021 0.873667 1 
0.070796 0.216032 0.0523531 0.59929 0.662725 0.449051 1 
0.0708157 0.214761 0.0540603 -0.680649 -0.570273 -0.459898 1 
0.0710126 0.214578 0.0544315 0.624332 0.293709 -0.72384 1 
0.0685175 0.214911 0.0544914 0.575119 0.416008 0.704397 1 
0.0689539 0.214877 0.0541622 0.590163 0.449728 0.670412 1 
0.0689483 0.215048 0.0529828 0.568562 0.356776 0.741248 1 
0.0692033 0.214996 0.0538729 0.614196 0.37708 0.693235 1 
0.0694145 0.215166 0.0537099 0.576345 0.34256 0.741943 1 
0.068745 0.214899 0.0538525 0.590163 0.449728 0.670412 1 
0.0693542 0.214601 0.0538405 0.595479 0.419655 0.68505 1 
0.0697765 0.215183 0.0533375 0.436835 0.395231 0.808064 1 
0.0700259 0.215302 0.0530483 0.471589 0.384675 0.793492 1 
0.0691332 0.215188 0.0530615 0.562128 0.309091 0.767121 1 
0.0699033 0.215191 0.0528973 0.480576 0.316707 0.817767 1 
0.0699395 0.215676 0.0527127 0.542295 0.230205 0.808035 1 
0.0701385 0.215442 0.0527882 0.425578 0.343917 0.837021 1 
0.0701024 0.2152 0.0527958 0.454869 0.332101 0.826319 1 
0.0704383 0.215914 0.0521342 0.389504 0.255192 0.884965 1 
0.0706614 0.21576 0.0522636 0.583297 0.70227 0.408143 1 
0.0702894 0.21432 0.0532869 -0.599625 -0.5726 -0.559087 1 
0.0705125 0.214167 0.0534163 -0.53551 -0.66645 -0.518723 1 
0.0703637 0.213785 0.053684 -0.250923 0.856178 -0.451661 1 
0.0706995 0.214256 0.0531993 -0.593011 -0.569358 -0.569358 1 
0.0704643 0.214006 0.0533084 -0.53551 -0.66645 -0.518723 1 
0.07117 0.214757 0.0529812 -0.504301 -0.30511 -0.80783 1 
0.0709589 0.214587 0.0531442 -0.56965 -0.389069 -0.723964 1 
0.0708483 0.214396 0.0531086 -0.560371 -0.437322 -0.703373 1 
0.0710353 0.214243 0.0530687 -0.718858 0.503034 -0.479792 1 
0.0712947 0.214817 0.0528366 -0.480285 -0.310217 -0.820422 1 
0.0713712 0.214473 0.0527611 -0.622456 0.541486 -0.565103 1 
0.0715299 0.215067 0.0527275 -0.389345 -0.238344 -0.88972 1 
0.0717169 0.215156 0.0525105 -0.492947 -0.286379 -0.821578 1 
0.0716928 0.214834 0.0526336 -0.35788 -0.459677 -0.812785 1 
0.0716085 0.21443 0.0525334 -0.486951 0.773584 -0.405521 1 
0.0718558 0.214842 0.0523628 -0.247238 0.961768 -0.117794 1 
0.0708143 0.214103 0.0528206 -0.539721 -0.233518 -0.808808 1 
0.0712486 0.21412 0.0527871 -0.698486 0.351697 -0.623239 1 
0.070927 0.213759 0.0529146 -0.694669 0.36622 -0.619126 1 
0.071486 0.21432 0.0523824 -0.486951 0.773584 -0.405521 1 
0.0717474 0.214358 0.0522086 -0.461436 0.785251 -0.412864 1 
0.0713032 0.214129 0.052008 -0.700056 0.390384 -0.597931 1 
0.0724792 0.214655 0.0519936 -0.141031 0.977234 0.158504 1 
0.0721576 0.214778 0.0517671 -0.406319 0.738612 -0.53792 1 
0.0722965 0.214706 0.0514423 -0.389262 0.808959 -0.440522 1 
0.0728227 0.214178 0.0529237 0.624332 0.293709 -0.72384 1 
0.0726379 0.214765 0.052314 -0.258757 0.706421 -0.658797 1 
0.0727746 0.214744 0.0522848 0.112011 0.138508 -0.984007 1 
0.074196 0.222653 0.0531659 0.466539 -0.208517 0.859571 1 
0.0740996 0.222331 0.0529501 0.421311 -0.172289 0.890401 1 
0.0740514 0.222169 0.0528423 0.46469 -0.168578 0.869278 1 
0.0739912 0.221604 0.052973 0.62599 -0.116911 0.771018 1 
0.0743893 0.221621 0.05277 0.320597 -0.11402 0.940328 1 
0.0742788 0.22143 0.0527344 0.420372 -0.141074 0.896318 1 
0.0745643 0.221307 0.0527916 0.455835 -0.161654 0.875261 1 
0.074468 0.220984 0.0525759 0.403314 -0.140099 0.904273 1 
0.0745083 0.220397 0.052508 0.579103 -0.180875 0.794937 1 
0.0747698 0.220193 0.0525112 0.449384 -0.0876507 0.889028 1 
0.0775516 0.219184 0.0546331 -0.624332 -0.293709 0.72384 1 
0.0770709 0.223782 0.0527895 -0.624332 -0.293709 0.72384 1 
0.0748775 0.223324 0.0527847 0.440568 -0.206192 0.873719 1 
0.075185 0.223817 0.0528374 0.18733 -0.107932 0.976349 1 
0.0755208 0.223804 0.0527068 0.143008 -0.27666 0.950267 1 
0.0752615 0.223473 0.052762 0.334098 -0.249479 0.908922 1 
0.0752133 0.223311 0.0526541 0.309779 -0.213592 0.926507 1 
0.0753501 0.22329 0.0526249 0.314333 -0.233955 0.920033 1 
0.0754485 0.223562 0.052545 0.269816 -0.28713 0.919106 1 
0.075734 0.223439 0.0526021 0.216523 -0.336973 0.916279 1 
0.0745941 0.22267 0.0529629 0.40251 -0.161863 0.900992 1 
0.074954 0.22298 0.0527092 0.322756 -0.195909 0.925985 1 
0.07457 0.22259 0.052909 0.410227 -0.152942 0.899068 1 
0.0747812 0.222759 0.052746 0.404124 -0.181059 0.896605 1 
0.0749802 0.222768 0.0526445 0.294221 -0.183715 0.937914 1 
0.0746225 0.222407 0.0526026 0.376167 -0.129091 0.917515 1 
0.0749079 0.222284 0.0526597 0.345416 -0.133487 0.928907 1 
0.0750164 0.22301 0.0526369 0.299275 -0.206542 0.931545 1 
0.0753281 0.223159 0.0522753 0.33343 -0.232391 0.913684 1 
0.0755753 0.223086 0.0524587 0.338893 -0.279698 0.898288 1 
0.0755654 0.222874 0.0522246 0.403073 -0.304987 0.862853 1 
0.0754691 0.222793 0.0518319 0.44269 -0.338713 0.83024 1 
0.075316 0.222755 0.0525139 0.3465 -0.198204 0.916871 1 
0.0751191 0.222453 0.0524967 0.322761 -0.180243 0.92916 1 
0.0757645 0.222882 0.0521231 0.381421 -0.359625 0.85158 1 
0.0756682 0.222559 0.0519074 0.41946 -0.335256 0.843598 1 
0.076305 0.22295 0.0528934 0.23377 -0.371974 0.898324 1 
0.0756879 0.2225 0.0527296 0.286465 -0.176813 0.941634 1 
0.0756901 0.222207 0.052611 0.342384 -0.194633 0.91918 1 
0.0759876 0.222487 0.0524296 0.418117 -0.258115 0.870951 1 
0.0763914 0.223302 0.0526981 0.192271 -0.430041 0.882098 1 
0.0767514 0.223612 0.0524443 0.166431 -0.556271 0.814164 1 
0.0768279 0.223268 0.0523689 0.249373 -0.591282 0.766941 1 
0.0770872 0.223599 0.0523137 0.490066 -0.618056 0.614688 1 
0.0765587 0.222967 0.0520129 0.347526 -0.538261 0.76779 1 
0.0765948 0.222724 0.0523593 0.324515 -0.47965 0.815246 1 
0.0765105 0.222805 0.051905 0.340055 -0.499705 0.796654 1 
0.0763234 0.222474 0.0522989 0.422765 -0.296704 0.856292 1 
0.0769688 0.222903 0.0519254 0.538552 -0.669415 0.511708 1 
0.0766735 0.222814 0.0516341 0.392649 -0.553651 0.734368 1 
0.0744354 0.222318 0.0528195 0.360795 -0.15583 0.919535 1 
0.0743872 0.222156 0.0527117 0.397215 -0.145598 0.906102 1 
0.0746487 0.222194 0.0525379 0.357551 -0.146081 0.922398 1 
0.0748597 0.222122 0.0525519 0.411079 -0.181572 0.893334 1 
0.0751835 0.221948 0.0524827 0.450465 -0.187571 0.872868 1 
0.0747252 0.22185 0.0524624 0.432644 -0.202294 0.878577 1 
0.0745764 0.22171 0.0525531 0.393361 -0.225409 0.891324 1 
0.0747754 0.221719 0.0524516 0.458536 -0.204624 0.864797 1 
0.0747252 0.22185 0.0524624 0.432644 -0.202294 0.878577 1 
0.0751212 0.22216 0.052378 0.427304 -0.208477 0.879744 1 
0.075457 0.222147 0.0522474 0.437782 -0.222626 0.871082 1 
0.0754811 0.22247 0.0521243 0.46101 -0.275989 0.843386 1 
0.0747273 0.221315 0.0525207 0.463356 -0.130543 0.876504 1 
0.0754032 0.22143 0.0514911 0.643732 -0.32592 0.692377 1 
0.0752062 0.22137 0.051297 0.64559 -0.363042 0.671874 1 
0.0749866 0.221646 0.0524656 0.453819 -0.203847 0.867464 1 
0.0755576 0.221399 0.0525799 0.37285 -0.181425 0.909982 1 
0.0756801 0.221994 0.0523769 0.470701 -0.215049 0.855684 1 
0.0755817 0.222207 0.0521028 0.470875 -0.253076 0.845121 1 
0.076016 0.221981 0.0522462 0.43769 -0.266884 0.858604 1 
0.0754712 0.221773 0.0522442 0.472718 -0.205595 0.856895 1 
0.0755838 0.221671 0.0521612 0.533188 -0.239548 0.811373 1 
0.0752742 0.221472 0.0522271 0.48535 -0.2267 0.844418 1 
0.0755094 0.221722 0.052118 0.509621 -0.252487 0.822519 1 
0.0759437 0.221739 0.0520845 0.525285 -0.277539 0.804392 1 
0.0760705 0.221506 0.0518212 0.683981 -0.341174 0.644803 1 
0.0747414 0.220941 0.0525175 0.512291 -0.197965 0.835684 1 
0.0749285 0.22103 0.0523006 0.362366 -0.190493 0.912361 1 
0.0748761 0.221455 0.05243 0.376293 -0.210666 0.902232 1 
0.0748803 0.220869 0.0521928 0.423932 -0.182101 0.887198 1 
0.0751899 0.221068 0.0521268 0.522655 -0.266788 0.809726 1 
0.0751176 0.220826 0.051965 0.576883 -0.273427 0.769704 1 
0.0753245 0.22134 0.0522163 0.450565 -0.214056 0.866701 1 
0.0757205 0.221166 0.052486 0.44971 -0.257631 0.855212 1 
0.0760323 0.221314 0.0521244 0.644789 -0.347696 0.680701 1 
0.0762214 0.22111 0.0517888 0.769551 -0.232582 0.594724 1 
0.0762334 0.220787 0.0520812 0.648126 -0.209825 0.732056 1 
0.0761852 0.220626 0.0519734 0.832241 -0.00681048 0.554373 1 
0.0760542 0.222173 0.051943 0.480619 -0.334688 0.810549 1 
0.0764142 0.222483 0.0516893 0.454843 -0.393769 0.798789 1 
0.0763419 0.22224 0.0515275 0.651738 -0.506907 0.564166 1 
0.075982 0.22193 0.0517812 0.564771 -0.326634 0.757855 1 
0.0761329 0.222262 0.0512179 0.74442 -0.463818 0.480324 1 
0.0762215 0.221837 0.0512578 0.851609 -0.281816 0.441974 1 
0.0762576 0.221595 0.0516042 0.790978 -0.368908 0.488119 1 
0.076553 0.22241 0.0513645 0.669761 -0.413823 0.616579 1 
0.07631 0.22117 0.0514748 0.854296 -0.160826 0.494282 1 
0.0758658 0.221183 0.0510972 0.836052 -0.177979 0.51898 1 
0.0762661 0.221633 0.0502446 0.904573 -0.216343 0.367347 1 
0.0750454 0.220584 0.0518032 0.650715 -0.241064 0.720041 1 
0.0749589 0.220232 0.0519986 0.570698 -0.103103 0.814661 1 
0.0752685 0.220431 0.0519326 0.687286 -0.0986042 0.719663 1 
0.0753713 0.220601 0.0512615 0.766933 -0.0858615 0.635957 1 
0.0753833 0.220278 0.0515539 0.768381 0.11696 0.629214 1 
0.0750694 0.219938 0.0523881 0.444554 -0.00923407 0.895704 1 
0.0760506 0.220112 0.0520609 0.781739 0.198123 0.591296 1 
0.0760527 0.219819 0.0519423 0.424641 0.752549 0.503339 1 
0.0758842 0.219738 0.0512108 0.610625 0.549731 0.570029 1 
0.0761675 0.219666 0.0515635 0.281529 0.880718 0.380892 1 
0.0757936 0.220941 0.0509354 0.851391 -0.0659232 0.520372 1 
0.0760047 0.221111 0.0507724 0.910817 -0.0549978 0.40913 1 
0.0760047 0.220869 0.0509494 0.869869 0.0257839 0.492609 1 
0.0755966 0.220639 0.0509183 0.818255 0.0938035 0.56715 1 
0.0756851 0.220214 0.0509582 0.708687 0.386407 0.590298 1 
0.0759203 0.220223 0.0510262 0.708687 0.386407 0.590298 1 
0.0760309 0.220656 0.0508847 0.851844 0.117147 0.510528 1 
0.0760833 0.220473 0.0505783 0.738352 0.279075 0.613965 1 
0.0762803 0.221259 0.0502415 0.884518 -0.0533172 0.463449 1 
0.0765658 0.221378 0.0501216 0.87117 0.168377 0.461208 1 
0.0765778 0.221055 0.0504141 0.912538 0.00908644 0.40889 1 
0.0762683 0.220856 0.05048 0.81093 0.112507 0.574226 1 
0.0764411 0.220592 0.0507972 0.95554 -0.00122348 0.294859 1 
0.0765679 0.220116 0.0507109 0.783764 0.338188 0.520906 1 
0.0767769 0.220579 0.0506666 0.894756 0.153182 0.419461 1 
0.0766564 0.220418 0.0502199 0.630575 0.337284 0.69901 1 
0.0762802 0.219806 0.0513034 0.810515 0.472933 0.345544 1 
0.0764672 0.219895 0.0510865 0.890497 0.213425 0.401827 1 
0.0767549 0.220205 0.050494 0.704241 0.262302 0.659729 1 
0.076602 0.221863 0.049937 0.624332 0.293709 -0.72384 1 
0.0767933 0.221366 0.0494828 0.624332 0.293709 -0.72384 1 
0.0768788 0.220005 0.0525927 -0.624332 -0.293709 0.72384 1 
0.0758536 0.219326 0.0523978 -0.29635 0.356522 0.886041 1 
0.0770438 0.218994 0.0527342 -0.624332 -0.293709 0.72384 1 
0.0897146 0.219723 0.0454282 0.516151 -0.228209 0.825535 1 
0.0891939 0.219596 0.0454801 0.702092 0.0770411 0.707906 1 
0.0898896 0.219408 0.0454498 0.59971 0.401459 0.692227 1 
0.0893448 0.219201 0.0454478 0.675678 -0.209693 0.706744 1 
0.0897933 0.219086 0.0452341 0.755431 -0.253913 0.60403 1 
0.0901915 0.220071 0.0443231 0.786144 -0.0732968 0.613681 1 
0.0905033 0.22022 0.0439615 0.744615 0.145914 0.65135 1 
0.0899279 0.2196 0.0451465 0.570649 -0.337863 0.748471 1 
0.0901412 0.219719 0.0446879 0.690339 -0.206326 0.693442 1 
0.0900044 0.219255 0.045071 0.546726 -0.483192 0.683825 1 
0.0902921 0.219323 0.0446555 0.652721 0.00137996 0.757597 1 
0.0908248 0.219854 0.0443651 0.655334 0.275846 0.703169 1 
0.0904671 0.219736 0.0441461 0.639636 0.279143 0.716201 1 
0.0904692 0.219442 0.0440275 0.652924 0.301474 0.694841 1 
0.0904791 0.219413 0.0444386 0.660343 0.233708 0.713672 1 
0.0902692 0.21869 0.0467263 -0.624332 -0.293709 0.72384 1 
0.0911748 0.219225 0.0444082 0.543936 0.296548 0.78498 1 
0.0911388 0.220436 0.0433538 0.71308 0.237693 0.65956 1 
0.0910665 0.220194 0.043192 0.785594 0.107193 0.609386 1 
0.0913038 0.220394 0.0427874 0.734263 0.0470499 0.677233 1 
0.0911989 0.220033 0.0439312 0.667038 0.297354 0.683111 1 
0.0911005 0.220245 0.0436571 0.721199 0.203176 0.662262 1 
0.0908412 0.219914 0.0437123 0.713412 0.262167 0.649856 1 
0.0909779 0.219893 0.0436831 0.661945 0.31236 0.681366 1 
0.0909921 0.219519 0.0436799 0.609549 0.398107 0.685537 1 
0.0911026 0.219952 0.0435385 0.612676 0.333153 0.716685 1 
0.0911791 0.219608 0.043463 0.572636 0.423252 0.702101 1 
0.0916474 0.220644 0.0431865 0.50574 0.495726 0.706033 1 
0.0919089 0.220682 0.0430127 0.358863 0.617768 0.6997 1 
0.0912677 0.21991 0.0429719 0.519636 0.456549 0.722178 1 
0.091714 0.22033 0.0426999 0.40252 0.493779 0.770817 1 
0.0915773 0.220109 0.042906 0.394557 0.528804 0.751459 1 
0.0914547 0.219999 0.042755 0.503034 0.479792 0.718858 1 
0.0916418 0.220088 0.0425381 0.342161 0.52529 0.7791 1 
0.0913661 0.219697 0.043246 0.537513 0.464292 0.703926 1 
0.0916638 0.220946 0.0423567 0.020041 0.88581 0.463614 1 
0.0919755 0.220853 0.0421721 0.193525 0.559241 0.8061 1 
0.0915915 0.220704 0.0421948 0.300166 0.601937 0.739981 1 
0.0917906 0.22047 0.0422704 0.117095 0.638837 0.760379 1 
0.0921965 0.220508 0.0427742 0.310887 0.543654 0.779609 1 
0.0923835 0.220597 0.0425572 0.204227 0.572758 0.793876 1 
0.0923474 0.220113 0.0427418 0.294685 0.466194 0.83416 1 
0.092448 0.220334 0.0423662 0.247728 0.45442 0.855648 1 
0.0928561 0.220563 0.0423974 0.258014 0.622082 0.739217 1 
0.0929425 0.220916 0.042202 0.247433 0.644585 0.723386 1 
0.0922511 0.220517 0.0419951 0.212341 0.609125 0.764119 1 
0.0923878 0.220495 0.0419659 0.246977 0.62452 0.74093 1 
0.0929063 0.219705 0.0429176 0.296543 0.448696 0.843051 1 
0.0932422 0.220418 0.042256 0.269016 0.549044 0.791316 1 
0.093007 0.220168 0.042365 0.290981 0.471483 0.832487 1 
0.0934412 0.2197 0.0426855 0.47005 0.312842 0.825338 1 
0.0880975 0.219903 0.0421721 -0.624332 -0.293709 0.72384 1 
0.0880996 0.21961 0.0420534 -0.624332 -0.293709 0.72384 1 
0.0884411 0.220154 0.0425712 -0.624332 -0.293709 0.72384 1 
0.0883568 0.219508 0.0426479 -0.624332 -0.293709 0.72384 1 
0.0889497 0.21915 0.0432888 -0.624332 -0.293709 0.72384 1 
0.0882626 0.219619 0.0417825 -0.624332 -0.293709 0.72384 1 
0.088174 0.220044 0.0417426 -0.624332 -0.293709 0.72384 1 
0.0884475 0.220001 0.0416843 -0.624332 -0.293709 0.72384 1 
0.0894584 0.219843 0.0427674 -0.624332 -0.293709 0.72384 1 
0.0888173 0.220039 0.0420187 -0.624332 -0.293709 0.72384 1 
0.0890447 0.220026 0.0413798 -0.624332 -0.293709 0.72384 1 
0.0889531 0.218789 0.0449408 0.0831576 -0.701734 0.707569 1 
0.0890919 0.218717 0.044616 -0.775047 -0.537559 0.332163 1 
0.0892726 0.218958 0.045286 0.778179 0.148439 0.610248 1 
0.0897954 0.218792 0.0451154 0.456148 -0.780808 0.426928 1 
0.0892507 0.219311 0.0445824 0.220434 -0.933684 0.282211 1 
0.0902198 0.219081 0.0444937 0.589568 0.109721 0.800232 1 
0.0899506 0.21878 0.0441378 0.224647 -0.970124 0.0916158 1 
0.0906541 0.219098 0.0444602 0.600067 0.328338 0.729461 1 
0.0905457 0.219098 0.043952 0.572662 0.37904 0.726903 1 
0.0904735 0.218856 0.0437902 0.503023 0.398837 0.766744 1 
0.0893237 0.218844 0.0432089 -0.624332 -0.293709 0.72384 1 
0.0906321 0.218724 0.0442876 0.605251 0.347489 0.716186 1 
0.0912895 0.218588 0.0443835 0.44905 0.32075 0.83395 1 
0.0914525 0.218596 0.0441127 0.505245 0.50191 0.702007 1 
0.09133 0.219213 0.0434306 0.572926 0.485559 0.660293 1 
0.0917522 0.219552 0.0431046 0.475285 0.43282 0.76601 1 
0.0910729 0.219315 0.0428361 0.530484 0.533852 0.658474 1 
0.0907676 0.219498 0.0419568 -0.624332 -0.293709 0.72384 1 
0.0914143 0.219132 0.0438849 0.561852 0.458484 0.68856 1 
0.0915028 0.218949 0.0437478 0.5481 0.497816 0.672135 1 
0.0918386 0.218936 0.0436172 0.454993 0.548325 0.701656 1 
0.0918506 0.218613 0.0439097 0.388221 0.619501 0.682278 1 
0.0918649 0.219208 0.0431985 0.495172 0.465363 0.73365 1 
0.0920377 0.218944 0.0435157 0.461327 0.547929 0.697819 1 
0.0924096 0.219416 0.0432005 0.323209 0.438753 0.83847 1 
0.0923877 0.219042 0.0430279 0.231894 0.577401 0.782837 1 
0.0919272 0.218511 0.0436572 0.433374 0.695723 0.57285 1 
0.0922367 0.218711 0.0435913 0.453985 0.533807 0.713406 1 
0.0925606 0.219747 0.0426371 0.260628 0.485786 0.834317 1 
0.0927235 0.219029 0.0428973 0.324515 0.47965 0.815246 1 
0.0929849 0.219067 0.0427235 0.285752 0.44639 0.847987 1 
0.0937673 0.221655 0.0407278 -0.624332 -0.293709 0.72384 1 
0.0938154 0.221332 0.0411896 -0.624332 -0.293709 0.72384 1 
0.093916 0.221068 0.0411681 -0.624332 -0.293709 0.72384 1 
0.0938515 0.221089 0.041536 0.562928 0.505795 0.653669 1 
0.0933527 0.220852 0.0421145 0.247639 0.657743 0.711372 1 
0.0935539 0.220567 0.0418944 0.219806 0.656299 0.721773 1 
0.0938132 0.220898 0.0418393 0.565841 0.462354 0.682681 1 
0.093928 0.220745 0.0414605 0.565841 0.462354 0.682681 1 
0.0937672 0.220444 0.0416128 0.313723 0.596877 0.738455 1 
0.0908217 0.218192 0.047966 -0.859714 -0.498031 -0.113385 1 
0.0907615 0.218354 0.0475657 -0.880044 -0.472185 0.0506401 1 
0.0803654 0.212619 0.0654236 0.624332 0.293709 -0.72384 1 
0.0807416 0.213231 0.0643401 0.624332 0.293709 -0.72384 1 
0.0813509 0.212933 0.0643281 -0.460109 0.87865 0.127569 1 
0.0811531 0.212614 0.0663773 0.624332 0.293709 -0.72384 1 
0.0812317 0.212461 0.0658292 0.624332 0.293709 -0.72384 1 
0.0816879 0.21261 0.0661452 0.624332 0.293709 -0.72384 1 
0.0820981 0.212546 0.0660577 0.624332 0.293709 -0.72384 1 
0.0812459 0.212572 0.065472 0.101171 0.96433 0.244604 1 
0.0813324 0.212682 0.0654536 0.101171 0.96433 0.244604 1 
0.0820182 0.212767 0.0648352 0.173595 0.951408 0.254337 1 
0.0815237 0.212912 0.0644684 -0.553166 0.82464 0.118223 1 
0.0817851 0.21295 0.0642946 -0.635138 0.766546 0.0949057 1 
0.0818913 0.212516 0.0654524 -0.0602432 0.972497 0.22499 1 
0.0821286 0.212474 0.0652247 0.211081 0.97297 0.0936749 1 
0.0817602 0.212125 0.066838 0.624332 0.293709 -0.72384 1 
0.0827655 0.212622 0.0663877 0.624332 0.293709 -0.72384 1 
0.0813935 0.213265 0.0632566 0.65085 0.753231 0.095068 1 
0.081237 0.21383 0.0621096 0.303548 0.943023 0.136259 1 
0.0803082 0.213232 0.0623074 0.175077 0.983488 -0.0458256 1 
0.0804329 0.213049 0.0623397 0.171028 0.964805 0.19975 1 
0.0806723 0.212956 0.0618163 0.324267 0.924656 0.199658 1 
0.0803507 0.212837 0.0617668 0.264957 0.950885 0.16005 1 
0.0812073 0.21392 0.0608762 -0.448944 0.891024 0.067273 1 
