0.0883799 0.213262 0.0322321 -0.0669626 -0.266587 -0.961482 2 
0.08866 0.213161 0.0321976 -0.122202 -0.227681 -0.966037 2 
0.08889 0.213014 0.0318883 -0.211746 -0.195765 -0.957517 2 
0.0881346 0.212584 0.0322408 0.0875573 -0.0830089 -0.992695 2 
0.0886109 0.212469 0.0321 -0.272328 -0.263773 -0.925344 2 
0.0888079 0.212665 0.0322508 -0.294369 -0.181044 -0.938387 2 
0.089255 0.212177 0.0321028 0.0839171 -0.419586 -0.903829 2 
0.0886757 0.212272 0.0323384 -0.341118 -0.308058 -0.88811 2 
0.0869179 0.214966 0.0318588 0.933633 -0.340119 -0.11247 2 
0.0868982 0.214648 0.0317683 -0.0752105 0.534988 -0.841506 2 
0.0868791 0.214539 0.031935 -0.103989 0.491453 -0.864673 2 
0.0880383 0.214559 0.0317207 0.00661874 -0.459341 -0.888235 2 
0.0877392 0.214552 0.0319219 0.324864 0.277825 -0.904034 2 
0.0878142 0.214619 0.0323341 0.39552 0.860294 -0.321648 2 
0.0879804 0.214023 0.0319635 0.205273 -0.15105 -0.966978 2 
0.0883832 0.21426 0.0319247 0.0338314 -0.466874 -0.883677 2 
0.0882415 0.213812 0.0320956 0.124408 -0.343146 -0.931007 2 
0.0881731 0.213868 0.0322446 0.0676003 -0.356559 -0.931824 2 
0.0890386 0.214601 0.0310225 0.933633 -0.340119 -0.11247 2 
0.0892961 0.214249 0.0315419 -0.205805 -0.292607 -0.933823 2 
0.0891639 0.213856 0.0316296 -0.0781192 -0.34293 -0.936107 2 
0.0886978 0.214235 0.0319442 -0.112226 -0.3921 -0.913052 2 
0.0889624 0.214166 0.031689 -0.214784 -0.261898 -0.940892 2 
0.0885216 0.21371 0.0320611 -0.127759 -0.193536 -0.972739 2 
0.0897748 0.213906 0.0320925 0.0890284 -0.181716 -0.979313 2 
0.0896426 0.213513 0.0321802 0.147301 -0.293251 -0.94462 2 
0.0900359 0.213696 0.0322246 0.933633 -0.340119 -0.11247 2 
0.0752946 0.21648 0.0382412 0.609031 0.588786 -0.531426 2 
0.0754077 0.216765 0.0383202 0.601425 0.0822092 -0.794688 2 
0.0757035 0.215774 0.0384265 0.863713 0.493754 0.101027 2 
0.0754682 0.216217 0.0386889 0.871167 0.465498 -0.156139 2 
0.0753791 0.216601 0.0385701 0.508687 0.488674 -0.708827 2 
0.0752191 0.216254 0.0391649 0.968289 0.17406 -0.179217 2 
0.0754255 0.216505 0.0392323 0.974883 0.0981093 -0.199944 2 
0.0760956 0.215588 0.0395497 0.933633 -0.340119 -0.11247 2 
0.0752431 0.216923 0.0391251 0.677455 0.0892543 -0.730129 2 
0.075587 0.217271 0.0391518 0.906787 0.0170597 -0.421243 2 
0.0754693 0.217492 0.039283 0.916244 0.0116636 -0.400452 2 
0.0757425 0.216252 0.0399433 0.933633 -0.340119 -0.11247 2 
0.0764435 0.216237 0.0378532 0.0198048 -0.901778 0.431745 2 
0.0771116 0.216614 0.0378162 -0.0209249 -0.629141 0.77701 2 
0.077083 0.216451 0.0380661 0.776628 -0.629885 0.00969054 2 
0.0774071 0.21648 0.0380024 -0.332868 -0.62839 0.703082 2 
0.077275 0.216086 0.0380901 0.629489 -0.750128 0.202612 2 
0.0770889 0.216364 0.0383702 0.800939 -0.594615 -0.0702076 2 
0.0770844 0.21687 0.0385803 -0.807008 -0.590527 0.0041104 2 
0.0775298 0.216819 0.037998 -0.161668 -0.450048 0.878249 2 
0.0780268 0.216375 0.0381249 -0.170383 -0.883954 0.435424 2 
0.0762137 0.215526 0.0380827 -0.084543 -0.996323 -0.0139121 2 
0.0769496 0.215688 0.0392326 0.767845 -0.640563 0.00968453 2 
0.0769994 0.216589 0.0395873 0.933633 -0.340119 -0.11247 2 
0.0774338 0.216065 0.0385741 0.826157 -0.555097 -0.0966013 2 
0.0775648 0.216089 0.0395652 0.933633 -0.340119 -0.11247 2 
0.0772118 0.216753 0.0399588 0.933633 -0.340119 -0.11247 2 
0.076056 0.214951 0.0393688 0.933633 -0.340119 -0.11247 2 
0.076253 0.215147 0.0395195 0.933633 -0.340119 -0.11247 2 
0.0752523 0.212166 0.0410569 0.450408 -0.641287 0.621195 2 
0.0747855 0.212336 0.0411144 0.438405 -0.611766 0.65844 2 
0.0748796 0.212512 0.04136 0.442058 -0.612209 0.65558 2 
0.0758056 0.212697 0.0405066 0.933633 -0.340119 -0.11247 2 
0.0754574 0.211998 0.0406102 0.472059 -0.733763 0.488623 2 
0.0753253 0.211604 0.0406978 0.445611 -0.768801 0.458669 2 
0.0742704 0.212024 0.0413314 0.362913 -0.635507 0.681487 2 
0.0743983 0.212066 0.041374 0.368279 -0.577789 0.728375 2 
0.07456 0.211976 0.0412136 0.376684 -0.63329 0.676057 2 
0.0747474 0.212118 0.0414477 0.36028 -0.565688 0.741752 2 
0.074851 0.212348 0.04161 0.34405 -0.611464 0.712559 2 
0.0747284 0.212009 0.0416143 0.36028 -0.565688 0.741752 2 
0.0751413 0.21251 0.0417492 0.421356 -0.651187 0.631201 2 
0.0748319 0.212239 0.0417766 0.394416 -0.585848 0.707968 2 
0.0744784 0.214616 0.04233 -0.933633 0.340119 0.11247 2 
0.0748169 0.213338 0.0418929 -0.407942 -0.37329 0.833209 2 
0.0748067 0.213074 0.0417191 0.0903708 -0.54079 0.836289 2 
0.0754109 0.213001 0.0416208 0.269438 -0.664827 0.696713 2 
0.074979 0.214313 0.0420694 -0.419449 -0.487998 0.765454 2 
0.0759673 0.213513 0.042019 -0.172345 -0.733611 0.657352 2 
0.0764531 0.213452 0.0417949 -0.124041 -0.948311 0.292096 2 
0.0765524 0.213332 0.0420874 -0.125848 -0.919657 0.372012 2 
0.0746847 0.212944 0.0419805 0.213149 -0.553575 0.80506 2 
0.0749853 0.21337 0.0422936 -0.445998 -0.400915 0.80022 2 
0.0749124 0.213932 0.0426527 -0.448776 -0.419613 0.789003 2 
0.0754035 0.213575 0.0424754 -0.275692 -0.619909 0.734648 2 
0.0757336 0.213518 0.0427157 -0.1462 -0.83142 0.536066 2 
0.0756452 0.214112 0.0428541 -0.425721 -0.870998 0.245203 2 
0.0757438 0.213782 0.0428895 -0.239677 -0.928927 0.282224 2 
0.0760835 0.213779 0.0430465 -0.169379 -0.947169 0.272362 2 
0.076229 0.213512 0.0424083 -0.127518 -0.90664 0.402173 2 
0.076662 0.213475 0.0425537 -0.30033 -0.944087 0.136024 2 
0.0760542 0.213406 0.0430394 -0.169379 -0.947169 0.272362 2 
0.0766679 0.213388 0.0428578 -0.30033 -0.944087 0.136024 2 
0.076304 0.213578 0.0428205 -0.169379 -0.947169 0.272362 2 
0.0611799 0.1843 0.0655166 0.471412 -0.302268 0.828495 1 
0.0615038 0.185186 0.0655328 0.390036 -0.346526 0.853107 1 
0.061323 0.185167 0.0658599 0.444837 -0.393448 0.804561 1 
0.0617975 0.183567 0.0648678 0.933633 -0.340119 -0.11247 1 
0.06306 0.184674 0.0648958 0.685321 -0.490951 0.537868 1 
0.062677 0.184755 0.0650251 0.447011 -0.213788 0.868606 1 
0.0617341 0.184183 0.0651436 0.33215 -0.344283 0.878149 1 
0.0613564 0.183968 0.0653198 0.498105 -0.282624 0.819765 1 
0.0617736 0.18482 0.0653245 0.355439 -0.358516 0.863209 1 
0.0618177 0.184951 0.0652953 0.413424 -0.341659 0.844008 1 
0.0616412 0.185283 0.0654921 0.531637 -0.50145 0.682576 1 
0.0622845 0.184781 0.0652377 0.5424 -0.46563 0.699279 1 
0.0615481 0.18446 0.0654237 0.326379 -0.372348 0.868812 1 
0.0614459 0.184649 0.0657756 0.335312 -0.365934 0.868135 1 
0.0626337 0.184833 0.0653114 0.464213 -0.269891 0.843603 1 
0.0640937 0.188218 0.0645711 0.728263 -0.434316 0.530096 1 
0.0644972 0.188665 0.0647894 0.77658 -0.377752 0.504209 1 
0.0651448 0.188514 0.0644048 0.819331 -0.329942 0.468866 1 
0.0644869 0.188401 0.0646156 0.771426 -0.378405 0.511577 1 
0.0648897 0.188638 0.0645767 0.781769 -0.293362 0.550251 1 
0.0636377 0.186939 0.0646427 0.650017 -0.333969 0.6826 1 
0.0631222 0.185561 0.0645227 0.541808 -0.143203 0.828213 1 
0.0633388 0.186075 0.0647639 0.630104 -0.226712 0.742678 1 
0.0632603 0.185867 0.0647391 0.610428 -0.178105 0.771788 1 
0.063497 0.185844 0.0649909 0.649546 -0.23008 0.724674 1 
0.0635055 0.186545 0.0647304 0.740248 -0.427003 0.519328 1 
0.0636782 0.186929 0.0650008 0.696602 -0.358955 0.621206 1 
0.0633783 0.186712 0.0649449 0.667214 -0.362296 0.65082 1 
0.0631828 0.186935 0.0653083 0.65082 -0.362296 0.667214 1 
0.0641983 0.187801 0.0649106 0.707475 -0.400738 0.582141 1 
0.0638294 0.187431 0.0647465 0.706061 -0.415038 0.573778 1 
0.0638985 0.187585 0.0648547 0.755341 -0.407982 0.512845 1 
0.0641697 0.187638 0.0651606 0.756048 -0.418204 0.503485 1 
0.0641783 0.18834 0.0649001 0.752163 -0.452614 0.478948 1 
0.0643019 0.188032 0.0650729 0.758887 -0.42124 0.496637 1 
0.0643555 0.188217 0.0649604 0.754621 -0.481708 0.445539 1 
0.0635507 0.187952 0.0652952 0.698613 -0.325803 0.637018 1 
0.0641402 0.188122 0.0652333 0.763828 -0.462876 0.449792 1 
0.0638308 0.18785 0.0652607 0.736119 -0.410053 0.538503 1 
0.0637579 0.188412 0.0656198 0.612853 -0.236677 0.753919 1 
0.064038 0.188311 0.0655852 0.720063 -0.360848 0.592705 1 
0.0629034 0.187246 0.0655999 0.679803 -0.380229 0.627131 1 
0.0627078 0.187469 0.0659633 0.576361 -0.309854 0.756173 1 
0.0631099 0.187497 0.0656674 0.638206 -0.3995 0.658098 1 
0.063007 0.187476 0.0657622 0.680084 -0.373799 0.630683 1 
0.0633149 0.187329 0.0652206 0.684432 -0.369298 0.628627 1 
0.0637663 0.187191 0.0649424 0.710563 -0.36923 0.598973 1 
0.0634185 0.187559 0.0653829 0.715318 -0.417957 0.560029 1 
0.0635481 0.187164 0.0658598 0.638206 -0.3995 0.658098 1 
0.0635514 0.188162 0.0655523 0.776002 -0.431112 0.460395 1 
0.0631487 0.187924 0.0655912 0.668475 -0.312386 0.674949 1 
0.0633213 0.188308 0.0658616 0.515013 -0.120411 0.848683 1 
0.0632135 0.187727 0.0658296 0.573056 -0.316224 0.756048 1 
0.0638125 0.187951 0.0656844 0.743922 -0.387493 0.544453 1 
0.0636162 0.187964 0.0657908 0.67161 -0.283711 0.684433 1 
0.063916 0.188181 0.0658467 -0.363042 0.671874 0.64559 1 
0.0645313 0.187676 0.0645065 0.742336 -0.508607 0.436184 1 
0.0644584 0.188238 0.0648656 0.766996 -0.402225 0.499932 1 
0.0645334 0.188304 0.0652778 0.703083 -0.36875 0.608028 1 
0.0643917 0.187856 0.0654488 0.769063 -0.416372 0.48495 1 
0.0621238 0.188926 0.066489 0.933633 -0.340119 -0.11247 1 
0.0625015 0.189141 0.0663128 0.933633 -0.340119 -0.11247 1 
0.0627418 0.189259 0.0661772 0.933633 -0.340119 -0.11247 1 
0.0644045 0.188909 0.065058 0.746356 -0.309778 0.589059 1 
0.0647925 0.189388 0.0650555 0.728133 -0.278825 0.626162 1 
0.0645081 0.189139 0.0652203 0.709808 -0.248196 0.65922 1 
0.0649451 0.190309 0.0653154 0.588875 -0.288852 0.754845 1 
0.0646903 0.189577 0.0654074 0.753992 -0.25343 0.606027 1 
0.0643175 0.189922 0.0657105 0.533833 -0.189034 0.82419 1 
0.0650504 0.189195 0.0642391 0.69044 -0.412277 0.594407 1 
0.0650416 0.18935 0.0645795 0.75589 -0.323953 0.568932 1 
0.0652231 0.189579 0.0645096 0.73826 -0.345603 0.57925 1 
0.065013 0.189187 0.0648295 0.738787 -0.331403 0.586827 1 
0.0647632 0.189015 0.0650483 0.75826 -0.284546 0.586579 1 
0.065018 0.189747 0.0649563 0.761803 -0.218766 0.609752 1 
0.0643125 0.189362 0.0655837 0.639407 -0.247869 0.727819 1 
0.0641804 0.188968 0.0656714 0.622564 -0.23993 0.744881 1 
0.0632675 0.188979 0.0660541 0.346498 -0.179613 0.920694 1 
0.0623931 0.185572 0.0655269 0.489601 -0.272001 0.828436 1 
0.0629171 0.185729 0.0649694 0.628278 -0.268808 0.730075 1 
0.0630206 0.185959 0.0651317 0.579309 -0.214731 0.786315 1 
0.0626524 0.185799 0.0652247 0.554812 -0.329671 0.763872 1 
0.0627563 0.185172 0.0653071 0.586989 -0.434006 0.683435 1 
0.0628787 0.186368 0.0653826 0.646555 -0.388594 0.656476 1 
0.0624759 0.18613 0.0654215 0.545007 -0.311661 0.778354 1 
0.0629477 0.186521 0.0654908 0.671745 -0.3514 0.652132 1 
0.0631242 0.186189 0.065294 0.679244 -0.376627 0.629904 1 
0.0619315 0.185445 0.0656313 0.420183 -0.279613 0.863286 1 
0.0622807 0.185497 0.065705 0.471893 -0.276947 0.837029 1 
0.0631549 0.186981 0.0658153 0.646239 -0.366695 0.66926 1 
0.0635196 0.187001 0.0661097 0.572003 -0.375326 0.729345 1 
0.0638187 0.187008 0.0659086 0.638206 -0.3995 0.658098 1 
0.0632624 0.191198 0.066424 0.340374 -0.50337 0.794206 1 
0.0637042 0.191006 0.0662291 0.383609 -0.431361 0.816561 1 
0.0634491 0.19113 0.066401 0.35418 -0.495211 0.793299 1 
0.0630858 0.191529 0.0666208 0.359197 -0.560737 0.746024 1 
0.063268 0.191967 0.066808 0.290859 -0.673314 0.679742 1 
0.0638363 0.191399 0.0661414 0.296319 -0.540346 0.787542 1 
0.0632726 0.191462 0.0665978 0.348951 -0.559945 0.751462 1 
0.0639113 0.191466 0.0665536 0.278588 -0.600158 0.749799 1 
0.0634981 0.191821 0.0664986 0.343132 -0.606579 0.717162 1 
0.0637253 0.191743 0.0668337 0.261863 -0.684018 0.680843 1 
0.062521 0.190316 0.0664831 0.382726 -0.205188 0.900788 1 
0.0616821 0.191041 0.0671009 0.399794 -0.467775 0.788258 1 
0.0618879 0.191082 0.0669112 0.394344 -0.452288 0.799955 1 
0.0619379 0.191126 0.067186 0.300182 -0.544775 0.783014 1 
0.0617075 0.192129 0.0675753 0.344359 -0.429269 0.834952 1 
0.0614327 0.191934 0.0676567 0.450763 -0.343212 0.824026 1 
0.0621736 0.19175 0.0672606 0.296665 -0.604556 0.739258 1 
0.0622772 0.19198 0.0674229 0.262812 -0.564966 0.78214 1 
0.0620951 0.191542 0.0672358 0.306202 -0.575531 0.75829 1 
0.0619185 0.191874 0.0674326 0.291626 -0.478766 0.828093 1 
0.0617818 0.191986 0.0677304 0.344359 -0.429269 0.834952 1 
0.0622105 0.191598 0.0680061 0.257812 -0.61527 0.744967 1 
0.0622811 0.191264 0.0669557 0.363515 -0.518615 0.773883 1 
0.0625612 0.191163 0.0669212 0.356963 -0.528176 0.770459 1 
0.0630463 0.190893 0.0664399 0.35679 -0.413373 0.837749 1 
0.0629142 0.190499 0.0665276 0.414506 -0.237929 0.878393 1 
0.0626588 0.19148 0.0667794 0.341146 -0.564265 0.751814 1 
0.0624971 0.19157 0.0669398 0.3193 -0.563187 0.762147 1 
0.0627969 0.191786 0.0669957 0.324815 -0.602766 0.728813 1 
0.0625764 0.191987 0.0672218 0.293289 -0.633056 0.716395 1 
0.063077 0.191684 0.0669612 0.358136 -0.619788 0.698284 1 
0.0631461 0.191838 0.0670694 0.326071 -0.657008 0.679719 1 
0.0649103 0.191089 0.0653412 0.135872 -0.515728 0.84591 1 
0.0647485 0.191179 0.0655016 0.264134 -0.536082 0.801779 1 
0.0638797 0.191321 0.0658551 0.41159 -0.483171 0.772748 1 
0.0644053 0.191041 0.065732 0.251734 -0.498835 0.829333 1 
0.0643275 0.191042 0.0659642 0.272681 -0.506408 0.818044 1 
0.0644004 0.19048 0.0656051 0.424212 -0.30389 0.853051 1 
0.064151 0.191374 0.066161 0.296587 -0.534491 0.791427 1 
0.0642546 0.191604 0.0663233 0.230739 -0.660824 0.714192 1 
0.0646037 0.191656 0.0663969 0.195935 -0.661858 0.72357 1 
0.0641083 0.191662 0.0667044 0.237329 -0.677409 0.69627 1 
0.0655462 0.191162 0.0659415 0.15572 -0.63044 0.760458 1 
0.0639595 0.190025 0.0659773 0.467212 -0.165502 0.868517 1 
0.0617298 0.193235 0.0671012 0.331035 0.355443 0.874115 1 
0.0639706 0.192421 0.066825 0.240185 -0.736255 0.632645 1 
0.0635833 0.192152 0.0670846 0.250829 -0.727246 0.638904 1 
0.0638289 0.191973 0.066996 0.209348 -0.733494 0.646653 1 
0.0637898 0.192402 0.0671521 0.208283 -0.769876 0.603249 1 
0.063756 0.192535 0.0673551 0.221549 -0.776198 0.590282 1 
0.064089 0.19241 0.0669509 0.214971 -0.77173 0.598516 1 
0.0638839 0.192578 0.0673977 0.230132 -0.721707 0.652824 1 
0.0643602 0.192463 0.0672568 0.236971 -0.745439 0.62303 1 
0.0641742 0.19274 0.0675369 0.216878 -0.719285 0.659995 1 
0.0642778 0.19297 0.0676992 0.14244 -0.619239 0.772175 1 
0.0644638 0.192693 0.0674191 0.282193 -0.747731 0.601054 1 
0.0631226 0.194157 0.0678631 0.933633 -0.340119 -0.11247 1 
0.0633932 0.194001 0.0679119 0.933633 -0.340119 -0.11247 1 
0.064627 0.193022 0.0677729 0.247595 -0.714398 0.654471 1 
0.064554 0.193584 0.068132 0.269636 -0.361997 0.892331 1 
0.0611628 0.1923 0.067865 0.653184 0.388603 0.649876 1 
0.0615465 0.192428 0.0679928 0.507018 0.290397 0.811543 1 
0.0615363 0.192164 0.067819 0.359651 -0.335164 0.870814 1 
0.0624153 0.192287 0.0676393 0.222242 -0.610777 0.759974 1 
0.0626954 0.192185 0.0676048 0.243623 -0.737156 0.630276 1 
0.0621155 0.19207 0.0675833 0.267699 -0.527571 0.806229 1 
0.0612033 0.19229 0.0682232 -0.288286 -0.949882 0.120894 1 
0.0613312 0.192333 0.0682657 -0.218769 -0.93012 0.294985 1 
0.0617825 0.192195 0.0679875 0.454836 -0.0475202 0.889306 1 
0.0620869 0.191906 0.0678333 0.257812 -0.61527 0.744967 1 
0.062724 0.192348 0.0673548 0.234359 -0.677912 0.696786 1 
0.0630975 0.192212 0.0673088 0.285497 -0.738465 0.610869 1 
0.0632842 0.192145 0.0672858 0.306716 -0.737082 0.602192 1 
0.0631672 0.192575 0.0676741 0.314774 -0.774951 0.548058 1 
0.0634812 0.192341 0.0674366 0.224631 -0.782335 0.580942 1 
0.0629124 0.191843 0.0677661 0.263983 -0.75085 0.605423 1 
0.0636334 0.192196 0.0673595 0.19902 -0.757511 0.621746 1 
0.0634914 0.192605 0.0676103 0.159298 -0.681189 0.714566 1 
0.0632761 0.192509 0.0678833 0.31888 -0.767554 0.556036 1 
0.0637715 0.192503 0.0675758 0.212675 -0.737376 0.641129 1 
0.063812 0.192493 0.067934 0.209878 -0.729131 0.651398 1 
0.0639441 0.192887 0.0678463 0.138982 -0.623178 0.769632 1 
0.064072 0.192929 0.0678889 0.13892 -0.619912 0.772276 1 
0.0639156 0.192723 0.0680962 0.19902 -0.621746 0.757511 1 
0.063887 0.19256 0.0683462 0.237858 -0.691522 0.682071 1 
0.0634044 0.193618 0.0682629 -0.0173878 -0.188948 0.981833 1 
0.0646668 0.191896 0.0662011 0.179275 -0.694117 0.697182 1 
0.0652556 0.191856 0.0658821 0.152588 -0.753874 0.639055 1 
0.0652961 0.191846 0.0662402 0.152588 -0.753874 0.639055 1 
0.0651481 0.192341 0.0661871 0.018138 -0.743657 0.668315 1 
0.0641714 0.191902 0.0665086 0.220028 -0.697536 0.681932 1 
0.0643441 0.192286 0.066779 0.18539 -0.749222 0.635843 1 
0.0654644 0.191879 0.066641 0.0921247 -0.735535 0.671194 1 
0.0650124 0.191806 0.0666621 0.104194 -0.767517 0.632504 1 
0.0651603 0.191311 0.0667153 0.175546 -0.758664 0.627386 1 
0.0650138 0.192225 0.0671763 0.219951 -0.709771 0.669213 1 
0.064813 0.192745 0.0674928 0.257812 -0.744967 0.61527 1 
0.0661248 0.193687 0.0675384 0.933633 -0.340119 -0.11247 1 
0.0650487 0.193368 0.0675674 0.311448 -0.614827 0.72456 1 
0.0649356 0.193084 0.0674884 0.400382 -0.779691 0.481431 1 
0.0647548 0.193065 0.0678155 0.334766 -0.789664 0.514162 1 
0.0648584 0.193295 0.0679777 0.384881 -0.501807 0.774633 1 
0.064717 0.19199 0.0680689 0.195329 -0.767475 0.610597 1 
0.0669844 0.188898 0.0634258 0.933633 -0.340119 -0.11247 1 
0.0674805 0.189102 0.0633754 0.416243 -0.735417 -0.534699 1 
0.0676912 0.189703 0.0633126 0.135881 -0.194297 -0.971486 1 
0.0681538 0.189183 0.0633853 0.230024 -0.00353883 -0.973179 1 
0.0679283 0.188823 0.0634845 0.134543 -0.124846 -0.983012 1 
0.0681354 0.189283 0.063809 0.230024 -0.00353883 -0.973179 1 
0.068528 0.189256 0.0635964 0.237081 0.0633043 -0.969425 1 
0.0688771 0.189308 0.0636701 0.29723 0.291374 -0.909261 1 
0.0693147 0.188766 0.0636054 0.177675 0.328768 -0.927547 1 
0.0695406 0.190191 0.0638432 0.370633 0.0219539 -0.92852 1 
0.069468 0.189897 0.0641224 0.1767 0.349159 -0.920253 1 
0.0699838 0.190418 0.0641625 0.933633 -0.340119 -0.11247 1 
0.0698326 0.189916 0.0644168 0.118297 0.296408 -0.947707 1 
0.0696293 0.18874 0.063625 0.0912185 0.321248 -0.942592 1 
0.0699094 0.188639 0.0635904 0.0414889 0.287908 -0.956759 1 
0.0702931 0.188767 0.0637182 0.0926863 0.424697 -0.900579 1 
0.071059 0.188605 0.0634596 0.258722 0.195753 -0.945909 1 
0.0705295 0.1896 0.0640499 0.0762292 0.367772 -0.926786 1 
0.0706524 0.189083 0.0639657 0.156684 0.47591 -0.865424 1 
0.0665129 0.187651 0.0632766 0.933633 -0.340119 -0.11247 1 
0.0671228 0.188349 0.0635623 0.933633 -0.340119 -0.11247 1 
0.0671876 0.188151 0.0638007 0.933633 -0.340119 -0.11247 1 
0.0674815 0.188455 0.0635526 -0.0132187 0.0274542 -0.999536 1 
0.06816 0.188239 0.0636095 0.130759 -0.0636436 -0.989369 1 
0.0686269 0.18807 0.063552 0.134322 0.241258 -0.96112 1 
0.0692463 0.188822 0.0637543 0.185743 0.344547 -0.92021 1 
0.0695073 0.188611 0.0638864 0.129389 0.289457 -0.948406 1 
0.068864 0.189112 0.0641408 0.254323 0.32408 -0.911203 1 
0.0692036 0.18911 0.0642977 0.215289 0.391036 -0.894842 1 
0.0695239 0.189854 0.0647012 0.226625 0.119074 -0.966676 1 
0.0697642 0.189972 0.0645657 0.0910034 0.13355 -0.986855 1 
0.0701957 0.187594 0.0637801 0.00106675 0.0970741 -0.995277 1 
0.0698808 0.188475 0.0638404 0.039402 0.311403 -0.949461 1 
0.07018 0.188482 0.0636393 -0.00874168 0.32594 -0.94535 1 
0.0702306 0.188736 0.0641712 0.0700918 0.446663 -0.891952 1 
0.0704167 0.188459 0.0638911 0.0930481 0.434687 -0.895762 1 
0.0707901 0.188323 0.063845 0.100236 0.327436 -0.939542 1 
0.0697984 0.188983 0.0642828 0.133784 0.354458 -0.925452 1 
0.0705453 0.188711 0.0641907 0.0926863 0.424697 -0.900579 1 
0.0713127 0.188968 0.0644463 0.933633 -0.340119 -0.11247 1 
0.0703244 0.189769 0.0644967 0.0125545 0.172339 -0.984958 1 
0.0693862 0.193452 0.0607969 -0.0510221 0.998575 -0.015619 1 
0.0685268 0.193649 0.0610671 -0.62459 0.720927 -0.300253 1 
0.0670443 0.195731 0.062019 0.933633 -0.340119 -0.11247 1 
0.0677232 0.194659 0.061996 0.41825 0.819006 -0.392805 1 
0.0684486 0.195413 0.063052 0.168095 0.843448 -0.510234 1 
0.0672887 0.195183 0.0630092 0.933633 -0.340119 -0.11247 1 
0.0682326 0.195108 0.0630679 0.168095 0.843448 -0.510234 1 
0.0680268 0.195067 0.0632575 0.158673 0.840818 -0.51754 1 
0.0684743 0.195645 0.0634465 0.10749 0.755377 -0.646414 1 
0.068234 0.195527 0.0635821 0.933633 -0.340119 -0.11247 1 
0.0685716 0.193989 0.0612949 -0.320281 0.758051 -0.568136 1 
0.0693013 0.194188 0.0605479 -0.192814 0.978623 -0.0715474 1 
0.0692477 0.194002 0.0606604 0.0199414 0.979473 -0.200587 1 
0.0692728 0.194024 0.0607978 -0.0288705 0.985063 -0.169759 1 
0.0691508 0.193895 0.0610593 0.286371 0.919552 -0.269102 1 
0.0689641 0.193963 0.0610823 -0.0264266 0.950099 -0.310827 1 
0.0687685 0.194186 0.0614457 0.191968 0.940505 -0.280356 1 
0.0690141 0.194007 0.0613571 0.177447 0.939504 -0.292993 1 
0.0692942 0.193905 0.0613226 0.334885 0.915545 -0.222778 1 
0.069624 0.194705 0.0616428 0.414562 0.891672 -0.181825 1 
0.0698672 0.194754 0.0608628 0.161464 0.962222 -0.219224 1 
0.0695624 0.193977 0.06068 0.520649 0.803782 -0.287852 1 
0.0696219 0.194076 0.0608715 0.0428753 0.998681 -0.028235 1 
0.0695 0.193947 0.0611329 0.24542 0.956477 -0.157865 1 
0.069761 0.193736 0.0612651 0.312876 0.943952 -0.105179 1 
0.0701345 0.1936 0.061219 0.428733 0.903354 -0.0118 1 
0.0702269 0.194213 0.0610303 0.357776 0.93282 0.0429331 1 
0.0701004 0.194589 0.0615019 0.282459 0.941072 -0.18601 1 
0.0707394 0.193737 0.0613779 0.300439 0.944429 0.133379 1 
0.0682629 0.193928 0.0615794 -0.322385 0.649631 -0.688511 1 
0.0684444 0.194156 0.0615094 -0.196744 0.800704 -0.565831 1 
0.0683524 0.194609 0.0620351 0.120569 0.841077 -0.527307 1 
0.0686325 0.194507 0.0620006 0.126312 0.849341 -0.512508 1 
0.0687361 0.194738 0.0621629 0.062799 0.858253 -0.50937 1 
0.068462 0.194753 0.0625015 0.11142 0.843611 -0.525267 1 
0.0689288 0.194583 0.0624439 0.326278 0.821212 -0.468138 1 
0.0688721 0.194416 0.061608 0.317684 0.893394 -0.317684 1 
0.0690303 0.194184 0.0618349 0.29469 0.898879 -0.324307 1 
0.0693508 0.194073 0.0621585 0.309436 0.857493 -0.411042 1 
0.0695993 0.193826 0.0614255 0.3365 0.917857 -0.210491 1 
0.0701161 0.193701 0.0616428 0.378531 0.91326 -0.150568 1 
0.0705727 0.193267 0.0614114 0.536751 0.790084 -0.296084 1 
0.0706661 0.193233 0.0613999 0.202739 0.977274 0.0619142 1 
0.0703765 0.19328 0.0615178 0.368609 0.926214 -0.0790834 1 
0.0707411 0.1933 0.0618122 0.528831 0.666495 -0.525473 1 
0.0695905 0.193981 0.0617659 0.388102 0.892782 -0.228729 1 
0.0698706 0.193879 0.0617314 0.44197 0.882491 -0.160848 1 
0.069842 0.193716 0.0619813 0.446124 0.840952 -0.306225 1 
0.0702154 0.19358 0.0619353 0.462253 0.724031 -0.511958 1 
0.0699949 0.193781 0.0621613 0.419936 0.802866 -0.423154 1 
0.0708447 0.19353 0.0619744 0.641578 0.359349 -0.677677 1 
0.0708549 0.193794 0.0621482 0.632235 0.215923 -0.74408 1 
0.069706 0.194038 0.0625362 0.403947 0.783559 -0.472082 1 
0.0708161 0.193366 0.0622244 0.260965 0.738611 -0.621572 1 
0.070728 0.193104 0.0622829 0.217809 0.830111 -0.513298 1 
0.0704289 0.193097 0.062484 0.305189 0.801715 -0.51392 1 
0.0682759 0.19503 0.0627816 0.185583 0.862589 -0.470638 1 
0.0686346 0.195136 0.0627719 0.230909 0.836471 -0.496989 1 
0.0689492 0.195111 0.0627915 0.409833 0.836939 -0.362726 1 
0.0692779 0.194635 0.0625176 0.370585 0.831058 -0.41474 1 
0.069353 0.194701 0.0629298 0.457939 0.808973 -0.368585 1 
0.0691912 0.194791 0.0630902 0.399188 0.787063 -0.470298 1 
0.0707968 0.194114 0.0624709 0.361855 0.431382 -0.82642 1 
0.0710519 0.19399 0.062299 0.369288 0.426345 -0.825746 1 
0.0711554 0.19422 0.0624613 0.493754 0.101027 -0.863713 1 
0.0709789 0.194552 0.0626581 0.380322 0.154108 -0.911924 1 
0.0711016 0.194891 0.0626537 0.321595 0.186778 -0.928273 1 
0.0713817 0.194789 0.0626192 0.321595 0.186778 -0.928273 1 
0.0708372 0.194104 0.0628291 0.245636 0.363306 -0.898705 1 
0.0719573 0.194553 0.0627709 0.346482 -0.0164991 -0.937912 1 
0.0720557 0.19508 0.0628862 0.933633 -0.340119 -0.11247 1 
0.072297 0.194551 0.0629279 0.933633 -0.340119 -0.11247 1 
0.0716046 0.194361 0.0630846 0.321595 0.186778 -0.928273 1 
0.0719978 0.194543 0.063129 0.346482 -0.0164991 -0.937912 1 
0.0669354 0.189233 0.0559575 -0.747731 0.282193 0.601054 1 
0.0670045 0.189386 0.0560657 -0.692772 0.337421 0.63735 1 
0.0663536 0.193241 0.0576714 -0.933633 0.340119 0.11247 1 
0.0669292 0.190176 0.0557333 -0.689114 0.351923 0.633461 1 
0.0671747 0.189998 0.0556447 -0.689114 0.351923 0.633461 1 
0.0670873 0.189945 0.0559603 -0.714151 0.296894 0.63391 1 
0.0673129 0.190305 0.0558611 -0.897224 0.394081 0.199222 1 
0.0671909 0.190175 0.0561225 -0.897224 0.394081 0.199222 1 
0.0674069 0.19048 0.0561067 -0.892257 0.399977 0.209512 1 
0.0673459 0.190869 0.0570738 -0.883088 0.36858 -0.290351 1 
0.0676239 0.190138 0.056268 -0.892257 0.399977 0.209512 1 
0.0675953 0.189975 0.056518 -0.892257 0.399977 0.209512 1 
0.0677561 0.190532 0.0561803 -0.891217 0.408292 0.19756 1 
0.0678001 0.190663 0.0561511 -0.891217 0.408292 0.19756 1 
0.0679238 0.190355 0.056324 -0.891217 0.408292 0.19756 1 
0.0676585 0.190215 0.0563221 -0.892257 0.399977 0.209512 1 
0.0676299 0.190051 0.0565721 -0.892257 0.399977 0.209512 1 
0.0673549 0.192636 0.0571503 -0.428456 -0.412409 0.803956 1 
0.0675762 0.192645 0.0571814 -0.428456 -0.412409 0.803956 1 
0.0677046 0.190975 0.0570642 -0.784319 -0.279325 0.553915 1 
0.0679749 0.191675 0.0571929 -0.774218 -0.263329 0.575539 1 
0.0678372 0.192434 0.0573135 -0.796258 -0.302356 0.523979 1 
0.0678086 0.192271 0.0575634 -0.807321 -0.267025 0.526242 1 
0.067661 0.19191 0.0574304 -0.774218 -0.263329 0.575539 1 
0.0676955 0.191986 0.0574845 -0.774218 -0.263329 0.575539 1 
0.0678699 0.191026 0.0565164 -0.300055 0.61776 -0.72687 1 
0.0681073 0.191212 0.0570253 -0.884198 -0.179763 0.431138 1 
0.0677104 0.193667 0.057865 -0.474745 -0.323331 0.81858 1 
0.0679813 0.192654 0.0578339 -0.732033 -0.230426 0.641117 1 
0.0676624 0.192329 0.0579446 -0.804858 -0.243473 0.541224 1 
0.0678195 0.192744 0.0579943 -0.732033 -0.230426 0.641117 1 
0.0683607 0.192432 0.0580919 -0.74074 -0.230209 0.631117 1 
0.0676914 0.193558 0.0580316 -0.474745 -0.323331 0.81858 1 
0.0677404 0.194249 0.0581292 -0.532286 0.00948093 0.846511 1 
0.0677309 0.194195 0.0582126 -0.532286 0.00948093 0.846511 1 
0.0680212 0.194357 0.0583518 -0.542719 0.0488308 0.838494 1 
0.0680702 0.195049 0.0584494 -0.297954 -0.0601023 0.952686 1 
0.0680955 0.194214 0.058507 -0.561711 0.06367 0.82488 1 
0.0684447 0.194266 0.0585806 -0.586295 0.420206 0.692593 1 
0.068514 0.193563 0.0586089 -0.720605 0.0382247 0.692291 1 
0.0645072 0.199309 0.0578268 0.320704 0.416761 -0.850564 1 
0.0672467 0.197613 0.0581118 -0.109782 0.297602 -0.948357 1 
0.0685184 0.191135 0.0579819 -0.933633 0.340119 0.11247 1 
0.0694134 0.189521 0.0517484 -0.00721454 0.998698 0.0505018 1 
0.0694634 0.189566 0.0520232 -0.672828 0.739693 0.0125372 1 
0.0696501 0.189498 0.0520002 -0.672828 0.739693 0.0125372 1 
0.0695575 0.189741 0.0522688 -0.797624 0.591215 -0.119422 1 
0.0693415 0.189436 0.0522846 -0.809731 0.574601 -0.119035 1 
0.0693319 0.189382 0.052368 -0.797624 0.591215 -0.119422 1 
0.0694598 0.189425 0.0524106 -0.797624 0.591215 -0.119422 1 
0.0699362 0.189309 0.0522697 -0.672828 0.739693 0.0125372 1 
0.069809 0.189476 0.0524842 -0.787026 0.602543 -0.132411 1 
0.0700891 0.189374 0.0524497 -0.752966 0.657262 -0.0323705 1 
0.0692071 0.189321 0.0532739 -0.798488 0.484853 -0.356839 1 
0.0693033 0.189218 0.0526179 -0.870269 0.426839 -0.245847 1 
0.0695003 0.189415 0.0527687 -0.817441 0.509149 -0.269366 1 
0.0695444 0.189546 0.0527394 -0.817441 0.509149 -0.269366 1 
0.0694717 0.189251 0.0530186 -0.819066 0.493319 -0.292859 1 
0.0698935 0.189597 0.0528131 -0.817441 0.509149 -0.269366 1 
0.0693682 0.189021 0.0528563 -0.870269 0.426839 -0.245847 1 
0.0692705 0.188704 0.0529981 -0.906799 0.317893 -0.276874 1 
0.0693393 0.189714 0.0531862 -0.674301 0.651444 -0.347763 1 
0.0691533 0.189991 0.0534663 -0.668004 0.651591 -0.359442 1 
0.0691099 0.19007 0.0537526 -0.490133 0.75569 -0.434399 1 
0.0698061 0.189544 0.0531287 -0.713235 0.622665 -0.321845 1 
0.0699097 0.189775 0.0532909 -0.695131 0.633269 -0.34024 1 
0.0696789 0.189711 0.0533432 -0.668004 0.651591 -0.359442 1 
0.069817 0.190018 0.0535595 -0.457359 0.80078 -0.386749 1 
0.0689682 0.189622 0.0539236 -0.563136 0.699352 -0.44021 1 
0.0688946 0.189974 0.0540256 -0.517177 0.761898 -0.389922 1 
0.0693069 0.190266 0.0539034 -0.470333 0.7978 -0.377229 1 
0.0690172 0.190313 0.0540212 -0.369849 0.858854 -0.354374 1 
0.0695869 0.190164 0.0538689 -0.388085 0.825274 -0.410261 1 
0.0696905 0.190394 0.0540312 -0.257148 0.90369 -0.342374 1 
0.0698861 0.190171 0.0536677 -0.406115 0.820194 -0.40293 1 
0.0699023 0.190349 0.0541456 -0.223223 0.925595 -0.305688 1 
0.0691754 0.190082 0.0542482 -0.262265 0.90694 -0.329663 1 
0.0694996 0.190111 0.0541844 -0.288833 0.890444 -0.351688 1 
0.0693723 0.190278 0.0543989 -0.205268 0.93418 -0.291844 1 
0.0696031 0.190341 0.0543467 -0.205268 0.93418 -0.291844 1 
0.0695746 0.190178 0.0545967 -0.18901 0.93953 -0.285584 1 
0.0690041 0.190118 0.0544919 -0.120801 0.949152 -0.290719 1 
0.0692504 0.190149 0.0546604 -0.123823 0.949312 -0.288921 1 
0.0698737 0.190185 0.0543955 -0.220712 0.924142 -0.311845 1 
0.0692113 0.190578 0.0548165 -0.111503 0.953675 -0.279412 1 
0.0692518 0.190568 0.0551746 -0.010932 0.963234 -0.268442 1 
0.0696782 0.190408 0.0547589 -0.148563 0.951608 -0.26902 1 
0.0694628 0.190313 0.0550319 -0.111503 0.953675 -0.279412 1 
0.0698127 0.190574 0.0553626 -0.116723 0.956081 -0.268857 1 
0.0699061 0.19054 0.0553511 -0.116723 0.956081 -0.268857 1 
0.0700178 0.190405 0.0549159 -0.185168 0.95781 -0.219803 1 
0.0691196 0.190174 0.0552623 0.0185014 0.958372 -0.284921 1 
0.0694636 0.190522 0.055289 0.00358208 0.968355 -0.249551 1 
0.0696069 0.190533 0.0555523 -0.0500301 0.948007 -0.314292 1 
0.0697105 0.190763 0.0557146 0.0342966 0.946332 -0.321372 1 
0.0635736 0.199648 0.0579419 0.231399 0.42249 -0.876331 1 
0.0637705 0.199844 0.0580927 0.382246 0.326981 -0.864275 1 
0.0640852 0.199819 0.0581122 0.320704 0.416761 -0.850564 1 
0.0641993 0.199456 0.0583684 0.429309 0.293899 -0.854001 1 
0.0640266 0.199073 0.058098 0.24553 0.429301 -0.869146 1 
0.0641993 0.199456 0.0583684 0.429309 0.293899 -0.854001 1 
0.0641447 0.199918 0.0583037 0.320704 0.416761 -0.850564 1 
0.0641894 0.200259 0.0585316 0.320704 0.416761 -0.850564 1 
0.0643755 0.199981 0.0582515 0.320704 0.416761 -0.850564 1 
0.0647151 0.199978 0.0584085 0.398221 0.312119 -0.862556 1 
0.064843 0.200021 0.0584511 0.398221 0.312119 -0.862556 1 
0.0649719 0.199417 0.0586709 0.376247 0.271317 -0.885904 1 
0.0645195 0.200201 0.0587719 0.320704 0.416761 -0.850564 1 
0.0652651 0.199511 0.0581657 0.346235 0.277879 -0.896049 1 
0.0652622 0.199579 0.0588101 0.345315 0.277141 -0.896633 1 
0.0657879 0.199299 0.058687 0.175731 0.0149314 -0.984325 1 
0.0660577 0.198933 0.0584787 0.100761 0.159033 -0.982118 1 
0.0668251 0.19919 0.0587342 0.0596954 0.150994 -0.986731 1 
0.065439 0.198391 0.0585334 -0.141444 -0.224494 -0.964156 1 
0.0654006 0.199029 0.0589466 0.160219 -0.00112041 -0.987081 1 
0.0671583 0.198208 0.0582502 0.00758927 0.107334 -0.994194 1 
0.0663543 0.198152 0.0588421 0.0383012 0.165972 -0.985386 1 
0.0665265 0.19747 0.0587756 0.0485784 0.18128 -0.982231 1 
0.0668264 0.197686 0.0588315 -0.0702093 0.163028 -0.98412 1 
0.0663283 0.198777 0.0585275 0.113062 0.0186608 -0.993413 1 
0.0662064 0.198647 0.058789 0.113062 0.0186608 -0.993413 1 
0.0663342 0.19869 0.0588316 0.0508681 0.0616911 -0.996798 1 
0.0660196 0.198715 0.058812 0.0991587 0.0207035 -0.994856 1 
0.0666084 0.198675 0.058493 0.0383012 0.165972 -0.985386 1 
0.0668796 0.198728 0.0587989 0.0446944 0.140959 -0.989006 1 
0.0673655 0.198668 0.0585747 0.0747008 0.257022 -0.963514 1 
0.0670671 0.19887 0.059033 0.028348 0.0472467 -0.998481 1 
0.0670276 0.198233 0.0588521 0.0170039 0.15757 -0.987361 1 
0.0672393 0.198188 0.0589665 0.0126062 0.17534 -0.984427 1 
0.0673179 0.198395 0.0589913 0.0126062 0.17534 -0.984427 1 
0.0666391 0.199467 0.0590143 0.0555192 0.0178081 -0.998299 1 
0.0652225 0.197089 0.0475758 0.933633 -0.340119 -0.11247 1 
0.0654961 0.196915 0.0485731 -0.220067 -0.869789 0.441631 1 
0.0656057 0.197058 0.0490394 -0.110738 -0.898522 0.42473 1 
0.0657291 0.1967 0.0476193 0.933633 -0.340119 -0.11247 1 
0.0657393 0.196964 0.0477931 0.839123 -0.539133 0.0721674 1 
0.06571 0.196591 0.047786 0.776965 -0.621864 0.0980351 1 
0.0656371 0.197153 0.048145 -0.00132466 -0.878249 0.478202 1 
0.0658393 0.197053 0.0483427 -0.220067 -0.869789 0.441631 1 
0.0657121 0.19722 0.0485573 -0.154797 -0.883935 0.441244 1 
0.0659429 0.197283 0.048505 -0.170605 -0.882188 0.438907 1 
0.0656106 0.197618 0.0491663 -0.22081 -0.884722 0.410499 1 
0.0657142 0.197848 0.0493285 -0.264685 -0.852193 0.451341 1 
0.0654739 0.197731 0.0494641 -0.279285 -0.847114 0.452103 1 
0.066081 0.19759 0.0487214 -0.125646 -0.896461 0.424937 1 
0.0658062 0.197395 0.0488029 -0.176002 -0.88874 0.423279 1 
0.0659098 0.197626 0.0489651 -0.215223 -0.880187 0.423024 1 
0.0662494 0.197623 0.0491221 -0.269504 -0.842393 0.466627 1 
0.066162 0.19757 0.0494376 -0.365189 -0.75797 0.54048 1 
0.06652 0.197466 0.0491709 -0.772736 0.510298 0.377458 1 
0.0661429 0.197461 0.0496043 -0.827346 0.406554 0.387571 1 
0.0664421 0.197468 0.0494031 -0.732237 0.568426 0.375128 1 
0.0666045 0.197588 0.0494998 -0.433192 -0.698751 0.569291 1 
0.0662268 0.197372 0.0496761 -0.827346 0.406554 0.387571 1 
0.066639 0.197664 0.0495539 -0.425169 -0.713026 0.557517 1 
0.0665266 0.197589 0.0497321 -0.67288 0.623282 0.398437 1 
0.0667141 0.197731 0.0499661 -0.496972 -0.591312 0.635113 1 
0.0667831 0.197884 0.0500743 -0.519684 -0.489606 0.700153 1 
0.0669692 0.197607 0.0497942 -0.51038 -0.608076 0.608076 1 
0.0670977 0.197859 0.0500939 -0.53228 -0.482222 0.695802 1 
0.0652995 0.198691 0.0504322 -0.933633 0.340119 0.11247 1 
0.0673535 0.197945 0.0501791 -0.576718 -0.427137 0.696383 1 
0.0668061 0.200107 0.0515302 -0.933633 0.340119 0.11247 1 
0.066051 0.197914 0.05013 -0.318945 -0.858225 0.402149 1 
0.0663209 0.197548 0.0499217 -0.698378 0.592714 0.401196 1 
0.0665921 0.197601 0.0502276 -0.519858 -0.503143 0.690358 1 
0.0661253 0.197771 0.0502851 -0.36463 -0.828704 0.424612 1 
0.0662289 0.198001 0.0504474 -0.297829 -0.811545 0.502685 1 
0.0667891 0.197798 0.0503784 -0.189786 -0.85329 0.485673 1 
0.0670692 0.197696 0.0503438 -0.183594 -0.846322 0.500032 1 
0.0661717 0.197674 0.0509473 -0.263164 -0.76743 0.584633 1 
0.0660633 0.198806 0.0510751 -0.409766 -0.602207 0.685156 1 
0.0663536 0.198969 0.0512143 -0.422412 -0.481126 0.76817 1 
0.06628 0.199321 0.0513163 -0.535271 -0.332736 0.776384 1 
0.066644 0.199131 0.0513536 -0.355683 -0.550578 0.755217 1 
0.0661235 0.199115 0.0515237 -0.537354 -0.32562 0.77796 1 
0.0662271 0.199345 0.0516859 -0.464696 -0.242251 0.851688 1 
0.0665963 0.198859 0.0517702 -0.384499 -0.55466 0.737911 1 
0.066323 0.198177 0.050693 -0.285077 -0.759675 0.584488 1 
0.0669522 0.198127 0.0507321 -0.206608 -0.809597 0.549424 1 
0.0668641 0.197864 0.0507906 -0.19679 -0.806992 0.55681 1 
0.0671728 0.197926 0.0505061 -0.581506 -0.477605 0.658593 1 
0.0676984 0.197646 0.050383 -0.787144 0.355744 0.503836 1 
0.0674243 0.197661 0.0507216 -0.178425 -0.835148 0.520281 1 
0.0672478 0.197993 0.0509184 -0.258679 -0.791716 0.553417 1 
0.0668014 0.19869 0.0513235 -0.33491 -0.58407 0.73939 1 
0.0671463 0.198391 0.0515274 -0.323105 -0.686801 0.651081 1 
0.0672499 0.198621 0.0516896 -0.362311 -0.663964 0.654127 1 
0.0677196 0.198383 0.0509877 -0.287593 -0.806202 0.517038 1 
0.0673514 0.198223 0.0510806 -0.272811 -0.786895 0.553507 1 
0.0674549 0.198453 0.0512429 -0.330699 -0.759801 0.559768 1 
0.067735 0.198351 0.0512084 -0.30259 -0.800042 0.518047 1 
0.0677167 0.198451 0.0516321 -0.343539 -0.724526 0.59753 1 
0.0680158 0.198459 0.051431 -0.417849 -0.752129 0.509612 1 
0.0669602 0.198668 0.0518075 -0.355734 -0.644256 0.677043 1 
0.0672404 0.198567 0.051773 -0.373945 -0.670465 0.640813 1 
0.0675204 0.198465 0.0517384 -0.471566 -0.768539 0.432405 1 
0.0678101 0.198418 0.0516206 -0.430741 -0.737705 0.519859 1 
0.0678601 0.198462 0.0518954 -0.608473 -0.777578 0.158535 1 
0.0664586 0.199618 0.0518908 -0.464696 -0.242251 0.851688 1 
0.0669945 0.199602 0.0519415 -0.340742 -0.290152 0.894263 1 
0.0673339 0.198583 0.0533544 0.0152923 -0.760442 0.649226 1 
0.0678494 0.198038 0.0530575 -0.440522 -0.808959 0.389262 1 
0.0683616 0.198419 0.053485 0.0766868 -0.753846 0.652561 1 
0.0681566 0.198587 0.0539317 -0.276805 -0.861002 0.426678 1 
0.0684123 0.198673 0.0540169 -0.65071 -0.427705 0.627411 1 
0.0707619 0.194964 0.0518602 -0.933633 0.340119 0.11247 1 
0.067802 0.197876 0.0505453 -0.172657 -0.860332 0.479602 1 
0.0677734 0.197712 0.0507952 -0.497141 -0.625218 0.601625 1 
0.0683893 0.198323 0.051385 -0.5213 -0.764898 0.378389 1 
0.0692644 0.197238 0.0512556 0.196541 -0.0151185 0.980379 1 
0.0683607 0.19816 0.0516349 -0.530971 -0.81271 0.239943 1 
0.0683322 0.197996 0.0518849 -0.422766 -0.903984 0.0638906 1 
0.0698594 0.196254 0.0511608 -0.933633 0.340119 0.11247 1 
0.0694641 0.198272 0.0524348 -0.00404828 -0.846091 0.533024 1 
0.0697347 0.198116 0.0524836 -0.130314 -0.690514 0.711484 1 
0.0684811 0.196854 0.0521152 -0.887734 -0.460355 0.00131907 1 
0.0686228 0.197302 0.0519442 -0.741252 -0.419112 0.5243 1 
0.0684134 0.19712 0.0525212 -0.424113 -0.646981 0.633675 1 
0.0686051 0.197612 0.0526251 -0.127848 -0.871951 0.472606 1 
0.0693806 0.197504 0.0522831 -0.064059 -0.590766 0.804296 1 
0.0690962 0.197255 0.0524478 -0.00968238 -0.623822 0.781506 1 
0.0695317 0.196084 0.0516119 -0.933633 0.340119 0.11247 1 
0.0693457 0.196361 0.051892 -0.933633 0.340119 0.11247 1 
0.0693266 0.196252 0.0520586 -0.933633 0.340119 0.11247 1 
0.0687432 0.197919 0.0528414 -0.00952718 -0.834309 0.551215 1 
0.0683162 0.197869 0.053 -0.0962879 -0.834974 0.541799 1 
0.068258 0.198189 0.0533227 0.0409081 -0.788539 0.613622 1 
0.0688123 0.198072 0.0529496 0.081443 -0.833004 0.547239 1 
0.0686308 0.197844 0.0530196 0.142233 -0.780035 0.609356 1 
0.0691065 0.197519 0.0526216 0.0923532 -0.678723 0.728564 1 
0.0692482 0.197967 0.0524506 0.0542453 -0.858188 0.510462 1 
0.0694451 0.198163 0.0526014 0.0231973 -0.855572 0.517164 1 
0.0691364 0.198101 0.0528859 0.145827 -0.750184 0.644948 1 
0.069407 0.197945 0.0529347 0.0266559 -0.764603 0.64395 1 
0.068857 0.198413 0.0531775 0.206183 -0.717766 0.665057 1 
0.0687739 0.198711 0.0533628 0.172419 -0.727822 0.663737 1 
0.0686167 0.198295 0.053313 0.196437 -0.66974 0.716143 1 
0.0686512 0.198372 0.0533671 -0.0224952 -0.903778 0.427409 1 
0.0684652 0.198649 0.0536472 -0.0955895 -0.930315 0.354085 1 
0.0687548 0.198602 0.0535294 0.144548 -0.806193 0.573723 1 
0.0697657 0.198051 0.052925 -0.308041 -0.656401 0.688657 1 
0.0696628 0.198031 0.0530198 -0.266737 -0.765488 0.585559 1 
0.069315 0.198398 0.0534604 0.079533 -0.880445 0.467431 1 
0.0700053 0.19796 0.0525324 -0.318204 -0.545264 0.775522 1 
0.0707884 0.197327 0.0529287 -0.434027 -0.526444 0.73108 1 
0.0708036 0.198152 0.0532293 -0.3988 -0.690039 0.603991 1 
0.0708575 0.197481 0.0530369 -0.436142 -0.472079 0.766108 1 
0.0711375 0.197379 0.0530024 -0.246348 -0.522133 0.816511 1 
0.070775 0.197988 0.0534793 -0.413561 -0.815945 0.403981 1 
0.0707598 0.197164 0.0531787 -0.358026 -0.542709 0.759792 1 
0.0707503 0.19711 0.053262 -0.358026 -0.542709 0.759792 1 
0.070354 0.197852 0.0539419 -0.210183 -0.936775 0.27978 1 
0.0706341 0.19775 0.0539074 -0.382697 -0.883955 0.268638 1 
0.0707415 0.197265 0.0536024 -0.237341 -0.680586 0.693161 1 
0.0710061 0.197195 0.0533471 0.058434 -0.619971 0.782446 1 
0.0707465 0.197825 0.0537292 -0.387374 -0.817789 0.425633 1 
0.0711189 0.195507 0.0514163 -0.933633 0.340119 0.11247 1 
0.0709329 0.195785 0.0516964 -0.933633 0.340119 0.11247 1 
0.0711012 0.195817 0.0520971 -0.933633 0.340119 0.11247 1 
0.0711762 0.195884 0.0525093 -0.933633 0.340119 0.11247 1 
0.0709997 0.196216 0.0527061 -0.993487 -0.0710439 -0.0890868 1 
0.0709807 0.196107 0.0528728 -0.993487 -0.0710439 -0.0890868 1 
0.0711414 0.196664 0.0525351 0.348028 -0.545514 0.762424 1 
0.0718264 0.197428 0.053233 -0.159432 -0.657467 0.736423 1 
0.0718668 0.197418 0.0535912 -0.120663 -0.722486 0.680775 1 
0.0718478 0.197309 0.0537578 -0.120663 -0.722486 0.680775 1 
0.0700669 0.198687 0.0534952 -0.353844 -0.849538 0.391255 1 
0.0694969 0.199693 0.0537274 -0.270764 -0.442095 0.855125 1 
0.0695374 0.199683 0.0540855 -0.40729 0.909203 0.0863949 1 
0.0698175 0.199581 0.054051 -0.103979 0.973392 0.204199 1 
0.0700976 0.199479 0.0540165 -0.339112 0.93938 -0.050672 1 
0.0691571 0.198679 0.0548264 -0.611732 0.303458 0.730546 1 
0.0693924 0.198237 0.054564 -0.346578 -0.893962 0.284104 1 
0.0698202 0.198496 0.0546625 -0.696948 -0.638463 0.326542 1 
0.0700009 0.198515 0.0543355 -0.477716 -0.840228 0.256523 1 
0.0700316 0.199307 0.0548568 -0.298345 0.563186 0.770592 1 
0.0707409 0.198978 0.0537622 -0.670465 -0.640813 0.373945 1 
0.0707307 0.198714 0.0535884 -0.392245 -0.647121 0.653741 1 
0.0709132 0.198295 0.0536957 -0.2402 -0.751998 0.613844 1 
0.0715019 0.198255 0.0533767 -0.177828 -0.60036 0.779708 1 
0.0710453 0.198689 0.053608 -0.355082 -0.705256 0.613621 1 
0.0711689 0.198381 0.0537808 0.023844 -0.705502 0.708307 1 
0.0705697 0.199013 0.0540059 -0.716814 -0.693644 0.0709574 1 
0.0702672 0.198008 0.0545145 0.351855 -0.692254 0.630066 1 
0.0705414 0.197993 0.054176 0.190339 -0.79638 0.574064 1 
0.0708655 0.198023 0.0541122 0.210171 -0.702125 0.68033 1 
0.0706259 0.198114 0.0545049 0.252635 -0.770457 0.585296 1 
0.0708846 0.198132 0.0539456 0.203329 -0.703115 0.681385 1 
0.0711404 0.198217 0.0540308 0.159237 -0.723389 0.671827 1 
0.071244 0.198447 0.0541931 -0.100329 -0.804089 0.585982 1 
0.0716174 0.198312 0.054147 -0.180556 -0.793537 0.581118 1 
0.0712397 0.198097 0.0543233 0.108001 -0.7205 0.684993 1 
0.0710832 0.19789 0.0545307 0.394201 -0.602023 0.694388 1 
0.0710284 0.199208 0.0545459 -0.59961 -0.799943 0.0236505 1 
0.0709998 0.199045 0.0547959 0.234192 -0.715152 0.658568 1 
0.0718792 0.19831 0.0545362 -0.052854 -0.755669 0.652818 1 
0.0707602 0.199136 0.0551885 0.282277 -0.381904 0.880039 1 
0.0710308 0.19898 0.0552373 0.201759 -0.520326 0.829791 1 
0.0713394 0.199042 0.0549528 -0.889011 -0.41604 -0.191232 1 
0.0716594 0.197814 0.0533465 -0.165712 -0.658287 0.734301 1 
0.0726628 0.197838 0.0535967 -0.268623 -0.735931 0.621488 1 
0.0717939 0.19798 0.0539502 -0.112182 -0.82024 0.56091 1 
0.0728555 0.197683 0.0538778 -0.393329 -0.580942 0.7126 1 
0.0725563 0.197676 0.0540789 -0.411997 -0.696589 0.587385 1 
0.0726497 0.197642 0.0540674 -0.393329 -0.580942 0.7126 1 
0.073062 0.197934 0.0539452 -0.353858 -0.525132 0.773964 1 
0.0697761 0.198365 0.0546918 -0.63271 -0.652638 0.416825 1 
0.0697863 0.198629 0.0548655 -0.389495 -0.370724 0.843124 1 
0.069477 0.198358 0.0548929 -0.360848 -0.720063 0.592705 1 
0.0695908 0.198852 0.055229 -0.494466 -0.0175151 0.869021 1 
0.0698952 0.198563 0.0550748 -0.229121 -0.11648 0.966404 1 
0.0700281 0.199166 0.0552442 -0.28713 0.269816 0.919106 1 
0.0702239 0.198087 0.0548009 0.175562 -0.740415 0.648817 1 
0.070529 0.198007 0.0549038 0.217068 -0.688683 0.691807 1 
0.0705974 0.197951 0.0547548 0.30143 -0.697963 0.649606 1 
0.0707269 0.197556 0.0552317 -0.236618 -0.928053 0.287626 1 
0.0704706 0.199184 0.0553063 0.0491209 -0.280871 0.958488 1 
0.0707316 0.198973 0.0554385 0.171356 -0.327387 0.929223 1 
0.0734814 0.196635 0.0542244 0.933633 -0.340119 -0.11247 1 
0.0675621 0.203715 0.0322514 0.618665 -0.628725 -0.471125 1 
0.0676577 0.203403 0.0313384 0.79841 0.015221 -0.601921 1 
0.0675555 0.203592 0.0316903 0.387901 0.915227 -0.109054 1 
0.0678356 0.203491 0.0316558 0.563625 -0.570395 -0.597476 1 
0.0679296 0.203666 0.0319014 0.555154 -0.675913 -0.484712 1 
0.06822 0.203828 0.0320406 0.621362 -0.631411 -0.463928 1 
0.0678422 0.203613 0.0322169 0.572097 -0.682179 -0.455342 1 
0.0682157 0.203478 0.0321709 0.647869 -0.614387 -0.450327 1 
0.0684524 0.203454 0.0324227 0.668762 -0.595381 -0.445285 1 
0.0679997 0.203172 0.0321868 0.572097 -0.682179 -0.455342 1 
0.0681871 0.203314 0.0324209 0.653059 -0.609633 -0.449291 1 
0.0684239 0.203291 0.0326727 0.665752 -0.578551 -0.471225 1 
0.0686494 0.20365 0.0325735 0.691357 -0.561415 -0.454796 1 
0.0688266 0.203528 0.0326338 0.703373 -0.560371 -0.437322 1 
0.0686208 0.203487 0.0328234 0.703373 -0.560371 -0.437322 1 
0.0687149 0.203663 0.033069 0.745692 -0.488898 -0.452683 1 
0.0690052 0.203825 0.0332083 0.732657 -0.603838 -0.313996 1 
0.0690235 0.203724 0.0327846 0.759549 -0.5178 -0.393659 1 
0.0690986 0.203791 0.0331968 0.662906 -0.704041 -0.25472 1 
0.0682417 0.202853 0.0324855 0.649805 -0.613055 -0.449351 1 
0.0684989 0.203357 0.0330849 0.709225 -0.539808 -0.453439 1 
0.0684893 0.203303 0.0331682 0.709225 -0.539808 -0.453439 1 
0.0686025 0.203588 0.0332472 0.744467 -0.514389 -0.425644 1 
0.0687994 0.203784 0.0333979 0.669148 -0.72121 -0.179154 1 
0.069114 0.203759 0.0334175 0.727018 -0.46867 -0.501791 1 
0.0691831 0.203912 0.0335257 0.720931 -0.522054 -0.455761 1 
0.0694734 0.204074 0.033665 0.616611 -0.726088 -0.304281 1 
0.0690509 0.203518 0.0336134 0.720931 -0.522054 -0.455761 1 
0.0690957 0.203859 0.0338412 0.880112 -0.139723 -0.45374 1 
0.0700412 0.203346 0.0343343 0.775906 0.145576 -0.613822 1 
0.0678026 0.204789 0.0353817 0.235768 0.872491 -0.427986 1 
0.0680136 0.204534 0.035239 0.424743 0.809416 -0.40551 1 
0.0676511 0.205143 0.0357159 0.933633 -0.340119 -0.11247 1 
0.0696608 0.204216 0.033899 0.792568 -0.418075 -0.443902 1 
0.0693617 0.204209 0.0341002 0.835407 -0.394891 -0.382305 1 
0.0696323 0.204052 0.034149 0.79289 -0.463461 -0.395638 1 
0.0684709 0.20431 0.0352648 0.247451 0.860765 -0.444805 1 
0.069203 0.20428 0.0352091 0.191276 0.961655 -0.196552 1 
0.069203 0.20428 0.0352091 0.191276 0.961655 -0.196552 1 
0.0696942 0.203923 0.0350319 0.191541 0.955024 -0.226366 1 
0.0686436 0.204693 0.0355353 0.265463 0.869201 -0.417156 1 
0.0690516 0.204634 0.0355433 0.204923 0.925685 -0.317983 1 
0.0688405 0.20489 0.035686 0.265463 0.869201 -0.417156 1 
0.0694934 0.204443 0.0353484 0.188534 0.961127 -0.201718 1 
0.0698668 0.204307 0.0353024 0.209041 0.953496 -0.217133 1 
0.0696315 0.204749 0.0355647 0.0283151 0.880464 -0.473266 1 
0.0699124 0.203951 0.0341145 0.364644 0.831894 -0.418315 1 
0.0701639 0.203686 0.0343299 0.494853 0.679374 -0.541822 1 
0.0702777 0.20418 0.034666 0.713208 0.510385 -0.48046 1 
0.0698749 0.203942 0.0347048 0.612538 0.62932 -0.478283 1 
0.0700719 0.204138 0.0348556 0.721506 0.38294 -0.576876 1 
0.0704151 0.204277 0.0346252 0.691581 0.507383 -0.514081 1 
0.0703865 0.204113 0.0348752 0.0816887 0.979045 -0.186543 1 
0.0706423 0.204199 0.0349604 0.283725 0.920307 -0.269323 1 
0.0701469 0.204205 0.0352678 0.143514 0.965807 -0.215917 1 
0.0704372 0.204367 0.0354071 0.0931668 0.894123 -0.438023 1 
0.070241 0.204381 0.0355134 0.0518183 0.920772 -0.386644 1 
0.0707071 0.204002 0.0351988 -0.0269266 0.9373 -0.347481 1 
0.0710908 0.20413 0.0353266 0.420471 0.649818 -0.633199 1 
0.0700709 0.205692 0.0363513 -0.468561 -0.705342 0.531925 1 
0.0700318 0.206121 0.0365073 0.933633 -0.340119 -0.11247 1 
0.0679121 0.204933 0.035848 0.235768 0.872491 -0.427986 1 
0.0684385 0.204862 0.035982 0.269251 0.847758 -0.456958 1 
0.069024 0.203824 0.0359705 0.201253 0.904917 -0.374997 1 
0.068812 0.204726 0.035936 0.268638 0.883955 -0.382697 1 
0.0691016 0.204679 0.0358181 0.206057 0.909245 -0.361681 1 
0.0684092 0.204489 0.0359748 0.269251 0.847758 -0.456958 1 
0.068887 0.204793 0.0363482 0.263013 0.865054 -0.427206 1 
0.0695934 0.204531 0.035898 0.0643007 0.896105 -0.43916 1 
0.0699669 0.204396 0.035852 0.0986443 0.901693 -0.420975 1 
0.0691709 0.203976 0.0358464 0.174802 0.927148 -0.331424 1 
0.0699133 0.20421 0.0359645 0.0814551 0.930725 -0.356533 1 
0.0701184 0.204042 0.0355178 0.124421 0.957388 -0.26063 1 
0.0702124 0.204217 0.0357634 0.0274504 0.918934 -0.393455 1 
0.0701345 0.204219 0.0359956 0.0597128 0.924886 -0.375527 1 
0.0708653 0.20377 0.0354258 -0.0421772 0.947069 -0.318246 1 
0.0709689 0.204 0.035588 0.434583 0.60442 -0.667693 1 
0.0699058 0.204784 0.0368192 -0.352012 -0.747822 0.562894 1 
0.0700094 0.205014 0.0369814 -0.33329 -0.677961 0.6552 1 
0.069686 0.205194 0.0373023 0.147394 -0.561289 -0.814389 1 
