0.0856846 0.20271 0.052484 -0.0421428 0.946297 -0.320541 2 
0.0857773 0.202822 0.0523467 -0.0183964 0.96029 -0.278398 2 
0.085966 0.20228 0.0523233 -0.14504 0.954069 -0.262136 2 
0.0849579 0.202552 0.051136 0.537889 0.719943 0.438586 2 
0.0851453 0.202758 0.0512853 0.44246 0.891899 0.0935168 2 
0.085003 0.20262 0.0507848 0.638825 0.318604 0.700282 2 
0.0850493 0.202676 0.0507161 0.73748 0.42731 0.523 2 
0.0853053 0.202338 0.0511964 0.302484 0.952638 -0.0313781 2 
0.085577 0.202197 0.0511184 0.368689 0.928887 -0.0351753 2 
0.0855495 0.202307 0.0513355 0.262953 0.960741 -0.0885061 2 
0.0855384 0.202607 0.0511357 0.436573 0.888891 -0.138844 2 
0.085848 0.202061 0.0508993 0.518927 0.842338 -0.145535 2 
0.0855 0.20228 0.0506976 0.648918 0.756345 0.0827479 2 
0.0857839 0.202563 0.0515574 0.220708 0.9564 -0.19128 2 
0.0858098 0.203402 0.0537153 0.117143 0.954256 -0.275089 2 
0.085753 0.202903 0.0532702 0.609231 0.777709 -0.15494 2 
0.0859313 0.202655 0.0531883 -0.137191 0.827571 -0.544338 2 
0.0859118 0.202495 0.0528987 -0.236002 0.819067 -0.522907 2 
0.0862958 0.202625 0.0529731 -0.307769 0.83582 -0.454624 2 
0.0861436 0.202775 0.0525554 -0.220557 0.912499 -0.34453 2 
0.0861168 0.202879 0.0529137 0.153324 0.932375 -0.327367 2 
0.0861985 0.203291 0.0525766 -0.843048 -0.0603179 -0.534445 2 
0.0863957 0.203209 0.0526431 -0.00562888 0.987305 -0.158734 2 
0.0841922 0.202073 0.0492087 0.472381 0.502216 0.724317 2 
0.0848502 0.202775 0.0502257 0.686785 0.72422 -0.0619114 2 
0.08531 0.202097 0.0499831 0.561301 0.755411 -0.338075 2 
0.0854511 0.202248 0.0502011 0.626779 0.771307 -0.110608 2 
0.0849729 0.20349 0.0508919 0.562279 0.633198 0.531886 2 
0.0852825 0.202944 0.0506554 0.736361 0.608019 0.29679 2 
0.0868796 0.203187 0.0519322 -0.334054 0.663219 -0.669737 2 
0.0852043 0.203434 0.0544979 -0.0197521 0.907281 -0.420062 2 
0.0855224 0.203348 0.0543513 -0.0372734 0.846244 -0.531491 2 
0.0858572 0.201778 0.0506752 0.510097 0.824476 -0.245031 2 
0.0859963 0.201946 0.0504692 0.638246 0.740738 -0.209643 2 
0.0861576 0.201514 0.0506629 0.567213 0.77577 -0.276496 2 
0.0862279 0.202426 0.0523282 -0.295164 0.933055 -0.205636 2 
0.0863781 0.202294 0.052322 -0.320665 0.893386 -0.314699 2 
0.0859055 0.201817 0.0510304 0.545692 0.817782 -0.182905 2 
0.0860465 0.201967 0.0512483 0.309489 0.922763 -0.229621 2 
0.0862065 0.201547 0.0511594 0.397475 0.885759 -0.239676 2 
0.0863762 0.202312 0.0518981 -0.289869 0.923868 -0.249887 2 
0.0864879 0.201854 0.051454 0.251237 0.920245 -0.300049 2 
0.086508 0.202745 0.0523402 -0.38055 0.79803 -0.467257 2 
0.0866968 0.202203 0.0523168 -0.467951 0.732518 -0.494408 2 
0.0867033 0.202681 0.0519828 -0.345597 0.897366 -0.274401 2 
0.0854694 0.201683 0.049753 0.573823 0.677547 -0.460062 2 
0.0857606 0.201701 0.0499647 0.666814 0.707607 -0.233777 2 
0.0861178 0.201936 0.0503975 0.650783 0.711247 -0.265723 2 
0.0877142 0.202922 0.0519882 0.472381 0.502216 0.724317 2 
0.087564 0.203054 0.0519944 0.472381 0.502216 0.724317 2 
0.0869003 0.202799 0.0542515 0.472381 0.502216 0.724317 2 
0.0816419 0.203408 0.0558575 0.0415644 -0.195947 0.979733 2 
0.0814433 0.204238 0.0559637 -0.545779 0.742456 -0.388437 2 
0.0815374 0.204338 0.056109 -0.564228 0.671381 -0.480515 2 
0.0814225 0.204826 0.0558467 0.732631 0.673903 -0.0954328 2 
0.0813951 0.204199 0.0556084 0.894182 0.420538 0.153575 2 
0.0816112 0.204284 0.0558233 0.876628 0.479767 -0.0366961 2 
0.081798 0.204496 0.0558313 0.751447 0.656618 -0.064656 2 
0.0817503 0.204452 0.0556173 0.770965 0.632623 -0.0734938 2 
0.081081 0.205523 0.055311 0.886352 0.460247 0.0505316 2 
0.0814748 0.204629 0.0548474 0.802901 0.594062 0.0493876 2 
0.0813918 0.204965 0.0553572 0.776482 0.606294 0.171707 2 
0.081702 0.204413 0.0552621 0.816019 0.562212 -0.134282 2 
0.0816178 0.204762 0.0554893 0.810666 0.584628 0.0320918 2 
0.0818431 0.204564 0.05548 0.699361 0.710944 -0.0738455 2 
0.0812867 0.205165 0.0550121 0.756917 0.651829 0.0468635 2 
0.0816048 0.205079 0.0548656 0.810666 0.584628 0.0320918 2 
0.0818281 0.203626 0.0557242 0.990866 0.0652941 -0.117988 2 
0.0818822 0.204148 0.0556041 0.830511 0.556866 -0.012314 2 
0.0819287 0.204204 0.0555355 0.647039 0.759442 -0.0677302 2 
0.0821834 0.203141 0.0552778 0.646642 0.089041 0.757579 2 
0.0820064 0.203378 0.0556423 0.165826 -0.262895 0.950467 2 
0.0817844 0.204083 0.0546111 0.909522 0.349593 0.224842 2 
0.0819254 0.204233 0.054829 0.846783 0.500304 0.180707 2 
0.0819248 0.204239 0.0546877 0.858559 0.495378 0.132198 2 
0.0820561 0.203941 0.0545331 0.903206 0.348065 0.251135 2 
0.0821488 0.204053 0.0543958 0.87966 0.434673 0.193024 2 
0.0820214 0.204316 0.0553982 0.613809 0.754375 -0.232716 2 
0.0821605 0.204484 0.0551922 0.629815 0.733995 -0.254136 2 
0.0821624 0.204466 0.0556161 0.578911 0.807544 -0.112851 2 
0.0823015 0.204634 0.0554101 0.549074 0.809081 -0.209535 2 
0.0822911 0.204192 0.0548963 0.76041 0.644538 -0.0796621 2 
0.082519 0.20397 0.0554523 0.476732 0.740667 -0.473433 2 
0.0826033 0.203622 0.0552251 0.754897 0.0890691 0.649767 2 
0.0818933 0.204585 0.0562591 0.467974 0.774521 -0.425579 2 
0.0821669 0.204425 0.0566052 0.303874 0.787527 -0.536155 2 
0.0820324 0.204753 0.0560532 0.733556 0.660656 -0.159469 2 
0.0825776 0.204451 0.0563213 0.242644 0.81448 -0.527016 2 
0.0826899 0.204724 0.0564737 0.243008 0.842123 -0.481431 2 
0.0830655 0.203657 0.056003 0.286938 0.562779 -0.775208 2 
0.0830179 0.203613 0.0557891 0.151772 0.449533 -0.880276 2 
0.0828623 0.203992 0.0568671 0.325963 0.50405 -0.799801 2 
0.0823968 0.204723 0.055838 0.536493 0.834707 -0.124256 2 
0.0827167 0.204619 0.0561154 0.257631 0.855212 -0.44971 2 
0.079836 0.198796 0.0553909 0.52228 0.787412 -0.327423 2 
0.0796968 0.199364 0.0560521 0.39417 0.877444 -0.273352 2 
0.0801663 0.199135 0.056182 0.479317 0.877641 0.00132775 2 
0.0799221 0.199166 0.0560429 0.49498 0.847896 -0.189917 2 
0.0799992 0.198346 0.0560085 0.654082 0.756412 -0.00414851 2 
0.0803263 0.198715 0.0560931 0.538288 0.84151 -0.0459005 2 
0.0804759 0.198589 0.0559456 0.441437 0.897283 0.00392971 2 
0.080598 0.198573 0.0560152 0.432915 0.901357 -0.0118426 2 
0.0806907 0.198685 0.0558779 0.411219 0.911029 -0.0304117 2 
0.0804536 0.197915 0.0568378 0.485014 0.843833 -0.229583 2 
0.0804151 0.197589 0.0563997 -0.913466 -0.235967 -0.331511 2 
0.0806483 0.197857 0.0563391 -0.00983262 0.993095 -0.116899 2 
0.0805908 0.198101 0.0562079 0.335922 0.941348 0.0319318 2 
0.0807234 0.197791 0.056336 -0.673712 0.515784 -0.529225 2 
0.0807221 0.197803 0.0560534 0.212917 0.966514 0.143235 2 
0.0808233 0.198375 0.0560059 0.332851 0.94244 0.0318823 2 
0.080869 0.198437 0.055796 0.326641 0.945148 -0.00124198 2 
0.0809644 0.197789 0.0557686 0.0962389 0.992959 0.0690656 2 
0.0811035 0.197957 0.0555626 0.11137 0.993509 -0.0231562 2 
0.0812928 0.198145 0.0561359 0.152969 0.985403 0.0747057 2 
0.0795068 0.199181 0.0553377 0.369102 0.837154 -0.403656 2 
0.0795911 0.198833 0.0551105 0.412124 0.832143 -0.371069 2 
0.079834 0.198813 0.0549671 0.432484 0.815496 -0.384608 2 
0.0798634 0.198685 0.0551739 0.52228 0.787412 -0.327423 2 
0.0795734 0.199392 0.0557 0.39417 0.877444 -0.273352 2 
0.080259 0.199247 0.0560447 0.444704 0.882165 -0.154995 2 
0.0803981 0.199415 0.0558387 0.431044 0.886761 -0.166903 2 
0.0805372 0.199583 0.0556328 0.413475 0.802816 -0.429563 2 
0.0799091 0.198747 0.054964 0.441898 0.812007 -0.381276 2 
0.0802474 0.198816 0.0552483 0.555583 0.761712 -0.33335 2 
0.0802657 0.198251 0.0548002 0.449025 0.891185 -0.0645388 2 
0.0801795 0.198617 0.0546035 0.324319 0.911874 -0.251602 2 
0.0801325 0.198567 0.0545308 0.276152 0.822215 -0.497697 2 
0.0806869 0.19872 0.0550301 0.40424 0.873582 -0.271007 2 
0.0804648 0.198888 0.0557458 0.476973 0.849467 -0.225616 2 
0.0808487 0.199019 0.0558203 0.437058 0.878531 -0.192777 2 
0.081074 0.198821 0.0558111 0.346601 0.925661 -0.151725 2 
0.0806039 0.199057 0.0555399 0.453579 0.857097 -0.244235 2 
0.0808292 0.198859 0.0555306 0.411784 0.896743 -0.162131 2 
0.0805393 0.198092 0.0551462 0.261299 0.930788 0.255649 2 
0.0809977 0.198162 0.0550763 0.210154 0.973673 0.0882897 2 
0.0812334 0.198407 0.0555808 0.316641 0.947359 0.047432 2 
0.0812334 0.198407 0.0555808 0.316641 0.947359 0.047432 2 
0.0813177 0.198059 0.0553536 0.168798 0.976528 -0.133788 2 
0.0812817 0.198445 0.055936 0.416984 0.885538 0.204808 2 
0.0813744 0.198557 0.0557987 0.366299 0.930426 0.0114867 2 
0.0814306 0.198325 0.0556473 0.150233 0.969452 -0.19389 2 
0.0816638 0.198593 0.0555866 0.158934 0.967817 -0.195114 2 
0.081607 0.198095 0.0551415 0.176412 0.858341 -0.481798 2 
0.0819276 0.197985 0.0555601 0.197229 0.920877 -0.336283 2 
0.0820948 0.198037 0.0552785 0.252399 0.885636 -0.389799 2 
0.0809103 0.19854 0.054597 0.262458 0.947841 -0.180865 2 
0.0806605 0.198282 0.0572768 -0.0760008 0.980772 -0.179748 2 
0.0808375 0.198782 0.0573675 -0.0697685 0.991628 -0.108656 2 
0.0802544 0.198751 0.0568026 0.773499 0.628377 -0.0827194 2 
0.0809296 0.1989 0.0570889 0.927001 -0.225717 -0.299536 2 
0.0810602 0.198608 0.0567931 0.22481 0.973365 -0.0449619 2 
0.0812373 0.198372 0.0564286 0.265241 0.958749 0.102215 2 
0.0814338 0.198296 0.0563538 0.781506 0.00968238 0.623822 2 
0.0816199 0.198514 0.0562204 0.157295 0.981571 -0.108521 2 
0.0816467 0.19841 0.0558621 0.167508 0.982151 -0.0855616 2 
0.0818067 0.198726 0.0562284 0.185553 0.949433 -0.253272 2 
0.0818048 0.198744 0.0558045 0.214009 0.954293 -0.208625 2 
0.0819661 0.198312 0.0559982 0.190965 0.977002 -0.0948665 2 
0.0821614 0.198248 0.0556408 0.26157 0.907457 -0.328789 2 
0.0820112 0.19838 0.0556469 0.300938 0.89985 -0.315763 2 
0.0740726 0.195458 0.0610108 -0.54593 0.623678 0.559451 2 
0.0739761 0.195381 0.0603003 -0.5764 0.692677 0.433546 2 
0.0743423 0.195334 0.060509 -0.527453 0.707153 0.470881 2 
0.0739779 0.195363 0.0607242 -0.542866 0.576689 0.610513 2 
0.0742691 0.195382 0.060936 -0.545177 0.612691 0.572182 2 
0.0747968 0.194903 0.0613384 -0.595955 0.592578 0.541931 2 
0.0750769 0.195221 0.0613503 -0.398293 0.749053 0.529418 2 
0.0738526 0.195409 0.0599482 -0.689277 0.66357 0.290814 2 
0.0740688 0.195493 0.0601631 -0.762406 0.369011 0.531571 2 
0.0738964 0.196225 0.0597696 -0.935694 0.184366 0.300808 2 
0.0738885 0.195759 0.059821 -0.893541 0.222281 0.390096 2 
0.0742079 0.195661 0.0599571 -0.782975 0.342451 0.519304 2 
0.0744423 0.195918 0.060179 -0.753226 0.274333 0.597823 2 
0.0744643 0.196791 0.0614891 0.472381 0.502216 0.724317 2 
0.0738029 0.196855 0.0602209 -0.875738 -0.0536166 0.4798 2 
0.0740647 0.197738 0.060681 0.472381 0.502216 0.724317 2 
0.0744109 0.1968 0.0600034 -0.741563 -0.111012 0.661634 2 
0.0746459 0.19705 0.0603667 0.472381 0.502216 0.724317 2 
0.0744404 0.195198 0.0592999 -0.548503 0.822012 0.153105 2 
0.0743411 0.195345 0.0602264 -0.564446 0.697649 0.441234 2 
0.0744443 0.195163 0.0601477 -0.564446 0.697649 0.441234 2 
0.0741132 0.195567 0.0596705 -0.913943 0.235344 0.330637 2 
0.0744293 0.195498 0.0591001 -0.919967 0.155428 0.359865 2 
0.074117 0.195531 0.0605183 -0.653928 0.485823 0.579961 2 
0.0745761 0.195596 0.0605897 -0.603935 0.546417 0.580251 2 
0.0747557 0.195336 0.0607904 -0.583667 0.637492 0.502929 2 
0.0748948 0.195504 0.0605844 -0.499367 0.806913 0.315473 2 
0.0746212 0.195664 0.0602384 -0.736305 0.310956 0.600967 2 
0.0750834 0.195699 0.0610163 -0.799535 -0.13202 0.58593 2 
0.0752225 0.195867 0.0608103 -0.823911 0.0966761 0.558412 2 
0.073352 0.199319 0.0678979 0.0292429 0.594607 0.803485 2 
0.0730922 0.198418 0.0678617 0.695289 0.39141 0.602804 2 
0.0734566 0.198389 0.0676465 0.695289 0.39141 0.602804 2 
0.0730941 0.198401 0.0682856 0.390541 0.581692 0.713521 2 
0.0737046 0.198322 0.0686334 -0.211541 0.380774 0.900145 2 
0.0734336 0.198458 0.0688525 -0.0891871 0.665248 0.741276 2 
0.0739129 0.19794 0.0688996 -0.410441 -0.366409 0.835035 2 
0.0738842 0.198062 0.0688341 -0.28454 -0.00610602 0.958645 2 
0.0740142 0.197775 0.068397 -0.27611 0.0567349 0.95945 2 
0.074193 0.198258 0.0689116 -0.513583 0.129487 0.848213 2 
0.073382 0.199185 0.0682461 -0.196538 0.688657 0.697943 2 
0.0734585 0.198371 0.0680703 0.363108 0.551989 0.75064 2 
0.0735244 0.198587 0.0682914 -0.0825076 0.468476 0.879615 2 
0.0736635 0.198755 0.0680854 -0.130072 0.453107 0.881916 2 
0.0734846 0.199009 0.068026 -0.182549 0.642757 0.744002 2 
0.0735976 0.198539 0.0678644 -0.0825076 0.468476 0.879615 2 
0.0737844 0.198751 0.0678723 -0.130072 0.453107 0.881916 2 
0.0739815 0.198669 0.0679388 -0.219341 0.3646 0.904962 2 
0.0737315 0.198217 0.068275 -0.162677 0.293913 0.941887 2 
0.0738888 0.198557 0.0680762 -0.14165 0.436397 0.888534 2 
0.0743943 0.198678 0.0680789 -0.389618 0.235549 0.890345 2 
0.0745977 0.199274 0.0700136 0.472381 0.502216 0.724317 2 
0.0751196 0.198848 0.0691442 -0.834092 0.247309 0.493082 2 
0.0752319 0.19912 0.0692966 -0.794319 0.220558 0.566049 2 
0.0753089 0.199036 0.0697174 -0.877144 0.139709 0.459456 2 
0.0736237 0.199177 0.06782 -0.206483 0.653605 0.728125 2 
0.0737164 0.199289 0.0676827 -0.450862 0.793453 -0.408846 2 
0.0740162 0.199031 0.0675291 -0.450862 0.793453 -0.408846 2 
0.073849 0.198979 0.0678108 -0.252332 0.578325 0.775802 2 
0.0737053 0.199589 0.0674829 -0.410646 0.879529 -0.240415 2 
0.0743081 0.199044 0.0678822 -0.407927 0.443399 0.798118 2 
0.0748154 0.199147 0.0683088 -0.533353 0.253459 0.807027 2 
0.0747664 0.199114 0.0678122 -0.490805 0.160654 0.85633 2 
0.0750296 0.199249 0.0680998 -0.610731 0.122738 0.782268 2 
0.0750047 0.199336 0.0688819 -0.890436 0.175763 0.419798 2 
0.0750504 0.199397 0.068672 -0.893334 0.181572 0.411079 2 
0.0749466 0.199585 0.0686095 -0.893738 0.144428 0.424704 2 
0.0751817 0.199099 0.0685175 -0.798011 0.200652 0.568258 2 
0.0753227 0.19925 0.0687354 -0.831087 0.152588 0.5348 2 
0.0752208 0.19942 0.0690968 -0.877761 0.103183 0.467856 2 
0.0749166 0.199719 0.0682613 -0.688997 0.0470744 0.723233 2 
0.0751052 0.199914 0.0686932 -0.907075 0.157567 0.390369 2 
0.0753776 0.199766 0.0687566 -0.916961 0.0772035 0.391435 2 
0.0754807 0.200321 0.0691331 -0.680349 0.383829 0.62434 2 
0.0752913 0.200132 0.0685599 -0.930206 0.188839 0.314732 2 
0.0742291 0.197135 0.067874 0.472381 0.502216 0.724317 2 
0.0740972 0.197439 0.0678872 -0.584042 -0.584042 0.563728 2 
0.0741899 0.197551 0.0677499 -0.626916 -0.545805 0.555944 2 
0.0747932 0.197737 0.0687457 -0.727249 0.407325 0.552445 2 
0.0747449 0.197698 0.0683905 -0.408435 -0.257721 0.875649 2 
0.0751094 0.197668 0.0681752 0.161508 -0.786407 0.59622 2 
0.0748467 0.198265 0.0684843 -0.605604 0.135405 0.784161 2 
0.0751204 0.198105 0.0688303 -0.709407 0.418368 0.567195 2 
0.0750805 0.198527 0.0685649 -0.663758 0.311692 0.679907 2 
0.075155 0.198467 0.0684205 -0.704091 0.315627 0.63611 2 
0.0749387 0.197846 0.0699527 0.472381 0.502216 0.724317 2 
0.075433 0.198266 0.0697556 -0.870607 0.200225 0.449393 2 
0.0753469 0.198632 0.0695589 -0.797041 0.271969 0.539221 2 
0.0753365 0.19819 0.0690451 -0.811641 0.314847 0.492047 2 
0.0753096 0.198294 0.0694035 -0.877887 0.167982 0.448438 2 
0.0752215 0.198677 0.0687828 -0.832537 0.114783 0.541948 2 
0.0760965 0.198721 0.0697007 -0.694969 0.14623 0.704014 2 
0.0760103 0.199087 0.069504 -0.649312 0.265122 0.712814 2 
0.0763303 0.198983 0.0697814 0.472381 0.502216 0.724317 2 
0.0715885 0.193809 0.055221 0.103877 -0.488082 0.866594 2 
0.0717674 0.193556 0.0552804 -0.182004 -0.00572341 0.983281 2 
0.0718771 0.194588 0.0553228 0.723829 -0.314358 0.614207 2 
0.0719895 0.194124 0.0550199 0.532026 -0.30651 0.789304 2 
0.0719066 0.193724 0.0550744 -0.110738 -0.42473 0.898522 2 
0.0721841 0.194065 0.0545212 0.529877 -0.00134829 0.848073 2 
0.0724101 0.193862 0.0546533 0.502969 0.0774882 0.860824 2 
0.0729325 0.194903 0.0548357 0.472381 0.502216 0.724317 2 
0.0722802 0.193411 0.0546351 -0.0789502 0.00105267 0.996878 2 
0.0725819 0.193136 0.0549054 0.286284 0.129161 0.949399 2 
0.072638 0.192904 0.054754 0.304986 0.139616 0.942067 2 
0.073101 0.194206 0.0543814 0.472381 0.502216 0.724317 2 
0.0720135 0.194243 0.0562987 0.181618 0.91095 -0.370386 2 
0.0724849 0.193996 0.0568524 0.456441 0.65373 -0.603572 2 
0.0726241 0.194164 0.0566465 0.41411 0.761111 0.499223 2 
0.0727938 0.194192 0.05693 0.198123 0.591296 -0.781739 2 
0.0727076 0.194558 0.0567332 0.437283 0.863975 0.24966 2 
0.0728383 0.194266 0.0564374 0.375326 0.729345 0.572003 2 
0.0730734 0.19378 0.0563454 -0.621098 0.431272 -0.654401 2 
0.0729264 0.193882 0.0570581 0.467536 0.457693 -0.756259 2 
0.0732724 0.194417 0.057291 0.0686847 0.856456 -0.511631 2 
0.0719162 0.194909 0.0559022 -0.226983 0.961724 -0.153509 2 
0.0732732 0.194948 0.0556853 0.404877 0.772356 0.48943 2 
0.0737154 0.194092 0.055577 0.472381 0.502216 0.724317 2 
0.0731654 0.194634 0.0565221 0.380667 0.693769 0.611374 2 
0.073987 0.194687 0.0559544 0.472381 0.502216 0.724317 2 
0.0741555 0.19399 0.0555 0.472381 0.502216 0.724317 2 
0.0726686 0.195511 0.0548621 0.472381 0.502216 0.724317 2 
0.0729409 0.195363 0.0549256 0.472381 0.502216 0.724317 2 
0.0729332 0.19818 0.0528487 0.647281 0.746863 -0.15239 2 
0.0726981 0.19793 0.0524855 0.673418 0.71637 -0.182544 2 
0.0729698 0.197788 0.0524076 0.672312 0.718256 -0.179181 2 
0.0729756 0.197735 0.0536793 0.472381 0.502216 0.724317 2 
0.0727098 0.198361 0.0532819 0.546304 0.835606 -0.0575796 2 
0.0726236 0.198726 0.0530851 0.507207 0.859318 -0.0656715 2 
0.0724703 0.198151 0.0519295 0.637988 0.726642 -0.254879 2 
0.0725924 0.198135 0.0519991 0.683576 0.673971 -0.280154 2 
0.0725649 0.198245 0.0522162 0.641765 0.726913 -0.244407 2 
0.0728836 0.198154 0.0522109 0.689277 0.66357 -0.290814 2 
0.0731089 0.197956 0.0522017 0.649784 0.701125 -0.293606 2 
0.0729764 0.198266 0.0520736 0.689277 0.66357 -0.290814 2 
0.0734283 0.197858 0.0523377 0.636202 0.749645 -0.182429 2 
0.0732017 0.198068 0.0520644 0.68347 0.686627 -0.247817 2 
0.0737686 0.195699 0.0516803 -0.472381 -0.502216 -0.724317 2 
0.0734577 0.196994 0.0520893 0.285707 0.333078 -0.898571 2 
0.0732794 0.197242 0.0521712 0.589471 0.589471 -0.552312 2 
0.0735901 0.19742 0.0526726 0.578507 0.740554 -0.341919 2 
0.0738541 0.196076 0.0521909 0.209847 0.439041 -0.873617 2 
0.074332 0.197043 0.0528659 0.251471 0.72278 -0.643701 2 
0.0744743 0.197182 0.0533665 -0.0194632 0.922556 -0.385372 2 
0.0747355 0.197334 0.0532301 0.0416437 0.898698 -0.436587 2 
0.0733715 0.19736 0.0518926 0.643835 0.623768 -0.443159 2 
0.0738691 0.197014 0.0519468 0.231321 0.353528 -0.906371 2 
0.0741787 0.196468 0.0517104 0.216679 0.370826 -0.903071 2 
0.0743105 0.1969 0.0521524 0.263596 0.595064 -0.75922 2 
0.0746945 0.197031 0.0522268 0.163115 0.815573 -0.555188 2 
0.0748362 0.196439 0.0521308 -0.241401 0.786498 -0.568459 2 
0.0748728 0.196783 0.0521449 -0.100268 0.879815 -0.464621 2 
0.0752104 0.196857 0.0522881 -0.0660637 0.912758 -0.403123 2 
0.0747904 0.197114 0.052796 0.0646129 0.88671 -0.45779 2 
0.075175 0.197238 0.0530118 -0.253919 0.875945 -0.410177 2 
0.0751248 0.197217 0.0522327 -0.0660637 0.912758 -0.403123 2 
0.0753892 0.19734 0.0528027 -0.253919 0.875945 -0.410177 2 
0.0751548 0.197084 0.0525808 -0.0660637 0.912758 -0.403123 2 
0.0772249 0.224162 0.0231938 0.869786 0.429617 -0.242696 1 
0.0775938 0.223354 0.0235124 0.829023 0.454626 -0.325632 1 
0.0777141 0.223356 0.023158 0.820864 0.510518 -0.256035 1 
0.0770295 0.224962 0.0240064 0.472381 0.502216 0.724317 1 
0.0780573 0.224114 0.0250281 0.764121 0.638472 0.0920452 1 
0.0779156 0.223969 0.0246689 0.897714 0.339796 -0.280443 1 
0.0772927 0.22436 0.0238386 0.807816 0.443099 -0.388711 1 
0.0771406 0.22451 0.0234209 0.884861 0.412147 -0.217153 1 
0.0775566 0.223752 0.0238122 0.811429 0.463901 -0.355498 1 
0.0775853 0.22363 0.0238777 0.835963 0.459235 -0.300449 1 
0.0776695 0.223282 0.0236506 0.769265 0.626974 -0.123023 1 
0.0778203 0.223881 0.024241 0.794869 0.594308 -0.122401 1 
0.0774234 0.224068 0.0235428 0.794472 0.472171 -0.381927 1 
0.0776474 0.223882 0.023251 0.800162 0.466627 -0.37683 1 
0.0781115 0.223899 0.0244528 0.880525 0.400511 -0.253507 1 
0.0790747 0.220813 0.0263726 0.797067 0.589265 0.132102 1 
0.079573 0.220461 0.026568 0.819551 0.540813 0.18936 1 
0.0796878 0.22071 0.0272855 0.827081 0.502432 0.251989 1 
0.0793947 0.220709 0.0266499 0.818779 0.544345 0.182454 1 
0.0796683 0.22055 0.0269959 0.870026 0.462156 0.171658 1 
0.0786195 0.221986 0.0258572 0.874404 0.484885 -0.0174612 1 
0.0779678 0.223236 0.0254166 0.942395 0.285864 -0.173707 1 
0.078372 0.222784 0.0254668 0.92435 0.37639 -0.06251 1 
0.0782682 0.222972 0.0254043 0.940902 0.326867 -0.0886644 1 
0.0786052 0.223052 0.0254061 0.92104 0.387599 -0.0381029 1 
0.0785333 0.222352 0.0256604 0.797059 0.584709 0.151037 1 
0.0789088 0.222022 0.0256451 0.855209 0.5148 0.0599902 1 
0.0786359 0.222176 0.0254404 0.85743 0.514458 0.0121525 1 
0.0788129 0.22194 0.0250759 0.858167 0.513284 -0.00943041 1 
0.0793255 0.221259 0.0261776 0.827519 0.555025 0.0846163 1 
0.0789023 0.221545 0.0259791 0.817133 0.569255 0.0907925 1 
0.0790525 0.221413 0.0259729 0.804946 0.570233 0.163998 1 
0.0794646 0.221427 0.0259717 0.794526 0.582652 0.171012 1 
0.0793928 0.220727 0.026226 0.770552 0.611864 0.178524 1 
0.0795508 0.221061 0.0261684 0.79551 0.580344 0.174255 1 
0.0795331 0.220883 0.0263026 0.742612 0.637189 0.206195 1 
0.0792106 0.22101 0.0254601 0.873934 0.483072 0.0536747 1 
0.0795782 0.220951 0.0259514 0.754885 0.621578 0.20926 1 
0.0793516 0.221161 0.025678 0.812341 0.566715 0.13761 1 
0.0796612 0.220614 0.0254416 0.917534 0.388969 -0.0826729 1 
0.0798022 0.220765 0.0256595 0.849984 0.518561 0.0928553 1 
0.0788966 0.221597 0.0247074 0.845367 0.532678 0.0401238 1 
0.0790736 0.221361 0.0243429 0.88504 0.450334 -0.117911 1 
0.0791225 0.221394 0.0248394 0.838005 0.545455 -0.0150376 1 
0.0791219 0.2214 0.0246982 0.848261 0.528267 0.0372407 1 
0.0788991 0.221574 0.0252726 0.851402 0.522985 0.0400173 1 
0.0789663 0.221779 0.0257762 0.847566 0.524953 0.0778232 1 
0.0791244 0.221376 0.0252634 0.811334 0.575362 0.10342 1 
0.0794966 0.221812 0.0249967 0.838005 0.545455 -0.0150376 1 
0.0794353 0.220818 0.0253095 0.777054 0.591673 0.214733 1 
0.0791617 0.220978 0.0249636 0.884928 0.465682 0.00663364 1 
0.0795372 0.220648 0.0249481 0.942926 0.260165 -0.207857 1 
0.0793478 0.221196 0.0248302 0.882984 0.453578 -0.120859 1 
0.079669 0.221081 0.0253901 0.823969 0.549804 0.137082 1 
0.0796214 0.221036 0.0251762 0.89729 0.44144 0.00130991 1 
0.0798943 0.220883 0.0253809 0.348261 -0.691617 -0.632756 1 
0.0792242 0.221424 0.0266803 0.72651 0.658641 0.195896 1 
0.0795338 0.220877 0.0264439 0.805349 0.562683 0.18655 1 
0.0798982 0.220848 0.0262287 0.848583 0.524911 0.0661416 1 
0.0798583 0.221269 0.0259633 0.795262 0.575459 0.190802 1 
0.0793186 0.21985 0.0237128 0.472381 0.502216 0.724317 1 
0.0794707 0.219701 0.0241306 0.472381 0.502216 0.724317 1 
0.0795471 0.219623 0.0244101 0.472381 0.502216 0.724317 1 
0.0797506 0.220219 0.0263448 0.87394 0.470583 0.121579 1 
0.080081 0.219822 0.0266807 0.893366 0.441835 0.0817188 1 
0.0799759 0.220021 0.0263356 0.909183 0.413752 0.0468651 1 
0.0805238 0.21896 0.0267136 0.896916 0.429568 -0.104943 1 
0.0803051 0.219636 0.0263888 0.898939 0.42063 0.122391 1 
0.0803417 0.219243 0.0259477 0.925412 0.331007 -0.184519 1 
0.0796153 0.220016 0.0273986 0.822802 0.565057 0.0608958 1 
0.0798864 0.21988 0.0271794 0.860109 0.489196 0.144568 1 
0.0799908 0.219686 0.0273832 0.854666 0.505882 0.116742 1 
0.0800255 0.220048 0.0269734 0.862694 0.493581 0.110162 1 
0.0799955 0.220182 0.0266252 0.882724 0.450661 0.133052 1 
0.0802142 0.219506 0.02695 0.91414 0.387018 0.120683 1 
0.0801529 0.219785 0.0259711 0.915489 0.399945 -0.0438478 1 
0.0800668 0.220151 0.0257744 0.918779 0.388766 -0.0686057 1 
0.0797541 0.21999 0.024849 0.877141 0.28935 -0.383276 1 
0.0782344 0.223141 0.0242083 0.888009 0.400417 -0.226066 1 
0.0781912 0.223056 0.0249835 0.905123 0.420767 -0.0608827 1 
0.0784165 0.222858 0.0249742 0.923704 0.362048 -0.125271 1 
0.078218 0.222951 0.0246252 0.870891 0.470948 -0.14056 1 
0.0782441 0.223589 0.0245808 0.817129 0.571848 -0.0727288 1 
0.0785759 0.222444 0.024744 0.843735 0.536675 -0.0095107 1 
0.0783023 0.222603 0.024398 0.878912 0.448899 -0.161255 1 
0.0787261 0.222312 0.0247378 0.861665 0.50726 0.0148796 1 
0.0786418 0.22266 0.024965 0.846328 0.531543 0.0345158 1 
0.0779889 0.223184 0.0237866 0.868862 0.395493 -0.297765 1 
0.0782801 0.223203 0.0239984 0.882122 0.401507 -0.246278 1 
0.0791767 0.221916 0.0247194 0.854757 0.518815 -0.0149007 1 
0.0796357 0.22198 0.0247908 0.850869 0.512833 -0.114123 1 
0.079684 0.222019 0.025146 0.838005 0.545455 -0.0150376 1 
0.0803876 0.217831 0.0248272 0.725631 0.602258 -0.332784 1 
0.0805012 0.218092 0.0252622 0.782201 0.540053 -0.31065 1 
0.0804816 0.217932 0.0249726 0.736062 0.593703 -0.325161 1 
0.0804719 0.217483 0.0246001 0.696373 0.654558 -0.29431 1 
0.080801 0.217097 0.0246533 0.582849 0.749836 -0.313101 1 
0.0805873 0.217726 0.025459 0.686997 0.627971 -0.365633 1 
0.0805659 0.217584 0.0247454 0.688657 0.656401 -0.308041 1 
0.0809518 0.217696 0.0252438 0.638214 0.680871 -0.359303 1 
0.0806991 0.217268 0.0250148 0.654558 0.696373 -0.29431 1 
0.0810824 0.217404 0.0249479 0.563511 0.754039 -0.337461 1 
0.0798019 0.218561 0.0241525 0.881213 0.321953 -0.346137 1 
0.0798281 0.217725 0.0231976 0.765161 0.57745 -0.284748 1 
0.0798294 0.217714 0.0234802 0.77527 0.558768 -0.294507 1 
0.0800723 0.217694 0.0233368 0.683843 0.631366 -0.3657 1 
0.0803735 0.216687 0.0230105 0.769141 0.529493 -0.357853 1 
0.080222 0.216831 0.022734 0.84622 0.465344 -0.259549 1 
0.0803838 0.21713 0.0235242 0.640733 0.686383 -0.344007 1 
0.0806091 0.216932 0.023515 0.655631 0.645722 -0.391397 1 
0.08028 0.217318 0.0234618 0.66459 0.661324 -0.347808 1 
0.0803643 0.21697 0.0232346 0.722819 0.568047 -0.393517 1 
0.0805132 0.21685 0.0229458 0.769141 0.529493 -0.357853 1 
0.0809337 0.217324 0.0230344 0.616874 0.689254 -0.379994 1 
0.0801494 0.21761 0.0237576 0.726088 0.613391 -0.310721 1 
0.0802904 0.217761 0.0239755 0.715571 0.625115 -0.31175 1 
0.080208 0.218091 0.0246266 0.785947 0.512714 -0.34556 1 
0.0801218 0.218457 0.0244298 0.881648 0.358406 -0.306989 1 
0.0803015 0.217461 0.0241753 0.68461 0.655478 -0.318837 1 
0.0803289 0.21735 0.0239583 0.678665 0.652625 -0.336891 1 
0.0806019 0.217197 0.024163 0.65205 0.690882 -0.312272 1 
0.0806575 0.216971 0.0238702 0.617373 0.714597 -0.328941 1 
0.0807429 0.217347 0.0243809 0.645066 0.715147 -0.269175 1 
0.0808931 0.217215 0.0243747 0.606287 0.740662 -0.289546 1 
0.0806479 0.21819 0.0267518 0.628574 0.574648 -0.524093 1 
0.0806754 0.218079 0.0265348 0.676556 0.617006 -0.401964 1 
0.0803914 0.217796 0.025675 0.761432 0.590466 -0.26753 1 
0.0805983 0.218163 0.026114 0.695048 0.57893 -0.426318 1 
0.0807192 0.218159 0.025901 0.699745 0.590565 -0.401981 1 
0.0804096 0.218705 0.0261374 0.857884 0.422036 -0.293123 1 
0.0808035 0.217811 0.0256738 0.68956 0.620439 -0.37358 1 
0.0810288 0.217613 0.0256646 0.567725 0.731335 -0.377938 1 
0.08132 0.217631 0.0258763 0.553023 0.724708 -0.411053 1 
0.0812241 0.217549 0.0253071 0.558538 0.744174 -0.366388 1 
0.0815191 0.218269 0.026822 0.560402 0.684192 -0.466723 1 
0.0803215 0.219089 0.0255167 0.920032 0.295159 -0.257724 1 
0.0802194 0.215581 0.0234606 0.920864 -0.239167 -0.307909 1 
0.0813475 0.216784 0.0252041 0.50457 0.800628 -0.323116 1 
0.0812418 0.21699 0.0247177 0.514758 0.795245 -0.320329 1 
0.0813077 0.217206 0.0249387 0.492908 0.791542 -0.361252 1 
0.0814677 0.216786 0.0248497 0.456054 0.825316 -0.332967 1 
0.0816173 0.21666 0.0247023 0.454926 0.833249 -0.314227 1 
0.081516 0.216825 0.025205 0.457582 0.828679 -0.322351 1 
0.0817394 0.216644 0.0247719 0.516377 0.783413 -0.34586 1 
0.0819281 0.216839 0.0252037 0.492319 0.808922 -0.321353 1 
0.0820587 0.216547 0.0249079 0.510598 0.781199 -0.35919 1 
0.0822841 0.216349 0.0248986 0.561572 0.675563 -0.477756 1 
0.0821534 0.216641 0.0251945 0.507702 0.817009 -0.273378 1 
0.0818441 0.214977 0.0240651 0.472381 0.502216 0.724317 1 
0.0820314 0.215183 0.0242144 0.472381 0.502216 0.724317 1 
0.0825752 0.216367 0.0251104 0.53031 0.780245 -0.331644 1 
0.0828848 0.215821 0.024874 0.773707 0.454451 -0.44142 1 
0.0802593 0.216433 0.0224342 0.971054 -0.223705 0.0837331 1 
0.0806256 0.216385 0.022643 0.978248 -0.147918 -0.145432 1 
0.0804473 0.216633 0.0227248 0.825017 0.438637 -0.356293 1 
0.0809096 0.216668 0.0235027 0.609152 0.678864 -0.409974 1 
0.0810506 0.216819 0.0237206 0.50457 0.800628 -0.323116 1 
0.0806366 0.216822 0.023298 0.686918 0.607467 -0.398909 1 
0.0805486 0.216469 0.0222221 -0.255568 0.88328 -0.393067 1 
0.0806707 0.216453 0.0222917 -0.0731819 0.887848 -0.45428 1 
0.0807379 0.216658 0.0227953 0.947901 0.177647 -0.264436 1 
0.0807757 0.21699 0.023092 0.616874 0.689254 -0.379994 1 
0.0809115 0.216651 0.0239265 0.556291 0.745528 -0.367054 1 
0.0810995 0.216851 0.0242171 0.51534 0.809821 -0.280383 1 
0.0811935 0.216952 0.0243624 0.524877 0.811457 -0.256987 1 
0.0814744 0.216527 0.0240604 0.485836 0.846051 -0.219459 1 
0.0814658 0.216804 0.0244258 0.449781 0.838865 -0.306598 1 
0.0812556 0.217203 0.0237356 0.497409 0.817508 -0.290286 1 
0.0814847 0.21697 0.0245742 0.466237 0.813131 -0.348485 1 
0.0816441 0.216556 0.024344 0.520381 0.735142 -0.434477 1 
0.0816892 0.216624 0.0239927 0.494209 0.840916 -0.220493 1 
0.0817851 0.216706 0.0245619 0.491531 0.795736 -0.353838 1 
0.0820744 0.216742 0.0243497 0.49659 0.78908 -0.361595 1 
0.0821607 0.216376 0.0245465 0.557106 0.677562 -0.480149 1 
0.0822828 0.216361 0.024616 0.557468 0.674654 -0.483809 1 
0.0822998 0.216544 0.0243405 0.587333 0.687163 -0.427605 1 
0.0824389 0.216712 0.0241345 0.549229 0.756608 -0.354812 1 
0.0822352 0.21558 0.0239469 0.682071 0.237858 -0.691522 1 
0.081256 0.217397 0.0260792 0.517106 0.750214 -0.412043 1 
0.0813989 0.21753 0.026721 0.449148 0.800096 -0.397633 1 
0.0816883 0.217566 0.0265089 0.449148 0.800096 -0.397633 1 
0.0816334 0.21705 0.0264877 0.384909 0.768194 -0.511588 1 
0.0811601 0.217315 0.0255101 0.534574 0.758802 -0.372089 1 
0.0815356 0.216985 0.0254946 0.469049 0.802025 -0.369796 1 
0.0820997 0.217586 0.0263664 0.434849 0.773609 -0.460908 1 
0.0818078 0.217574 0.0260133 0.412409 0.803956 -0.428456 1 
0.0818626 0.21809 0.0260345 0.45605 0.808089 -0.372841 1 
0.0822571 0.21719 0.0257122 0.522884 0.772185 -0.361001 1 
0.0824446 0.21666 0.0254062 0.505847 0.808409 -0.300987 1 
0.0834907 0.215983 0.026435 0.472381 0.502216 0.724317 1 
0.0827561 0.216096 0.0255937 0.637689 0.699348 -0.322901 1 
0.0825772 0.21635 0.0255343 0.490199 0.864636 -0.110045 1 
0.0826974 0.216351 0.02518 0.468491 0.864565 -0.18178 1 
0.0829227 0.216154 0.0251707 0.743534 0.602822 -0.289419 1 
0.0826836 0.217412 0.0248702 0.451445 0.822106 -0.3469 1 
0.0802309 0.220627 0.029332 0.472381 0.502216 0.724317 1 
0.0805515 0.220517 0.0297507 -0.245696 0.771516 0.586853 1 
0.0807415 0.219963 0.0300099 -0.661805 0.162789 0.731789 1 
0.0810125 0.220564 0.030246 -0.568771 -0.0068198 0.822468 1 
0.0808792 0.22088 0.0299766 -0.658324 0.0982355 0.746297 1 
0.0813299 0.220484 0.0299581 -0.568771 -0.0068198 0.822468 1 
0.0814251 0.220573 0.030386 -0.549881 -0.0664381 0.832596 1 
0.0817164 0.220591 0.0305977 -0.430304 -0.277171 0.859078 1 
0.0818659 0.221202 0.0309055 -0.513609 -0.337606 0.788814 1 
0.0824229 0.219858 0.0310595 -0.438294 -0.00130834 0.898831 1 
0.0825333 0.220148 0.030788 -0.5099 -0.355482 0.783348 1 
0.0829858 0.219735 0.0311934 0.472381 0.502216 0.724317 1 
0.0829924 0.220213 0.0308593 -0.574449 -0.316993 0.754668 1 
0.082082 0.221286 0.0311204 -0.583522 -0.349463 0.73306 1 
0.082223 0.221437 0.0313383 -0.633643 -0.325735 0.701707 1 
0.0825893 0.221389 0.031547 -0.53651 -0.446815 0.7159 1 
0.0828726 0.221678 0.0322654 -0.496237 -0.190399 0.847052 1 
0.0831255 0.220633 0.031584 -0.573837 -0.392971 0.718529 1 
0.0830588 0.22116 0.0316769 -0.45563 -0.481948 0.748417 1 
0.0796079 0.221754 0.0289571 0.472381 0.502216 0.724317 1 
0.0803321 0.221199 0.0292846 0.472381 0.502216 0.724317 1 
0.0805182 0.221417 0.0291512 0.472381 0.502216 0.724317 1 
0.0805769 0.221161 0.029565 -0.743007 -0.0799713 0.664489 1 
0.0810275 0.221502 0.0300018 -0.656993 0.0353222 0.753069 1 
0.0812625 0.221753 0.030365 -0.582553 -0.263649 0.768844 1 
0.0819403 0.221142 0.0307612 -0.502422 -0.348324 0.791355 1 
0.0821741 0.221404 0.0308418 -0.567871 -0.30873 0.763026 1 
0.0820234 0.220805 0.0302514 -0.451994 -0.31749 0.833608 1 
0.0823609 0.22088 0.0303945 -0.453645 -0.38632 0.803096 1 
0.0829904 0.22023 0.0304355 -0.547575 -0.121197 0.827933 1 
0.0830669 0.220152 0.030715 -0.646896 -0.16591 0.744311 1 
0.082379 0.222525 0.0313121 -0.717366 -0.146494 0.681121 1 
0.0823621 0.221605 0.0311324 -0.624522 -0.347319 0.69953 1 
0.0824104 0.221643 0.0314876 -0.653517 -0.370381 0.660101 1 
0.082878 0.221431 0.0311936 -0.539604 -0.47278 0.69664 1 
0.0827474 0.221723 0.0314894 -0.530159 -0.453709 0.716296 1 
0.0829354 0.221924 0.03178 -0.573606 -0.352613 0.739351 1 
0.082718 0.221115 0.0308273 -0.53821 -0.372357 0.756096 1 
0.0830941 0.221516 0.0314084 -0.53651 -0.446815 0.7159 1 
0.0838268 0.221421 0.0318258 0.472381 0.502216 0.724317 1 
0.0833489 0.220453 0.0311508 -0.691807 -0.217068 0.688683 1 
0.0806068 0.216471 0.0333332 0.119243 -0.989831 0.0775657 1 
0.0802765 0.216132 0.0325421 -0.510812 -0.840368 -0.181256 1 
0.0803512 0.213862 0.031032 0.472381 0.502216 0.724317 1 
0.0806025 0.215039 0.0314336 0.117021 -0.748048 0.653246 1 
0.0819804 0.21449 0.0313338 -0.124872 -0.821218 0.556783 1 
0.0811525 0.214496 0.0304886 0.472381 0.502216 0.724317 1 
0.0818008 0.214749 0.0311331 -0.124872 -0.821218 0.556783 1 
0.0817996 0.214761 0.0308505 -0.137416 -0.823019 0.551142 1 
0.0823266 0.214288 0.0311116 -0.281242 -0.754745 0.592674 1 
0.0822502 0.214365 0.0308321 0.472381 0.502216 0.724317 1 
0.0805298 0.215818 0.0324572 -0.501924 -0.834506 0.227315 1 
0.080488 0.215721 0.0335149 -0.0210161 -0.999767 0.00500384 1 
0.0805056 0.215899 0.0333806 0.02545 -0.968313 0.248441 1 
0.0806271 0.215889 0.0333089 0.0198685 -0.980566 0.195178 1 
0.0807191 0.216007 0.0330303 0.13795 -0.861101 0.489361 1 
0.0806251 0.215906 0.032885 -0.0871154 -0.953068 0.289951 1 
0.0808022 0.21567 0.0325206 0.0694736 -0.903157 0.423653 1 
0.0808681 0.215886 0.0327416 0.049853 -0.90409 0.424424 1 
0.0810091 0.216037 0.0329595 0.203331 -0.847966 0.489501 1 
0.0815923 0.215331 0.0330691 0.281351 -0.80633 0.520263 1 
0.0811834 0.215287 0.0337769 0.0991084 -0.924559 0.367923 1 
0.0807217 0.215983 0.0335955 0.261752 -0.702765 0.661519 1 
0.0809183 0.215907 0.0335207 0.170869 -0.973319 0.153149 1 
0.0810104 0.216025 0.0332421 0.198634 -0.900379 0.38712 1 
0.0812442 0.216288 0.0333227 0.281215 -0.871007 0.402822 1 
0.0814322 0.216488 0.0336133 0.421006 -0.808395 0.411401 1 
0.0814537 0.215894 0.0338716 0.419223 -0.846239 0.328833 1 
0.0817809 0.215526 0.033501 0.199195 -0.880885 0.429376 1 
0.0819676 0.216475 0.0339642 0.450177 -0.862714 0.230358 1 
0.0805279 0.215835 0.0320333 -0.610036 -0.734925 0.296212 1 
0.0806324 0.215642 0.0322371 -0.413103 -0.852509 0.320271 1 
0.0810347 0.215208 0.0318634 -0.175567 -0.829815 0.529701 1 
0.0811758 0.215358 0.0320813 -0.155686 -0.837741 0.523403 1 
0.0814011 0.21516 0.032072 -0.192728 -0.856072 0.47958 1 
0.0814743 0.215112 0.031645 -0.178425 -0.835148 0.520281 1 
0.0817093 0.215362 0.0320083 0.00137528 -0.768784 0.639507 1 
0.0810275 0.215472 0.0325113 0.118019 -0.834873 0.537641 1 
0.0812606 0.215741 0.0324506 0.0961847 -0.842693 0.529734 1 
0.0816909 0.215927 0.0324564 0.0378597 -0.806272 0.590332 1 
0.0812716 0.216177 0.0331057 0.215782 -0.849547 0.48136 1 
0.0817496 0.216408 0.0333255 0.288451 -0.83105 0.475554 1 
0.0818063 0.216907 0.0337705 0.258887 -0.690895 0.675012 1 
0.0818533 0.216957 0.0338432 0.335617 -0.918306 0.209939 1 
0.0817587 0.216862 0.0335566 0.33614 -0.842695 0.420566 1 
0.0822177 0.216927 0.033628 0.0639791 -0.584343 0.808981 1 
0.0815426 0.216041 0.0328865 0.229244 -0.813893 0.533877 1 
0.0816837 0.216192 0.0331044 0.313824 -0.791728 0.524101 1 
0.0818228 0.21636 0.0328984 0.202279 -0.761249 0.616103 1 
0.0820108 0.21656 0.033189 0.0410291 -0.652222 0.756917 1 
0.0820663 0.216334 0.0328963 0.0954485 -0.729814 0.67695 1 
0.082443 0.216729 0.0336187 -0.0207569 -0.267397 0.963363 1 
0.0826214 0.216481 0.0335369 -0.0989508 -0.134716 0.985931 1 
0.0821964 0.216048 0.0324592 0.0411353 -0.719159 0.693627 1 
0.0825822 0.216897 0.0334128 -0.16628 -0.70936 0.684952 1 
0.0825247 0.217141 0.0332816 -0.100627 -0.80064 0.590636 1 
0.0824765 0.217103 0.0329264 -0.0468635 -0.756917 0.651829 1 
0.0816049 0.214819 0.0313492 -0.0841407 -0.837128 0.540497 1 
0.0818498 0.214782 0.0316296 -0.0790221 -0.803152 0.590511 1 
0.0820659 0.214866 0.0318445 0.135907 -0.76317 0.631744 1 
0.0820005 0.215381 0.03222 0.0765868 -0.764423 0.64015 1 
0.0823649 0.215351 0.0320049 0.15921 -0.726302 0.668683 1 
0.0823924 0.215241 0.0317878 0.041132 -0.721938 0.690734 1 
0.0828741 0.216173 0.0333106 -0.304555 -0.399442 0.864692 1 
0.0828937 0.216333 0.0336003 -0.297332 -0.391869 0.87065 1 
0.083119 0.216136 0.033591 -0.298994 -0.0496203 0.952964 1 
0.0832032 0.215787 0.0333638 -0.399819 -0.127662 0.90766 1 
0.0833358 0.215477 0.0334919 -0.44914 -0.174097 0.876335 1 
0.0834768 0.215628 0.0337099 -0.44914 -0.174097 0.876335 1 
0.0831634 0.216209 0.0330985 -0.444886 -0.356225 0.821693 1 
0.0839267 0.215975 0.0340053 -0.466874 0.0338314 0.883677 1 
0.0841625 0.215483 0.0340546 0.472381 0.502216 0.724317 1 
0.0842643 0.216049 0.0341485 0.472381 0.502216 0.724317 1 
0.0838961 0.216114 0.0335159 -0.44914 -0.174097 0.876335 1 
0.084216 0.216011 0.0337932 -0.466874 0.0338314 0.883677 1 
0.0747384 0.2199 0.0343515 0.00127689 -0.384343 -0.923189 1 
0.0748886 0.219768 0.0343453 0.0725495 -0.43119 -0.899339 1 
0.0762805 0.215948 0.0331895 -0.472381 -0.502216 -0.724317 1 
0.0747235 0.218962 0.0345956 0.0757439 -0.442069 -0.893777 1 
0.0747894 0.219178 0.0348166 0.0757439 -0.442069 -0.893777 1 
0.0749566 0.21923 0.0345349 0.0464198 -0.391253 -0.919112 1 
0.0750898 0.218914 0.0348043 -0.376586 -0.546131 -0.748281 1 
0.0751819 0.219032 0.0345257 -0.376586 -0.546131 -0.748281 1 
0.0753614 0.218772 0.0347264 -0.366341 -0.545441 -0.753849 1 
0.0760995 0.21843 0.0340719 -0.729769 -0.541973 -0.416776 1 
0.0755664 0.219157 0.0347415 -0.366341 -0.545441 -0.753849 1 
0.0757056 0.219325 0.0345355 -0.366341 -0.545441 -0.753849 1 
0.0756527 0.218791 0.0349382 -0.369872 -0.555623 -0.744633 1 
0.0756814 0.218669 0.0350038 -0.369872 -0.555623 -0.744633 1 
0.0758394 0.219003 0.0349462 -0.369872 -0.555623 -0.744633 1 
0.0756416 0.219091 0.0347384 -0.366341 -0.545441 -0.753849 1 
0.0757807 0.219259 0.0345324 -0.366341 -0.545441 -0.753849 1 
0.0764515 0.216702 0.0342109 0.245636 0.363306 -0.898705 1 
0.0766206 0.216736 0.0343531 0.245636 0.363306 -0.898705 1 
0.0763443 0.218393 0.0343524 -0.151593 0.156604 -0.975958 1 
0.0767309 0.217763 0.0345367 -0.122921 0.142393 -0.982148 1 
0.0768543 0.216999 0.0344337 -0.185125 0.174768 -0.96705 1 
0.0769935 0.217167 0.0342277 -0.183069 0.137617 -0.973421 1 
0.0767394 0.217487 0.0341714 -0.122921 0.142393 -0.982148 1 
0.0768146 0.217421 0.0341683 -0.122921 0.142393 -0.982148 1 
0.0760563 0.218345 0.0348471 -0.632465 -0.700752 0.330052 1 
0.0766179 0.218233 0.0346983 -0.288215 0.0336874 -0.956973 1 
0.0773808 0.215794 0.0340981 0.241194 0.269404 -0.932334 1 
0.077369 0.216837 0.0342123 -0.0440873 0.123218 -0.9914 1 
0.0771887 0.217102 0.0338703 -0.166667 0.117284 -0.979013 1 
0.0773965 0.216727 0.0339953 -0.0440873 0.123218 -0.9914 1 
0.0777712 0.217139 0.0342938 -0.0581657 0.119753 -0.991098 1 
0.0774735 0.215906 0.0339609 0.241194 0.269404 -0.932334 1 
0.077691 0.215242 0.034003 0.278677 -0.0648973 -0.95819 1 
0.0777374 0.215298 0.0339344 0.278677 -0.0648973 -0.95819 1 
0.0780567 0.215201 0.0340705 0.27259 -0.108253 -0.956021 1 
0.0782742 0.214537 0.0341126 0.496234 0.0511439 -0.866681 1 
0.0781965 0.215363 0.0340058 0.251383 -0.123738 -0.959946 1 
0.0784877 0.215381 0.0342175 0.196322 -0.484061 -0.852727 1 
0.0784387 0.216086 0.0341763 0.0470113 -0.136448 -0.989531 1 
0.0761823 0.209659 0.0323624 -0.353844 -0.391255 0.849538 1 
0.0779067 0.211849 0.0340026 -0.72302 -0.360694 0.589188 1 
0.0775805 0.218436 0.0343485 -0.472381 -0.502216 -0.724317 1 
0.073298 0.219861 0.0390273 0.195213 -0.978491 0.0666877 1 
0.0735409 0.219841 0.0388838 -0.307896 -0.852517 -0.422391 1 
0.073635 0.219941 0.0390291 -0.307896 -0.852517 -0.422391 1 
0.0738126 0.219699 0.0388059 -0.513291 -0.734452 -0.443972 1 
0.073633 0.219959 0.0386052 -0.525247 -0.720765 -0.452342 1 
0.0736794 0.220015 0.0385366 -0.513291 -0.734452 -0.443972 1 
0.0738015 0.219999 0.0386061 -0.513291 -0.734452 -0.443972 1 
0.0739902 0.220193 0.039038 -0.307896 -0.852517 -0.422391 1 
0.0740928 0.220017 0.0388179 -0.514923 -0.74195 -0.429377 1 
0.0742338 0.220168 0.0390358 -0.405822 -0.787392 -0.464028 1 
0.0742568 0.220098 0.0378297 -0.705672 -0.644589 -0.294164 1 
0.0738185 0.220183 0.0383306 -0.68093 -0.594357 -0.427871 1 
0.0740909 0.220035 0.038394 -0.648148 -0.667839 -0.365917 1 
0.0741196 0.219913 0.0384596 -0.648148 -0.667839 -0.365917 1 
0.07423 0.220203 0.038188 -0.670601 -0.650926 -0.355796 1 
0.0744108 0.219931 0.0386714 -0.648148 -0.667839 -0.365917 1 
0.0740047 0.220401 0.0381973 -0.68093 -0.594357 -0.427871 1 
0.0739936 0.220701 0.0379975 -0.742795 -0.49904 -0.446336 1 
0.074343 0.219733 0.0380264 -0.592576 -0.782445 -0.1914 1 
0.0744736 0.21944 0.0377306 -0.595791 -0.78169 -0.184375 1 
0.0746696 0.21937 0.0375145 -0.517634 -0.855516 0.0121637 1 
0.074578 0.219983 0.0383897 -0.602104 -0.759311 -0.246815 1 
0.0748033 0.219785 0.0383805 -0.602324 -0.76955 -0.212129 1 
0.0746806 0.219807 0.0381695 -0.595791 -0.78169 -0.184375 1 
0.074981 0.219543 0.0381572 -0.452996 -0.891465 0.00924482 1 
0.0746297 0.219792 0.0372491 -0.580155 -0.813341 -0.0435468 1 
0.0747147 0.219438 0.0371633 -0.50242 -0.863833 -0.0369628 1 
0.0749419 0.219223 0.0375779 -0.455107 -0.890428 -0.00395746 1 
0.0748472 0.219128 0.0372913 -0.366002 -0.928878 0.0568162 1 
0.0750829 0.219373 0.0377959 -0.423333 -0.902835 0.0753505 1 
0.0753082 0.219175 0.0377866 -0.272411 -0.952774 0.134212 1 
0.0751312 0.219411 0.0381511 -0.427288 -0.902053 0.0610412 1 
0.0755237 0.219265 0.0378602 -0.221 -0.96542 0.138286 1 
0.0750803 0.219396 0.0372307 -0.266923 -0.955928 0.122285 1 
0.0752501 0.219425 0.0375142 -0.2965 -0.948002 0.115675 1 
0.0753526 0.219249 0.0372941 -0.198483 -0.969364 0.1447 1 
0.0754754 0.219227 0.037505 -0.198483 -0.969364 0.1447 1 
0.0756145 0.219395 0.037299 -0.182084 -0.971538 0.151524 1 
0.0751542 0.219342 0.036945 -0.137024 -0.969415 0.203616 1 
0.0754447 0.219367 0.0370155 -0.139262 -0.969727 0.200589 1 
0.0756628 0.219433 0.0376542 -0.222502 -0.964175 0.144431 1 
0.0756048 0.218947 0.0369265 -0.122832 -0.97126 0.203876 1 
0.0758941 0.218983 0.0367144 -0.0463043 -0.959876 0.276575 1 
0.0758398 0.219197 0.0372897 -0.136852 -0.975543 0.172007 1 
0.0758849 0.219265 0.0369384 -0.122832 -0.97126 0.203876 1 
0.0764008 0.219091 0.0369997 -0.116635 -0.974463 0.191883 1 
0.0764478 0.219142 0.0370723 -0.116635 -0.974463 0.191883 1 
0.0761774 0.219272 0.0374329 -0.122573 -0.986534 0.108293 1 
0.0758079 0.219348 0.0365176 -0.0365671 -0.952007 0.303886 1 
0.0761096 0.219073 0.036788 -0.0257591 -0.962899 0.26863 1 
0.0763995 0.219103 0.0367171 -0.114258 -0.95478 0.274483 1 
0.0766248 0.218905 0.0367079 -0.0587292 -0.938362 0.340629 1 
0.0757123 0.209158 0.031636 -0.428991 -0.416137 0.801746 1 
0.0759846 0.20901 0.0316994 -0.331639 -0.292972 0.896763 1 
0.0762007 0.209094 0.0319142 -0.353844 -0.391255 0.849538 1 
0.0764051 0.209485 0.031788 -0.301421 -0.25527 0.918685 1 
0.0760296 0.209815 0.0318034 -0.405006 -0.421015 0.811614 1 
0.0764051 0.209485 0.031788 -0.301421 -0.25527 0.918685 1 
0.0763973 0.209019 0.0318394 -0.353844 -0.391255 0.849538 1 
0.0766506 0.208705 0.0317545 -0.353844 -0.391255 0.849538 1 
0.07652 0.208997 0.0320503 -0.353844 -0.391255 0.849538 1 
0.0768576 0.209071 0.0321934 -0.321635 -0.274638 0.906159 1 
0.0769797 0.209056 0.032263 -0.321635 -0.274638 0.906159 1 
0.0771273 0.209684 0.0321469 -0.362607 -0.242228 0.899912 1 
0.0770346 0.208835 0.0318289 -0.353844 -0.391255 0.849538 1 
0.0769614 0.20962 0.0327111 -0.389799 -0.252399 0.885636 1 
0.0774466 0.209586 0.0322829 -0.389799 -0.252399 0.885636 1 
0.0776536 0.209953 0.0327219 -0.606615 -0.032222 0.794343 1 
0.0776163 0.210351 0.0330217 -0.632553 -0.185324 0.752018 1 
0.0783489 0.210256 0.033439 -0.666477 -0.186244 0.721888 1 
0.0771631 0.210771 0.032475 -0.842695 0.142655 0.519147 1 
0.0775478 0.210159 0.0322354 -0.624762 -0.0180889 0.780605 1 
0.0780484 0.211257 0.0339066 -0.712288 -0.152741 0.685067 1 
0.0779506 0.211192 0.0329135 -0.679283 -0.206738 0.704154 1 
0.0779022 0.21189 0.0330135 -0.664261 -0.220378 0.714276 1 
0.0781752 0.211737 0.0332183 -0.746498 -0.219742 0.628056 1 
0.0778037 0.210558 0.0331709 -0.656174 -0.049818 0.752963 1 
0.0778958 0.210676 0.0328923 -0.656174 -0.049818 0.752963 1 
0.0780179 0.21066 0.0329619 -0.693077 -0.101534 0.713678 1 
0.0778018 0.210575 0.032747 -0.663526 -0.0527967 0.746288 1 
0.0779447 0.210708 0.0333889 -0.679283 -0.206738 0.704154 1 
0.0783567 0.210723 0.0333876 -0.676945 -0.179598 0.713786 1 
0.078499 0.210861 0.0338881 -0.62259 -0.286487 0.728222 1 
0.0786754 0.210631 0.0333823 -0.713011 -0.0893094 0.695442 1 
0.0784116 0.211239 0.0334088 -0.692396 -0.202917 0.692396 1 
0.0786271 0.211329 0.0334824 -0.6897 -0.220516 0.6897 1 
0.0787309 0.211141 0.0335448 -0.6897 -0.220516 0.6897 1 
0.0784796 0.209964 0.0331432 -0.695769 -0.0588176 0.715853 1 
0.0687161 0.211435 0.0395471 0.472381 0.502216 0.724317 1 
0.069603 0.21171 0.0390591 0.0402907 0.83499 -0.548787 1 
0.0700425 0.211614 0.0388409 0.0971016 0.879543 -0.465806 1 
0.0690158 0.211914 0.0398488 0.472381 0.502216 0.724317 1 
0.0691941 0.211666 0.0397669 0.513206 0.690405 0.509863 1 
0.0691085 0.212026 0.0397115 0.479515 0.761005 0.436964 1 
0.0694181 0.21148 0.0394751 0.207052 0.888413 -0.409698 1 
0.0696799 0.211626 0.03948 0.0402907 0.83499 -0.548787 1 
0.0697825 0.21145 0.0392599 0.0774882 0.860824 -0.502969 1 
0.0699053 0.211428 0.0394707 0.0686847 0.856456 -0.511631 1 
0.0702312 0.211072 0.0388175 0.0149535 0.846909 -0.531527 1 
0.0704565 0.210874 0.0388083 0.0179757 0.808904 -0.587665 1 
0.0703802 0.210952 0.0385287 0.0124196 0.801756 -0.597522 1 
0.0702057 0.211165 0.0394584 0.0854785 0.875805 -0.475036 1 
0.0700542 0.211308 0.039182 0.0541924 0.860131 -0.507186 1 
0.0702795 0.21111 0.0391727 0.0232469 0.846461 -0.531944 1 
0.0706171 0.211185 0.0393158 0.0321872 0.799081 -0.600361 1 
0.0707843 0.211237 0.0390342 0.0354037 0.703826 -0.70949 1 
0.0708045 0.211391 0.0394651 -0.139302 -0.624613 -0.768409 1 
0.070877 0.211349 0.0388969 -0.185353 -0.534962 -0.824294 1 
0.0709253 0.211387 0.0392521 -0.114027 -0.673795 -0.730068 1 
0.0711225 0.211305 0.0393186 0.0237743 0.633516 -0.773365 1 
0.0709704 0.211455 0.0389008 -0.185353 -0.534962 -0.824294 1 
0.0711976 0.211239 0.0393155 0.0181045 0.647583 -0.76178 1 
0.0712433 0.211301 0.0391056 -0.0440567 -0.717698 -0.694959 1 
0.0715621 0.21121 0.0391003 0.0428339 0.520916 -0.852533 1 
0.0717123 0.211078 0.0390941 0.0954129 0.418987 -0.902965 1 
0.0715816 0.21137 0.03939 0.0149662 0.534701 -0.844909 1 
0.0719284 0.211162 0.039309 0.0836919 0.412971 -0.90689 1 
0.0711384 0.210027 0.03785 -0.472381 -0.502216 -0.724317 1 
0.0721726 0.21113 0.0394481 0.0700234 0.350117 -0.934085 1 
0.0731667 0.208977 0.0383634 -0.472381 -0.502216 -0.724317 1 
0.0712794 0.210915 0.0385232 -0.0524088 0.80313 -0.593495 1 
0.0712421 0.211313 0.0388229 -0.0617947 -0.691238 -0.71998 1 
0.0716541 0.211327 0.0388217 0.0900693 0.433718 -0.896536 1 
0.0714191 0.211077 0.0384585 -0.0646737 0.766024 -0.639551 1 
0.0716444 0.210879 0.0384492 0.0439708 0.767362 -0.639705 1 
0.0719264 0.21118 0.0388851 0.0966013 0.826157 -0.555097 1 
0.0720674 0.21133 0.039103 0.112096 0.822526 -0.557571 1 
0.0719226 0.211215 0.0380373 0.136321 0.735535 -0.66363 1 
0.0721316 0.210091 0.0379897 0.140314 0.550916 -0.822681 1 
0.072451 0.209993 0.0381257 0.212135 0.431687 -0.876724 1 
0.0725359 0.209639 0.0380398 0.17182 0.266523 -0.94839 1 
