0.0725465 0.198143 0.038077 0.132577 -0.293277 -0.94679 1 
0.0727722 0.197933 0.0381479 0.0266626 -0.175046 -0.984199 1 
0.0729987 0.197967 0.0382347 0.0387383 -0.181953 -0.982544 1 
0.0737701 0.198762 0.0385553 0.0416971 -0.0566652 -0.997522 1 
0.0736269 0.198372 0.038278 -0.0318046 -0.0976073 -0.994717 1 
0.0730753 0.199183 0.0377806 0.569915 -0.217772 -0.792321 1 
0.0709934 0.198788 0.0370325 0.588384 -0.632218 -0.504088 1 
0.0707544 0.19837 0.036555 0.477737 -0.785433 -0.393526 1 
0.0708947 0.198726 0.0367386 0.550439 -0.68763 -0.473478 1 
0.0713045 0.198955 0.0369605 0.805549 -0.389162 -0.446815 1 
0.0733861 0.197659 0.0391909 -0.0189193 -0.127984 -0.991596 1 
0.0738227 0.197065 0.0388642 -0.138441 -0.191785 -0.971624 1 
0.0739601 0.197386 0.038954 -0.200163 -0.136417 -0.970219 1 
0.0739541 0.197316 0.0387666 -0.173784 -0.173784 -0.969329 1 
0.0740856 0.197568 0.038669 -0.204703 -0.234528 -0.950312 1 
0.0743069 0.197777 0.0385843 -0.237978 -0.224222 -0.945035 1 
0.07411 0.197148 0.0394647 -0.225453 -0.147261 -0.96306 1 
0.0742207 0.197155 0.0387112 -0.246407 -0.181776 -0.951967 1 
0.0743982 0.197281 0.038659 -0.278032 -0.17942 -0.943667 1 
0.0731434 0.196961 0.0386039 -0.0345893 -0.211114 -0.976849 1 
0.0734998 0.196758 0.0385613 -0.0346066 -0.208833 -0.977339 1 
0.0737722 0.196667 0.0386934 -0.139714 -0.120276 -0.98286 1 
0.0740834 0.196834 0.0386214 -0.204484 -0.142753 -0.968405 1 
0.0744471 0.196247 0.0388281 -0.248102 -0.106697 -0.96284 1 
0.0744814 0.196925 0.0384685 -0.243335 -0.163553 -0.956054 1 
0.0744777 0.197588 0.0383288 -0.364968 -0.249715 -0.896906 1 
0.0745646 0.197512 0.0382478 -0.321475 -0.254562 -0.912059 1 
0.07497 0.197218 0.0383442 -0.51484 -0.232062 -0.82528 1 
0.074304 0.198685 0.0384605 -0.261029 -0.0157832 -0.965202 1 
0.074385 0.198539 0.0381921 -0.270049 -0.0410673 -0.961971 1 
0.0749686 0.197672 0.0382823 -0.478628 -0.189364 -0.857355 1 
0.0749597 0.197567 0.0380012 -0.496921 -0.196667 -0.845217 1 
0.0750665 0.196547 0.0385904 -0.519147 -0.142655 -0.842695 1 
0.0705324 0.206013 0.0593366 0.204033 0.225652 0.952603 1 
0.0708946 0.203993 0.0595417 0.227115 0.0449372 0.972831 1 
0.070899 0.203574 0.0596973 0.204589 0.109198 0.972738 1 
0.0709837 0.203707 0.0595385 0.221128 0.0549765 0.973694 1 
0.0709473 0.205125 0.0597601 0.335672 0.0862397 0.938023 1 
0.0711197 0.205425 0.0595364 0.284746 0.0651212 0.956389 1 
0.0704076 0.205132 0.0596676 0.219285 0.0780505 0.972534 1 
0.0705397 0.204685 0.059616 0.289705 0.0759672 0.954096 1 
0.0706712 0.204937 0.0595185 0.30417 0.0822433 0.949061 1 
0.0706749 0.204273 0.0596582 0.227115 0.0449372 0.972831 1 
0.0709451 0.204391 0.0597124 0.275066 0.0780419 0.958253 1 
0.0710766 0.204643 0.0596149 0.310362 0.0851203 0.9468 1 
0.0710647 0.204503 0.0592401 0.312465 0.0936077 0.945306 1 
0.0709823 0.205104 0.0594465 0.307992 0.0851893 0.947567 1 
0.0710721 0.205062 0.0594593 0.307992 0.0851893 0.947567 1 
0.0712452 0.205607 0.0592514 0.23383 0.0787769 0.969081 1 
0.0715206 0.20555 0.0594772 0.263618 0.0512243 0.963266 1 
0.0712466 0.20421 0.0593434 0.307992 0.0851893 0.947567 1 
0.071606 0.204042 0.0593946 0.328811 0.108709 0.938118 1 
0.0714709 0.204454 0.0593524 0.328424 0.091746 0.940064 1 
0.0712949 0.204817 0.0594364 0.307197 0.107719 0.94553 1 
0.0715213 0.204852 0.0595231 0.275742 0.0782337 0.958043 1 
0.0717382 0.204538 0.0593129 0.290845 0.0653441 0.954536 1 
0.0718214 0.205124 0.0590923 0.222449 0.0498383 0.97367 1 
0.0719237 0.20358 0.059556 0.204199 0.103979 0.973392 1 
0.0743994 0.203348 0.0586036 -0.440608 -0.835745 0.327712 1 
0.0732782 0.20307 0.0585289 -0.440608 -0.835745 0.327712 1 
0.0741181 0.203335 0.0581905 -0.440608 -0.835745 0.327712 1 
0.0733548 0.203343 0.0581049 -0.440608 -0.835745 0.327712 1 
0.0712029 0.206012 0.0593157 0.179343 0.224511 0.957826 1 
0.0713826 0.205928 0.0593413 0.237218 0.201974 0.950228 1 
0.0719084 0.206933 0.0589511 0.0579368 0.310284 0.948877 1 
0.071598 0.206068 0.0590691 0.162932 0.237112 0.957722 1 
0.0714154 0.20706 0.0589197 0.186031 0.253925 0.949165 1 
0.0717228 0.206948 0.0587381 0.207262 0.207262 0.956078 1 
0.0717331 0.205655 0.0591113 0.165377 0.175633 0.970466 1 
0.0719127 0.205571 0.0591368 0.151288 0.176715 0.972566 1 
0.0720472 0.205858 0.059133 0.130759 0.199313 0.971173 1 
0.0721407 0.206095 0.0592554 0.130517 0.226144 0.96531 1 
0.0720442 0.205823 0.0590393 0.130759 0.199313 0.971173 1 
0.0721296 0.205257 0.0589266 0.178106 0.0994937 0.978968 1 
0.0721845 0.206179 0.0592228 0.0880295 0.253882 0.963221 1 
0.0724415 0.206612 0.0588404 0.108765 0.234166 0.966093 1 
0.0724787 0.206381 0.0586045 0.108765 0.234166 0.966093 1 
0.0727921 0.206339 0.0586103 0.0913757 0.268979 0.958802 1 
0.0720859 0.207059 0.0588988 0.0456143 0.353185 0.934441 1 
0.0730675 0.207226 0.058806 0.168495 0.330028 0.928812 1 
0.0722552 0.207325 0.0585814 0.186352 0.181139 0.965641 1 
0.0725307 0.207268 0.0588071 0.117948 0.387147 0.914443 1 
0.0730616 0.207156 0.0586186 0.168495 0.330028 0.928812 1 
0.0732888 0.207435 0.0587212 -0.00109968 -0.13526 0.990809 1 
0.0725921 0.205675 0.0593971 0.065419 0.16771 0.983663 1 
0.0729129 0.206191 0.059622 0.040828 0.263526 0.963788 1 
0.0730873 0.205339 0.0595062 -0.197981 -0.0692325 0.977758 1 
0.0723144 0.204998 0.0591237 0.0763399 0.0268802 0.996719 1 
0.0728439 0.20534 0.0588732 -0.0276094 0.226877 0.973532 1 
0.0732567 0.205605 0.0591888 0.0369527 0.319832 0.946753 1 
0.0736643 0.205101 0.059363 -0.440608 -0.835745 0.327712 1 
0.0733749 0.207114 0.0586244 0.0320729 0.20788 0.977628 1 
0.0734603 0.206548 0.0585117 -0.0128397 0.201933 0.979315 1 
0.0725751 0.204768 0.0588809 0.0450863 0.0868737 0.995199 1 
0.0740719 0.204598 0.0595372 -0.440608 -0.835745 0.327712 1 
0.0750119 0.204471 0.0595546 -0.440608 -0.835745 0.327712 1 
0.0744923 0.204284 0.05868 -0.440608 -0.835745 0.327712 1 
0.0851943 0.212368 0.0514969 -0.346997 -0.530986 -0.773077 1 
0.0851855 0.212264 0.0512158 -0.328688 -0.493826 -0.805047 1 
0.0850349 0.213201 0.0506591 -0.119316 -0.419711 -0.899781 1 
0.0848946 0.213788 0.0504454 -0.440608 -0.835745 0.327712 1 
0.0855894 0.212424 0.0512503 -0.359459 -0.504532 -0.785007 1 
0.0853169 0.212515 0.0511182 -0.329637 -0.504806 -0.797816 1 
0.0854359 0.213326 0.0505999 -0.151902 -0.398921 -0.904316 1 
0.0857757 0.211711 0.0515092 -0.471165 -0.422255 -0.774406 1 
0.0861387 0.210879 0.0517001 -0.440608 -0.835745 0.327712 1 
0.0863957 0.211313 0.0513176 -0.233871 -0.412625 -0.880366 1 
0.0866623 0.211152 0.0512622 -0.230014 -0.538758 -0.810453 1 
0.087116 0.212408 0.0514215 0.0515958 -0.377046 -0.924756 1 
0.08585 0.212194 0.0510075 -0.214495 -0.344055 -0.914122 1 
0.0861671 0.212431 0.0511229 -0.244317 -0.292895 -0.924404 1 
0.0857514 0.212131 0.0507136 -0.3697 -0.436341 -0.820322 1 
0.0862422 0.212215 0.0506672 -0.435219 -0.26724 -0.859748 1 
0.086739 0.21331 0.050778 -0.575774 -0.0263608 -0.817184 1 
0.0862415 0.212913 0.0506212 -0.417156 -0.265463 -0.869201 1 
0.0863773 0.212745 0.0506792 -0.40333 -0.250395 -0.880129 1 
0.0869996 0.21308 0.0505353 -0.725176 0.155936 -0.670674 1 
0.0863802 0.211837 0.050803 -0.384076 -0.435074 -0.814369 1 
0.0869609 0.211878 0.0507694 -0.589265 -0.218074 -0.777953 1 
0.0870151 0.212555 0.0510497 -0.347286 -0.217594 -0.912165 1 
0.0870857 0.212759 0.0504384 -0.705752 0.0891322 -0.70283 1 
0.0864264 0.213597 0.0507881 -0.191035 -0.247939 -0.949754 1 
0.0870442 0.213408 0.0505186 -0.703562 0.0768841 -0.706463 1 
0.0867175 0.213765 0.0500761 -0.531783 -0.139943 -0.835238 1 
0.0870221 0.214561 0.0497707 -0.941815 -0.0774995 0.327074 1 
0.0871624 0.213974 0.0499844 -0.922541 -0.233138 -0.307514 1 
0.0872559 0.214212 0.0501067 -0.753849 -0.366341 -0.545441 1 
0.0871251 0.213262 0.0502503 -0.739807 0.0295923 -0.672168 1 
0.0876723 0.213813 0.0505621 -0.410177 -0.253919 -0.875945 1 
0.0878959 0.213812 0.0505551 -0.471075 -0.322978 -0.820837 1 
0.0876635 0.213708 0.050281 -0.880368 -0.300503 -0.366946 1 
0.0880586 0.213764 0.0500343 -0.888886 -0.334269 -0.313283 1 
0.0872931 0.214924 0.0498408 -0.55065 -0.700373 -0.454161 1 
0.0874246 0.215176 0.0497433 -0.440608 -0.835745 0.327712 1 
0.088313 0.212715 0.0510564 -0.87648 0.350896 -0.329629 1 
0.0868335 0.214541 0.049464 -0.979306 -0.0968275 0.177721 1 
0.0866726 0.213942 0.0486246 -0.440608 -0.835745 0.327712 1 
0.0868752 0.214835 0.0493537 -0.983357 0.107649 -0.146355 1 
0.086976 0.212801 0.0497857 -0.719487 -0.00974161 -0.694437 1 
0.0866468 0.211676 0.0507477 -0.455104 -0.438792 -0.774818 1 
0.086811 0.212117 0.0502587 -0.659084 -0.0891444 -0.746767 1 
0.0871667 0.212612 0.0501701 -0.650345 -0.0829299 -0.755099 1 
0.0870212 0.212431 0.0498151 -0.633477 -0.145955 -0.759871 1 
0.0871578 0.212508 0.049889 -0.653142 -0.0498039 -0.755596 1 
0.0870102 0.213479 0.049426 -0.867997 -0.310764 -0.387307 1 
0.0871899 0.213395 0.0494516 -0.941788 -0.205456 -0.266127 1 
0.087304 0.212933 0.05026 -0.657567 0.0708149 -0.75006 1 
0.087705 0.213059 0.0502008 -0.851343 0.235219 -0.468921 1 
0.0875647 0.212703 0.0500172 -0.730516 0.297023 -0.614918 1 
0.0878276 0.213206 0.0498221 -0.997762 0.0179492 -0.0644058 1 
0.0870109 0.212781 0.049472 -0.694745 -0.133547 -0.706749 1 
0.0874439 0.213794 0.0489754 -0.947882 -0.314251 -0.0525889 1 
0.0872775 0.21262 0.0494167 -0.691706 -0.227432 -0.685432 1 
0.0878011 0.213835 0.0489487 -0.870391 -0.394801 0.294195 1 
0.0879237 0.213982 0.04857 -0.440608 -0.835745 0.327712 1 
0.0879657 0.212828 0.049958 -0.861007 0.462698 0.211134 1 
0.0878254 0.212472 0.0497744 -0.603214 0.663369 0.442803 1 
0.0879568 0.212724 0.0496769 -0.807145 0.540679 0.237031 1 
0.088176 0.213143 0.0495143 -0.924911 0.371844 0.0792013 1 
0.0752735 0.19773 0.0480697 0.156796 -0.337182 -0.92829 1 
0.0752757 0.198463 0.0481174 0.170819 -0.448216 -0.877453 1 
0.0757131 0.198114 0.0478065 0.0521807 -0.402728 -0.913831 1 
0.0740812 0.198696 0.047108 -0.440608 -0.835745 0.327712 1 
0.074719 0.198507 0.0474785 -0.440608 -0.835745 0.327712 1 
0.0754399 0.198904 0.0476284 -0.440608 -0.835745 0.327712 1 
0.0762478 0.199224 0.0476974 -0.0675363 -0.358869 -0.930941 1 
0.0766333 0.199874 0.0471237 0.354154 -0.589169 -0.726261 1 
0.0765857 0.199511 0.0470466 -0.0800408 -0.492883 -0.866406 1 
0.0769624 0.200056 0.0461918 -0.220614 -0.835289 -0.503608 1 
0.076465 0.200602 0.0460048 -0.440608 -0.835745 0.327712 1 
0.0765548 0.20056 0.0460176 -0.440608 -0.835745 0.327712 1 
0.0781887 0.204044 0.0452052 0.440608 0.835745 -0.327712 1 
0.0788398 0.205425 0.0459522 0.675687 -0.731383 0.0923389 1 
0.0789697 0.205188 0.0458229 0.675687 -0.731383 0.0923389 1 
0.0788205 0.204728 0.0453582 0.388089 0.0797814 -0.918162 1 
0.0786007 0.205007 0.0454748 0.752726 -0.178639 -0.633634 1 
0.0788732 0.204916 0.0456068 0.295826 0.129842 -0.946376 1 
0.0791004 0.205195 0.0457094 0.675687 -0.731383 0.0923389 1 
0.0788058 0.204554 0.0448897 0.792315 -0.227926 -0.565939 1 
0.0769543 0.197057 0.0489072 0.283 -0.545447 -0.788922 1 
0.0773568 0.197671 0.0488798 -0.0528691 0.687298 -0.724449 1 
0.0774883 0.197922 0.0487822 0.297023 -0.730516 -0.614918 1 
0.0757315 0.197624 0.0484147 -0.0120824 -0.49538 -0.868593 1 
0.075863 0.197876 0.0483172 0.0411512 -0.40222 -0.914618 1 
0.076001 0.197498 0.048453 0.120711 -0.450181 -0.884741 1 
0.076402 0.197624 0.0483938 0.180539 -0.397185 -0.899805 1 
0.0761785 0.197624 0.0484008 0.180539 -0.397185 -0.899805 1 
0.0757226 0.19752 0.0481336 -0.0664221 -0.416155 -0.906865 1 
0.0762617 0.197268 0.0482103 0.158278 -0.516252 -0.841684 1 
0.0760843 0.198085 0.0482324 0.0622345 -0.366786 -0.928221 1 
0.0765371 0.197211 0.048436 0.244858 -0.35629 -0.901722 1 
0.0766686 0.197463 0.0483385 0.218974 -0.478721 -0.850221 1 
0.0771208 0.197288 0.048496 0.234602 -0.248484 -0.939797 1 
0.0764362 0.197359 0.0480643 0.218974 -0.478721 -0.850221 1 
0.0767592 0.197665 0.0483672 0.139256 -0.63938 -0.756175 1 
0.0772522 0.197539 0.0483985 0.165534 -0.645432 -0.745664 1 
0.0772099 0.197944 0.0484628 0.162294 -0.629457 -0.759898 1 
0.0768818 0.197812 0.0479885 0.142298 -0.627609 -0.765414 1 
0.0766049 0.199266 0.0476707 -0.126274 -0.329943 -0.935517 1 
0.0766056 0.198567 0.0477167 -0.0752629 -0.425578 -0.901787 1 
0.0769117 0.199852 0.0474431 0.171943 -0.264007 -0.949071 1 
0.0771812 0.199726 0.0474814 0.0968803 -0.222699 -0.970062 1 
0.0769518 0.199657 0.047301 0.122361 -0.233129 -0.964717 1 
0.0769911 0.199217 0.047143 -0.107696 -0.423792 -0.899334 1 
0.0771337 0.199363 0.0474043 0.0594328 -0.274402 -0.959777 1 
0.0774068 0.198573 0.0475824 -0.115492 -0.471947 -0.874029 1 
0.0777662 0.198405 0.0476335 -0.048557 -0.514705 -0.855991 1 
0.0775449 0.199139 0.0476882 -0.00534612 -0.0951609 -0.995448 1 
0.0775412 0.19886 0.0475786 -0.0458555 -0.256543 -0.965444 1 
0.0778086 0.198943 0.0475391 -0.0311871 -0.0720531 -0.996913 1 
0.0782504 0.199118 0.0473537 -0.0216097 -0.033958 -0.99919 1 
0.0775391 0.200955 0.0474405 0.123862 -0.385504 -0.914355 1 
0.07796 0.200137 0.0480514 0.0470546 -0.0240501 -0.998603 1 
0.0782645 0.19999 0.0477761 -0.0885131 -0.0338754 -0.995499 1 
0.0770461 0.200138 0.0474392 0.265939 -0.389142 -0.881955 1 
0.0775763 0.199782 0.0472348 0.106899 -0.296942 -0.948893 1 
0.0779423 0.199928 0.0474892 0.00299058 0.0169466 -0.999852 1 
0.0779772 0.199907 0.0471756 0.0837331 -0.223705 -0.971054 1 
0.0779684 0.199803 0.0468945 0.0837331 -0.223705 -0.971054 1 
0.0782029 0.199697 0.0472464 -0.0340339 -0.184253 -0.982289 1 
0.0785538 0.197977 0.0485147 -0.440608 -0.835745 0.327712 1 
0.0790424 0.19827 0.0483905 0.16955 -0.482113 -0.859546 1 
0.0785688 0.197958 0.0475611 0.21115 -0.587212 -0.781408 1 
0.0782681 0.199326 0.0479159 -0.0173312 -0.1814 -0.983257 1 
0.078257 0.198489 0.0475871 0.0570991 -0.508322 -0.859272 1 
0.0786194 0.199298 0.0477018 0.00834847 -0.244491 -0.969616 1 
0.0785251 0.19976 0.0475333 -0.143333 -0.128632 -0.981279 1 
0.0788429 0.199298 0.0476948 0.00118923 -0.246171 -0.969226 1 
0.0783848 0.199404 0.0473498 -0.0789694 -0.033535 -0.996313 1 
0.0790115 0.199319 0.0473614 0.0577668 -0.166227 -0.984394 1 
0.078834 0.199194 0.0474137 0.00118923 -0.246171 -0.969226 1 
0.0789209 0.199117 0.0473327 0.0555957 -0.321938 -0.945127 1 
0.079235 0.199319 0.0473545 0.0633813 -0.24234 -0.968119 1 
0.0791028 0.199766 0.047406 -0.2465 -0.309927 -0.91825 1 
0.0794497 0.200157 0.0470363 -0.453748 -0.230643 -0.860765 1 
0.0796975 0.198794 0.0478551 0.216632 -0.545422 -0.809682 1 
0.0778406 0.198888 0.0471318 -0.031308 -0.172774 -0.984464 1 
0.0776307 0.200265 0.0460931 -0.440608 -0.835745 0.327712 1 
0.0783804 0.19888 0.0472243 -0.00554324 -0.140798 -0.990023 1 
0.0783759 0.199299 0.0470687 -0.0694607 -0.0628454 -0.995603 1 
0.0788252 0.199089 0.0471326 -0.00813007 -0.203252 -0.979093 1 
0.0790465 0.199299 0.0470478 0.0539615 -0.193062 -0.979702 1 
0.0780472 0.201752 0.0464881 0.440608 0.835745 -0.327712 1 
0.0784066 0.202527 0.0465091 0.440608 0.835745 -0.327712 1 
0.078847 0.202212 0.0462919 -0.225717 0.299536 -0.927001 1 
0.0784637 0.201353 0.0469434 -0.394325 -0.378615 -0.837352 1 
0.0788179 0.201359 0.046823 -0.408225 -0.398695 -0.821215 1 
0.0787814 0.200891 0.0471049 -0.257112 -0.376008 -0.890231 1 
0.0791684 0.201087 0.046593 -0.405521 -0.486951 -0.773584 1 
0.0792895 0.201688 0.0461525 -0.128633 -0.36377 -0.922564 1 
0.0793831 0.201925 0.0462748 -0.319954 -0.00622479 -0.947413 1 
0.0801991 0.203048 0.0465789 -0.547799 -0.0693595 -0.83373 1 
0.0797075 0.202721 0.0466094 -0.215296 0.218004 -0.951904 1 
0.0799185 0.202337 0.0462118 -0.423191 0.45562 -0.783147 1 
0.0791297 0.200828 0.0467971 -0.404832 -0.376478 -0.833292 1 
0.0801791 0.202106 0.045969 -0.423191 0.45562 -0.783147 1 
0.0803165 0.202427 0.0460589 -0.780982 0.383215 -0.493167 1 
0.0807775 0.202356 0.0464975 -0.66055 0.172384 -0.730724 1 
0.080941 0.202552 0.0459927 -0.752297 -0.136101 -0.644613 1 
0.0808868 0.202818 0.0456822 -0.855428 -0.154065 -0.494476 1 
0.0795391 0.201563 0.0455508 0.230643 -0.453748 -0.860765 1 
0.0781462 0.20162 0.0453599 0.440608 0.835745 -0.327712 1 
0.0794342 0.200682 0.0465218 -0.515107 -0.422947 -0.745507 1 
0.0801397 0.201603 0.0461571 -0.199331 -0.0745963 -0.977089 1 
0.0805771 0.202197 0.0458161 -0.780982 0.383215 -0.493167 1 
0.0807911 0.202791 0.045482 -0.855428 -0.154065 -0.494476 1 
0.0795903 0.198123 0.0487482 -0.440608 -0.835745 0.327712 1 
0.0798859 0.197872 0.0481919 -0.440608 -0.835745 0.327712 1 
0.0804994 0.199045 0.0477367 -0.440608 -0.835745 0.327712 1 
0.0805757 0.203594 0.0457241 -0.440608 -0.835745 0.327712 1 
0.0807108 0.203182 0.0457662 -0.697027 -0.283618 -0.65857 1 
0.0790819 0.203799 0.0451615 0.440608 0.835745 -0.327712 1 
0.0804652 0.203392 0.0450554 -0.440608 -0.835745 0.327712 1 
0.0805669 0.203489 0.045443 -0.440608 -0.835745 0.327712 1 
0.0768148 0.202087 0.0413863 0.0504783 -0.165522 -0.984913 1 
0.0762356 0.200649 0.041512 0.0210169 0.285583 -0.958124 1 
0.0770969 0.201402 0.0418455 0.0657507 0.0398816 -0.997039 1 
0.0771414 0.200787 0.041859 0.15384 0.148837 -0.976822 1 
0.0770405 0.200935 0.0414873 0.0502651 0.162485 -0.98543 1 
0.077169 0.201151 0.041296 0.0690894 0.144034 -0.987158 1 
0.0774503 0.201164 0.0417091 0.137073 0.0761517 -0.987629 1 
0.0776211 0.200976 0.0414536 0.0675498 0.159986 -0.984805 1 
0.0778907 0.20085 0.0414919 0.00557457 0.148284 -0.988929 1 
0.0770026 0.201863 0.041677 0.0362729 -0.0956285 -0.994756 1 
0.0773598 0.201905 0.0416504 0.0732873 -0.0890723 -0.993325 1 
0.0768564 0.201438 0.0413061 0.0299044 0.0257797 -0.99922 1 
0.0771735 0.202618 0.0413914 0.013562 -0.294665 -0.955504 1 
0.0777674 0.201401 0.0418246 0.00911475 0.0273443 -0.999584 1 
0.0778053 0.201415 0.0416046 0.0708623 0.0158647 -0.99736 1 
0.0777615 0.201332 0.0416371 0.0781506 0.0224817 -0.996688 1 
0.0779404 0.201003 0.0416468 -0.00790972 0.163844 -0.986455 1 
0.0760536 0.199057 0.0414689 0.440608 0.835745 -0.327712 1 
0.076269 0.199197 0.0411967 -0.654053 0.549808 -0.519544 1 
0.0769345 0.2022 0.040914 0.0189557 -0.13046 -0.991272 1 
0.0766432 0.200146 0.0416862 0.114426 0.136107 -0.984064 1 
0.0764568 0.199916 0.0414574 -0.0675366 0.217345 -0.973756 1 
0.0765496 0.199908 0.0415639 0.171602 0.0579897 -0.983458 1 
0.0768125 0.200411 0.0413687 0.0837331 0.223705 -0.971054 1 
0.0769454 0.200208 0.0413331 0.174502 0.134329 -0.975451 1 
0.0761785 0.199937 0.0411379 -0.256502 0.245289 -0.934901 1 
0.0767205 0.19972 0.0413083 0.232793 0.235548 -0.94357 1 
0.0767116 0.199615 0.0410272 0.180865 0.262458 -0.947841 1 
0.076722 0.201152 0.04131 0.0328864 0.137216 -0.989995 1 
0.077088 0.200355 0.0415945 0.181524 0.126441 -0.975224 1 
0.077082 0.200285 0.0414071 0.139422 0.117599 -0.983225 1 
0.0769388 0.199894 0.0411298 0.129902 0.159594 -0.978598 1 
0.0773398 0.20002 0.0410706 0.154464 0.179995 -0.971464 1 
0.0773553 0.200438 0.041555 0.172308 0.142123 -0.974736 1 
0.0773902 0.200418 0.0412414 0.145378 0.150348 -0.977886 1 
0.0775306 0.200773 0.0414249 0.0839849 0.181359 -0.979824 1 
0.0776189 0.200243 0.0414059 0.145378 0.150348 -0.977886 1 
0.0770681 0.200355 0.0409545 0.172972 0.220506 -0.959926 1 
0.0766107 0.199763 0.0406555 -0.481851 0.609449 -0.629596 1 
0.0769307 0.200034 0.0408646 0.0733539 0.227521 -0.971006 1 
0.077244 0.199992 0.0408704 0.183372 0.180771 -0.96628 1 
0.0771758 0.199385 0.0401375 0.184699 -0.456576 -0.870302 1 
0.0790056 0.202506 0.0398811 -0.440608 -0.835745 0.327712 1 
0.0790294 0.20259 0.0392085 -0.440608 -0.835745 0.327712 1 
0.0791779 0.203749 0.0396272 -0.440608 -0.835745 0.327712 1 
0.079651 0.203624 0.0390186 -0.440608 -0.835745 0.327712 1 
0.0784445 0.200772 0.0420371 -0.0594531 -0.00938734 -0.998187 1 
0.0780258 0.200438 0.0415341 0.0286856 0.0626833 -0.997621 1 
0.0780725 0.200556 0.0415953 0.0558753 0.0712136 -0.995895 1 
0.0793303 0.199968 0.0417742 -0.10049 -0.124134 -0.987164 1 
0.0783005 0.20108 0.0417138 -0.158306 0.0773676 -0.984354 1 
0.0783785 0.200898 0.0413518 -0.158869 -0.171578 -0.972277 1 
0.0785693 0.200709 0.0417363 -0.0871954 -0.0781362 -0.993122 1 
0.079372 0.201204 0.0416338 0.0378824 -0.593491 -0.803949 1 
0.0795903 0.201379 0.0414552 0.303106 -0.882174 -0.36041 1 
0.0797218 0.20163 0.0413577 0.223586 -0.806451 -0.5474 1 
0.0795531 0.199723 0.0417513 -0.177721 -0.185504 -0.966439 1 
0.0803002 0.200938 0.0412764 -0.440608 -0.835745 0.327712 1 
0.0784793 0.197922 0.0418139 -0.166211 0.303575 -0.938198 1 
0.0782996 0.198949 0.0417582 0.0151917 0.0232939 -0.999613 1 
0.0786226 0.198313 0.0420911 -0.0148977 0.175335 -0.984396 1 
0.0784845 0.19869 0.0419552 -0.0112945 0.0420977 -0.99905 1 
0.0778861 0.19844 0.0414267 0.569865 0.287314 -0.769873 1 
0.0783004 0.198251 0.0418042 0.290415 0.233749 -0.927912 1 
0.0785492 0.197881 0.0411867 -0.539826 0.133853 -0.831067 1 
0.0785699 0.198125 0.0418425 -0.187691 0.0714437 -0.979626 1 
0.078561 0.19802 0.0415614 -0.213045 0.0884573 -0.97303 1 
0.0787904 0.19809 0.0417419 -0.10891 0.279493 -0.953951 1 
0.0790095 0.198509 0.0415793 -0.0377651 0.00918611 -0.999244 1 
0.079054 0.197894 0.0415928 -0.148525 0.205353 -0.967352 1 
0.0784296 0.197769 0.041659 -0.407249 0.2073 -0.88948 1 
0.0786501 0.197734 0.0415583 -0.338271 0.27623 -0.899594 1 
0.0788305 0.197894 0.0415998 -0.10891 0.279493 -0.953951 1 
0.0788187 0.197755 0.041225 -0.316298 0.331289 -0.888934 1 
0.0778133 0.19939 0.0419301 0.170222 -0.145004 -0.974679 1 
0.0780762 0.199892 0.041735 0.242742 -0.0253611 -0.969759 1 
0.0777592 0.199656 0.0416196 0.183998 -0.0486706 -0.981721 1 
0.0782084 0.199445 0.0416835 0.15763 -0.111197 -0.981218 1 
0.0780265 0.199739 0.0415801 0.226363 -0.0251514 -0.973718 1 
0.0778862 0.199383 0.0413966 0.27628 -0.0674786 -0.958705 1 
0.0777956 0.199181 0.0413679 0.5028 0.104571 -0.858054 1 
0.0780696 0.200521 0.0415016 0.0558753 0.0712136 -0.995895 1 
0.0781513 0.200619 0.0412492 -0.0190153 0.00500404 -0.999807 1 
0.0782887 0.199997 0.0413691 0.154988 -0.137629 -0.978283 1 
0.0785107 0.200451 0.0413003 -0.0304837 -0.136612 -0.990155 1 
0.0786963 0.200437 0.0415132 -0.0531646 -0.114247 -0.992029 1 
0.0787474 0.199193 0.0417601 -0.078433 -0.0563392 -0.995326 1 
0.078613 0.198907 0.041764 -0.0409504 0.0346504 -0.99856 1 
0.0788561 0.201296 0.0408687 -0.67224 0.336934 -0.659218 1 
0.0790693 0.201646 0.0405186 -0.505009 0.711679 0.488342 1 
0.0791941 0.201583 0.0402178 -0.907165 0.160926 0.388785 1 
0.078821 0.200374 0.0412124 -0.0919583 -0.230526 -0.968711 1 
0.0787997 0.200829 0.0405105 -0.734042 -0.0558044 -0.676807 1 
0.0790188 0.201248 0.0403479 -0.734789 0.616841 0.282121 1 
0.0795122 0.198731 0.0419077 -0.251996 0.0933792 -0.963213 1 
0.0798233 0.198899 0.0418357 -0.317587 0.0316322 -0.947701 1 
0.0798115 0.198759 0.0414609 -0.321324 0.0885956 -0.942816 1 
0.0795442 0.199619 0.0414702 -0.144213 -0.115128 -0.982827 1 
0.0796786 0.199905 0.0414664 -0.163383 -0.0727473 -0.983877 1 
0.079781 0.199304 0.0418999 -0.300718 0.00368226 -0.953706 1 
0.0797721 0.199199 0.0416189 -0.300718 0.00368226 -0.953706 1 
0.0797573 0.199025 0.0411504 -0.26863 0.0257591 -0.962899 1 
0.0798487 0.199472 0.0411949 -0.228945 -0.0375519 -0.972715 1 
0.080092 0.198528 0.0418581 -0.0351409 -0.0564383 -0.997787 1 
0.0799436 0.198312 0.0414093 0.0592286 -0.140523 -0.988304 1 
0.0802213 0.198046 0.0417129 0.20996 -0.106866 -0.971852 1 
0.0795272 0.198711 0.040954 -0.188191 0.11092 -0.975849 1 
0.0793051 0.198258 0.0410229 -0.209927 0.142956 -0.967209 1 
0.0803395 0.199555 0.0411485 -0.65247 0.00969701 -0.757752 1 
0.0806506 0.199723 0.0410765 -0.613337 0.0265454 -0.789375 1 
0.0802475 0.201693 0.0409977 0.129289 -0.855632 -0.501177 1 
0.0805631 0.201441 0.0410813 -0.440608 -0.835745 0.327712 1 
0.0789223 0.201919 0.0401017 -0.440608 -0.835745 0.327712 1 
0.0794132 0.202002 0.0400553 -0.858576 0.309827 0.408479 1 
0.080601 0.201455 0.0408614 -0.440608 -0.835745 0.327712 1 
0.0806485 0.201818 0.0409384 -0.440608 -0.835745 0.327712 1 
0.0789767 0.201459 0.0389901 -0.440608 -0.835745 0.327712 1 
0.0816735 0.198608 0.0380433 -0.440608 -0.835745 0.327712 1 
0.0829424 0.198857 0.038551 0.0861907 -0.682222 0.726047 1 
0.0824726 0.198824 0.0378312 0.136056 -0.755039 0.641409 1 
0.0821139 0.198293 0.0378261 0.0122029 -0.852849 0.522014 1 
0.0823352 0.198503 0.0377413 0.0880559 -0.812713 0.575972 1 
0.0825119 0.198384 0.0376732 0.0467903 -0.781257 0.622453 1 
0.0827755 0.198188 0.0375241 0.0644837 -0.783836 0.617611 1 
0.0828282 0.198376 0.0377727 0.0739641 -0.68308 0.726588 1 
0.0830643 0.19876 0.0381564 0.0858936 -0.764307 0.639106 1 
0.0832811 0.198445 0.0379462 0.00967742 -0.634562 0.772811 1 
0.0830027 0.198467 0.0376268 0.0984185 -0.694805 0.712432 1 
0.0832262 0.198467 0.0376198 0.0584863 -0.626232 0.77744 1 
0.0834957 0.198341 0.0376581 -0.055566 -0.631173 0.77365 1 
0.0828624 0.198111 0.0374432 0.0558497 -0.703133 0.708861 1 
0.0829879 0.198293 0.0371583 0.104314 -0.501566 0.858807 1 
0.0838492 0.198103 0.0375218 -0.223762 -0.550919 0.804002 1 
0.0841551 0.197502 0.0373085 -0.36382 -0.38568 0.847872 1 
0.0842865 0.197754 0.0372109 -0.298567 -0.30445 0.904526 1 
0.0838418 0.197545 0.0373027 -0.299565 -0.359779 0.88364 1 
0.0841009 0.197768 0.0369979 -0.326588 -0.400883 0.85594 1 
0.0845738 0.197837 0.0378115 -0.334269 -0.313283 0.888886 1 
0.084844 0.197012 0.0378958 -0.507131 0.11703 0.853887 1 
0.0849844 0.197368 0.0380794 -0.474354 0.031083 0.879785 1 
0.0848374 0.197641 0.0376624 -0.393722 -0.180276 0.901379 1 
0.0849755 0.197263 0.0377982 -0.452968 0.0227152 0.891237 1 
0.0845212 0.197648 0.0375629 -0.362822 -0.256197 0.895948 1 
0.0848835 0.197515 0.0377077 -0.404078 -0.130938 0.905304 1 
0.0851129 0.197584 0.0378881 -0.447738 -0.00131302 0.894164 1 
0.0850712 0.197291 0.0379985 -0.461929 0.0762945 0.883629 1 
0.0850653 0.197221 0.037811 -0.501714 0.101486 0.85906 1 
0.0859881 0.197324 0.0387043 -0.486974 0.0120737 0.873333 1 
0.0848256 0.197502 0.0372876 -0.385753 -0.189265 0.90298 1 
0.0834741 0.19899 0.0383783 0.0527967 -0.663526 0.746288 1 
0.0835945 0.199346 0.0379218 0.0403844 -0.828576 0.558418 1 
0.0834652 0.198885 0.0380972 0.0465959 -0.79213 0.608571 1 
0.0835952 0.198648 0.0379679 -0.0796621 -0.644538 0.76041 1 
0.0837237 0.198864 0.0377766 -0.0738455 -0.699361 0.710944 1 
0.0839954 0.198529 0.0378928 -0.206483 -0.653605 0.728125 1 
0.0846667 0.198772 0.0378878 -0.35125 -0.638784 0.684528 1 
0.0836762 0.198501 0.0376996 -0.107538 -0.631969 0.767496 1 
0.0838529 0.198382 0.0376314 -0.17568 -0.633977 0.753134 1 
0.0839843 0.198634 0.0375339 -0.204876 -0.58998 0.780992 1 
0.0841692 0.198375 0.0377309 -0.241516 -0.509183 0.826077 1 
0.0845256 0.198172 0.0376884 -0.316183 -0.380336 0.869122 1 
0.0841165 0.198187 0.0374824 -0.245854 -0.432884 0.867276 1 
0.0839368 0.198271 0.0374568 -0.20106 -0.578622 0.790425 1 
0.0840565 0.198383 0.0369845 -0.218149 -0.511049 0.831408 1 
0.0837869 0.198509 0.0369461 -0.099694 -0.547595 0.830783 1 
0.0863081 0.197596 0.0389134 -0.83051 0.234876 0.505061 1 
0.0848916 0.198318 0.0379428 -0.334141 -0.272317 0.902327 1 
0.0851641 0.198227 0.0380748 -0.382865 -0.102921 0.918053 1 
0.0853438 0.198143 0.0381003 -0.423731 0.0667615 0.903324 1 
0.0855776 0.197793 0.0384364 -0.492212 0.00938825 0.870425 1 
0.08585 0.197702 0.0385684 -0.667486 0.247743 0.702201 1 
0.0856155 0.197807 0.0382165 -0.492212 0.00938825 0.870425 1 
0.0856103 0.197982 0.038045 -0.492212 0.00938825 0.870425 1 
0.0857448 0.198268 0.0380411 -0.46708 0.241908 0.850481 1 
0.0858828 0.197891 0.038177 -0.525302 0.30312 0.795095 1 
0.0862853 0.198505 0.0381496 -0.673041 0.358628 0.64684 1 
0.0846615 0.198004 0.0377464 -0.353323 -0.278782 0.892997 1 
0.0850237 0.197871 0.0378912 -0.409578 -0.0196283 0.912064 1 
0.0851434 0.197983 0.0374189 -0.382721 -0.0912536 0.919346 1 
0.0856913 0.197835 0.0377767 -0.492212 0.00938825 0.870425 1 
0.0854159 0.197892 0.0375509 -0.458615 0.0762048 0.885362 1 
0.0854634 0.198255 0.037628 -0.404965 -0.0717831 0.91151 1 
0.0855956 0.197808 0.0375764 -0.461487 -0.0119694 0.887066 1 
0.0861634 0.197659 0.0385742 -0.716784 0.251586 0.650327 1 
0.0861545 0.197555 0.0382931 -0.557517 0.425169 0.713026 1 
0.0861077 0.197436 0.0382319 -0.568569 0.190539 0.800265 1 
0.0868381 0.197433 0.040131 -0.440608 -0.835745 0.327712 1 
0.0907916 0.197909 0.042071 0.21497 -0.824815 -0.522942 1 
0.0882215 0.199856 0.0399346 -0.510641 0.290673 0.80917 1 
0.0884903 0.200428 0.0399269 0.440608 0.835745 -0.327712 1 
0.086873 0.198356 0.0397873 -0.440608 -0.835745 0.327712 1 
0.0871893 0.198348 0.0398868 -0.440608 -0.835745 0.327712 1 
0.0883441 0.200003 0.039556 0.440608 0.835745 -0.327712 1 
0.0879236 0.19843 0.0404734 -0.440608 -0.835745 0.327712 1 
0.0880551 0.198682 0.0403759 -0.401032 0.240023 0.88406 1 
0.0887804 0.197717 0.0407115 -0.440608 -0.835745 0.327712 1 
0.0886986 0.197619 0.040964 -0.440608 -0.835745 0.327712 1 
0.0893305 0.198302 0.041117 0.455419 -0.448889 -0.768825 1 
0.0891881 0.200042 0.0407953 0.440608 0.835745 -0.327712 1 
0.0898675 0.200146 0.0410556 0.440608 0.835745 -0.327712 1 
0.0894926 0.199895 0.0405201 -0.530202 0.25033 0.810074 1 
0.0882252 0.199192 0.0400743 -0.401687 0.297829 0.865994 1 
0.0883655 0.199548 0.0402579 -0.634284 0.395807 0.664094 1 
0.0889417 0.200008 0.0400686 -0.607527 0.654389 0.450206 1 
0.0891792 0.199938 0.0405143 0.0539554 0.86467 -0.499434 1 
0.0899193 0.198204 0.0413485 0.289528 -0.112374 -0.95055 1 
0.0901889 0.198078 0.0413868 0.173227 -0.808894 -0.561857 1 
0.0900254 0.197882 0.0418917 0.258616 -0.648919 -0.715557 1 
0.0902437 0.198056 0.0417132 0.173227 -0.808894 -0.561857 1 
0.0906082 0.197713 0.0419358 0.21497 -0.824815 -0.522942 1 
0.0905073 0.197861 0.0415642 0.173227 -0.808894 -0.561857 1 
0.0897197 0.198289 0.040683 0.130518 -0.943225 0.305438 1 
0.0899104 0.198099 0.0410674 0.289528 -0.112374 -0.95055 1 
0.0907242 0.198489 0.0413238 0.173227 -0.808894 -0.561857 1 
0.090947 0.198245 0.0413009 0.199409 -0.811337 -0.549517 1 
0.0911163 0.19851 0.0409835 0.288354 -0.798883 -0.527862 1 
0.0895956 0.198596 0.0409997 0.382656 -0.423938 -0.820884 1 
0.0908438 0.198601 0.0408514 0.221252 -0.790629 -0.570924 1 
0.0884538 0.198074 0.040269 -0.393907 0.308075 0.865983 1 
0.0883128 0.198417 0.0400394 -0.440608 -0.835745 0.327712 1 
0.0881747 0.198794 0.0399036 -0.335651 0.276505 0.900491 1 
0.0902685 0.200271 0.0409964 0.440608 0.835745 -0.327712 1 
0.0898074 0.200342 0.0405577 0.440608 0.835745 -0.327712 1 
0.0890643 0.200155 0.03969 0.440608 0.835745 -0.327712 1 
0.0912253 0.198223 0.0416203 0.21497 -0.824815 -0.522942 1 
0.0913568 0.198474 0.0415228 -0.440608 -0.835745 0.327712 1 
0.0853765 0.207323 0.0359696 -0.404919 0.354891 -0.84267 1 
0.0856342 0.207057 0.0356331 -0.458306 -0.0119558 -0.888714 1 
0.0862156 0.2064 0.0356455 -0.384266 0.0855433 -0.919251 1 
0.0852221 0.206094 0.0353636 0.16265 0.467437 -0.868935 1 
0.0857159 0.207155 0.0353807 -0.474392 -0.0283824 -0.879856 1 
0.0864303 0.207238 0.0353273 -0.368653 -0.177921 -0.912381 1 
0.0864339 0.206575 0.035467 -0.344369 -0.0294442 -0.938373 1 
0.086298 0.2058 0.0354391 0.440608 0.835745 -0.327712 1 
0.0864762 0.20617 0.0354027 -0.206037 0.0518106 -0.977172 1 
0.0861095 0.205779 0.0351324 0.440608 0.835745 -0.327712 1 
0.0866909 0.207008 0.0350846 -0.266646 -0.169192 -0.948828 1 
0.0859195 0.206213 0.0347639 -0.209328 0.0520295 -0.97646 1 
0.0874943 0.206804 0.035028 -0.366612 -0.213011 -0.905661 1 
0.087755 0.206574 0.0347853 -0.335825 -0.369561 -0.866398 1 
0.0878271 0.206323 0.0342358 -0.390068 -0.374403 -0.841231 1 
0.0862892 0.207581 0.0350978 -0.371521 -0.47767 -0.796117 1 
0.0864118 0.207728 0.0347191 -0.178429 -0.760994 -0.62374 1 
0.0868223 0.207259 0.034987 -0.257001 -0.436445 -0.862245 1 
0.0870764 0.207658 0.0345108 -0.403965 -0.825356 -0.39446 1 
0.0868761 0.208441 0.0337993 -0.440608 -0.835745 0.327712 1 
0.0866839 0.208141 0.033383 -0.440608 -0.835745 0.327712 1 
0.0871939 0.207979 0.0339607 -0.433738 -0.883541 -0.176708 1 
0.087727 0.207658 0.0338499 -0.692816 -0.720809 -0.0209944 1 
0.0875776 0.207391 0.0348074 -0.405219 -0.580538 -0.706239 1 
0.0877594 0.207098 0.0349108 -0.377506 -0.547465 -0.746841 1 
0.088023 0.206902 0.0347617 -0.3697 -0.436341 -0.820322 1 
0.0880208 0.207112 0.0346839 -0.368443 -0.52426 -0.767725 1 
0.0881931 0.207412 0.0344601 -0.366616 -0.511971 -0.776839 1 
0.0886906 0.206866 0.0346471 -0.332582 -0.120816 -0.935303 1 
0.088329 0.206301 0.0345483 -0.413904 -0.0866311 -0.906189 1 
0.0885532 0.206545 0.0345573 -0.332582 -0.120816 -0.935303 1 
0.0888489 0.207237 0.0339707 -0.202905 -0.324932 -0.923715 1 
0.0864055 0.208163 0.0330636 -0.440608 -0.835745 0.327712 1 
0.087038 0.207205 0.0332927 -0.440608 -0.835745 0.327712 1 
0.0872571 0.207624 0.0331301 -0.440608 -0.835745 0.327712 1 
0.0891309 0.206552 0.0344299 -0.219037 -0.00351396 -0.97571 1 
0.0888139 0.206315 0.0343145 -0.269054 0.0158267 -0.962995 1 
0.0891221 0.206448 0.0341488 -0.176591 0.0385926 -0.983527 1 
0.0890857 0.206922 0.0344005 -0.269054 0.0158267 -0.962995 1 
0.089889 0.206719 0.034344 0.440608 0.835745 -0.327712 1 
0.0763283 0.206026 0.0601092 0.122691 0.169785 -0.977814 0 
0.074681 0.207133 0.0588962 -0.440608 -0.835745 0.327712 0 
0.0740892 0.206254 0.0586011 -0.440608 -0.835745 0.327712 0 
0.0756817 0.205169 0.0594877 0.575145 -0.441778 -0.688506 0 
0.075231 0.20489 0.059392 0.528635 -0.847759 0.0430123 0 
0.075678 0.205832 0.059348 0.43618 -0.348 -0.829845 0 
0.0759446 0.205671 0.0592926 0.479111 -0.7311 -0.485742 0 
0.0753426 0.207028 0.0585942 -0.440608 -0.835745 0.327712 0 
0.0749825 0.206951 0.0585272 -0.440608 -0.835745 0.327712 0 
0.075963 0.205182 0.0599009 0.496033 -0.472807 -0.728289 0 
0.0762319 0.205754 0.0598931 0.467999 -0.711158 -0.524625 0 
0.0760024 0.205685 0.0597127 0.429433 -0.505118 -0.748628 0 
0.076364 0.205307 0.0598416 0.210271 0.123614 -0.969797 0 
0.0764428 0.20537 0.0594955 0.0897428 0.346916 -0.933593 0 
0.0746476 0.20462 0.0579099 -0.440608 -0.835745 0.327712 0 
0.0811258 0.220042 0.0513359 0.440608 0.835745 -0.327712 0 
0.0808124 0.219141 0.0513602 0.440608 0.835745 -0.327712 0 
0.0816596 0.219022 0.0512711 0.979836 0.104238 0.17046 0 
0.0816507 0.218917 0.05099 0.979836 0.104238 0.17046 0 
0.0815304 0.219503 0.0514164 0.440608 0.835745 -0.327712 0 
0.0815215 0.219399 0.0511353 0.440608 0.835745 -0.327712 0 
0.082747 0.214152 0.0518721 0.617391 -0.165345 -0.769084 0 
0.0822303 0.213057 0.0511213 0.440608 0.835745 -0.327712 0 
0.0820968 0.214901 0.0510808 0.440608 0.835745 -0.327712 0 
0.0816928 0.21474 0.0510463 0.440608 0.835745 -0.327712 0 
0.0824005 0.214509 0.0507895 0.440608 0.835745 -0.327712 0 
0.0825868 0.213796 0.0510486 0.297932 -0.235209 -0.925156 0 
0.0828548 0.214125 0.051025 0.428564 -0.0813031 -0.899846 0 
0.0823722 0.214844 0.0513065 0.440608 0.835745 -0.327712 0 
0.0825854 0.215193 0.0509565 0.440608 0.835745 -0.327712 0 
0.0828103 0.214739 0.0510115 0.440608 0.835745 -0.327712 0 
0.0810225 0.21757 0.0509767 0.440608 0.835745 -0.327712 0 
0.0811599 0.217891 0.0510666 0.440608 0.835745 -0.327712 0 
0.0815023 0.217758 0.0505714 0.440608 0.835745 -0.327712 0 
0.0816403 0.217381 0.0507073 0.440608 0.835745 -0.327712 0 
0.0817977 0.218644 0.051407 -0.231191 0.270423 -0.934571 0 
0.0817829 0.21847 0.0509385 -0.231191 0.270423 -0.934571 0 
0.0817472 0.218246 0.0512363 -0.231191 0.270423 -0.934571 0 
0.0816485 0.218184 0.0509424 -0.231191 0.270423 -0.934571 0 
0.0816885 0.216103 0.0508605 0.440608 0.835745 -0.327712 0 
0.0751299 0.204755 0.0432232 0.0625773 0.222088 -0.973016 0 
0.0754715 0.204378 0.0427121 0.565377 0.2383 -0.789659 0 
0.0756534 0.204084 0.0428155 0.442492 0.592772 -0.672921 0 
0.0749763 0.204714 0.0426029 0.927111 0.374681 -0.00895141 0 
0.0757351 0.204182 0.042563 0.262443 0.557887 -0.787328 0 
0.0755429 0.203883 0.0421468 0.578582 0.731784 -0.360188 0 
0.0742963 0.202286 0.040965 0.556054 -0.17631 -0.812231 0 
0.0741833 0.201545 0.0416707 0.440608 0.835745 -0.327712 0 
0.0749408 0.204296 0.0414786 0.152003 0.766036 -0.624567 0 
0.0754931 0.203729 0.0419919 0.835105 0.29392 -0.464984 0 
0.0746676 0.2032 0.0413608 0.647903 0.0586402 -0.759462 0 
0.0741078 0.203209 0.0406282 0.0783728 -0.129841 -0.988433 0 
0.0745272 0.202844 0.0411772 0.558535 -0.230531 -0.796802 0 
0.0745184 0.20274 0.0408961 0.577665 -0.0235499 -0.815934 0 
0.0749275 0.203668 0.041072 0.704485 -0.369485 -0.605955 0 
0.0759318 0.204063 0.0431349 0.384878 0.407052 -0.828359 0 
0.0770077 0.203768 0.0432104 0.346695 0.195462 -0.917386 0 
0.077001 0.203454 0.0430072 0.279171 0.384804 -0.879767 0 
0.0759652 0.203553 0.0427895 0.422669 0.771901 -0.47489 0 
0.0759229 0.203958 0.0428538 0.446336 0.49904 -0.742795 0 
0.0763224 0.203595 0.0427628 0.460591 0.537079 -0.706683 0 
0.0757774 0.203777 0.0424988 0.460557 0.838927 -0.28998 0 
0.0760411 0.203582 0.0423497 0.683296 0.337571 -0.647419 0 
0.0770857 0.203587 0.0428484 0.192757 0.541843 -0.818077 0 
0.0751664 0.201258 0.0416397 0.214872 -0.101782 -0.971324 0 
0.0753928 0.201292 0.0417265 -0.0581862 0.0713604 -0.995752 0 
0.0754709 0.202054 0.0413343 0.204058 -0.250621 -0.946335 0 
0.0756594 0.201131 0.0416711 -0.0270352 0.0854313 -0.995977 0 
0.0761027 0.201795 0.0415175 -0.0650752 -0.0288038 -0.997465 0 
0.0758814 0.201585 0.0416023 -0.0922257 -0.0500019 -0.994482 0 
0.0762824 0.201711 0.0415431 -0.0747748 -0.0747748 -0.994393 0 
0.0753528 0.202431 0.0418385 0.434076 0.141827 -0.889642 0 
0.0761809 0.203499 0.0410952 0.440608 0.835745 -0.327712 0 
0.0761503 0.202158 0.0415946 -0.0816887 -0.186543 -0.979045 0 
0.0713394 0.201958 0.0379786 0.440608 0.835745 -0.327712 0 
0.0710038 0.200324 0.0373152 0.705088 -0.041142 -0.707925 0 
0.0701885 0.198503 0.0370572 0.262166 -0.783358 -0.563578 0 
0.0699539 0.198608 0.0367052 0.309725 -0.880826 -0.358072 0 
0.070268 0.19881 0.0367269 0.373797 -0.862964 -0.339955 0 
0.0705346 0.198649 0.0366716 0.458476 -0.809922 -0.365823 0 
0.0696258 0.198476 0.0362309 0.12606 -0.991746 0.0234271 0 
0.0702109 0.199041 0.0363228 0.605028 -0.761366 -0.232944 0 
0.0701932 0.198832 0.0357606 0.560066 -0.797669 0.223718 0 
0.0704686 0.198776 0.0359863 0.613781 -0.78752 0.0555394 0 
0.0704227 0.200788 0.0358807 0.744283 0.133282 -0.65443 0 
0.0705549 0.20034 0.0358292 0.841113 0.0662183 -0.536791 0 
0.0707559 0.199802 0.0365567 0.865768 -0.178463 -0.467544 0 
0.070747 0.199697 0.0362756 0.869982 -0.155926 -0.467779 0 
0.0707054 0.199404 0.0363859 0.819944 -0.421913 -0.386886 0 
0.070923 0.199334 0.0361916 0.87819 -0.304864 -0.368567 0 
0.0710545 0.199585 0.036094 0.869374 -0.0887691 -0.486117 0 
0.0709772 0.200011 0.0364719 0.865145 -0.14104 -0.481282 0 
0.0711554 0.200381 0.0364356 0.794688 0.0822092 -0.601425 0 
0.0699587 0.199881 0.0353785 0.438044 0.319569 -0.840234 0 
0.0707761 0.199607 0.0357746 0.889977 -0.114244 -0.441462 0 
0.0707916 0.199083 0.0362891 0.77623 -0.571544 -0.266091 0 
0.0710077 0.199467 0.0360328 0.869489 -0.080066 -0.48742 0 
0.0704575 0.198881 0.0356274 0.460398 -0.803691 0.376981 0 
0.0705408 0.199468 0.0354067 0.411666 0.443953 -0.795887 0 
0.0706877 0.199195 0.0358237 0.841625 -0.532982 -0.0871632 0 
0.0709929 0.199293 0.0355643 0.966536 -0.127413 -0.222651 0 
0.0707457 0.201094 0.0361835 0.440608 0.835745 -0.327712 0 
0.0710174 0.200759 0.0362997 0.701517 0.192724 -0.686099 0 
0.0736461 0.203978 0.0401435 0.440608 0.835745 -0.327712 0 
0.0741144 0.20258 0.0408616 -0.198525 -0.122655 -0.972391 0 
0.0741589 0.201965 0.0408751 0.414037 -0.210702 -0.885538 0 
0.074842 0.201405 0.041275 0.260864 -0.374154 -0.88992 0 
0.0743364 0.202091 0.0408229 0.414037 -0.210702 -0.885538 0 
0.0745095 0.202635 0.040615 0.457179 -0.0337153 -0.888735 0 
0.0717952 0.201119 0.0382759 0.396977 -0.183331 -0.899333 0 
0.0720647 0.200993 0.0383142 0.271567 -0.218646 -0.937254 0 
0.072286 0.201202 0.0382294 0.235086 -0.229587 -0.94447 0 
0.0724109 0.202082 0.0378985 0.0921678 -0.405813 -0.909297 0 
0.0728601 0.201872 0.0379623 0.106003 -0.553249 -0.826244 0 
0.0725555 0.201076 0.0382677 0.161284 0.00789501 -0.986876 0 
0.0731296 0.201746 0.0380007 0.019597 -0.401085 -0.915831 0 
0.07331 0.201906 0.0380421 -0.0632721 -0.308613 -0.949081 0 
0.0738023 0.202479 0.0380275 -0.04062 -0.0260385 -0.998835 0 
0.0734823 0.202207 0.0378184 -0.04062 -0.0260385 -0.998835 0 
0.0741054 0.202786 0.0376903 0.254881 0.502039 -0.826433 0 
0.0740748 0.202387 0.0381595 -0.106595 -0.0504925 -0.99302 0 
0.0739345 0.202032 0.037976 -0.106595 -0.0504925 -0.99302 0 
0.0740155 0.201885 0.0377076 -0.106595 -0.0504925 -0.99302 0 
0.074285 0.201759 0.037746 -0.106595 -0.0504925 -0.99302 0 
0.0742887 0.202038 0.0378556 -0.106595 -0.0504925 -0.99302 0 
0.0745582 0.201912 0.0378939 -0.0788102 -0.029149 -0.996463 0 
0.0745545 0.201633 0.0377843 -0.0788102 -0.029149 -0.996463 0 
0.0719854 0.200491 0.0372223 0.590497 0.43414 -0.68032 0 
0.0712556 0.199989 0.0367913 0.781337 -0.0585646 -0.621356 0 
0.0714398 0.200429 0.0369424 0.63368 0.251259 -0.731655 0 
0.0710759 0.199131 0.0367959 0.823611 -0.369752 -0.430055 0 
0.0711635 0.199298 0.0367309 0.823611 -0.369752 -0.430055 0 
0.0719668 0.201175 0.0380362 0.580303 -0.094064 -0.80895 0 
0.0719966 0.201329 0.0375511 0.734219 -0.678911 0.00138271 0 
0.0724926 0.20218 0.0376461 0.0446493 -0.450552 -0.891633 0 
0.0737437 0.202221 0.0375915 -0.0458829 -0.0501511 -0.997687 0 
0.073732 0.202082 0.0372167 -0.028235 -0.0428753 -0.998681 0 
0.0740044 0.20199 0.0373487 -0.106595 -0.0504925 -0.99302 0 
0.0745998 0.201263 0.0378137 0.440608 0.835745 -0.327712 0 
0.0677083 0.196442 0.033632 -0.756178 0.474046 -0.451082 0 
0.0677907 0.195841 0.0334256 -0.770354 0.520597 -0.368148 0 
0.0678434 0.19603 0.0336742 -0.757132 0.481214 -0.441797 0 
0.0679719 0.196246 0.0334829 -0.73748 0.523 -0.42731 0 
0.0679756 0.196525 0.0335925 -0.717009 0.470797 -0.514051 0 
0.06811 0.196812 0.0335887 -0.66627 0.545435 -0.508513 0 
0.0679593 0.196805 0.0330621 -0.731295 0.523297 -0.437456 0 
0.0687017 0.196748 0.033914 -0.700566 0.66244 -0.265294 0 
0.068104 0.195799 0.0334314 -0.695289 0.602804 -0.39141 0 
0.0683817 0.196476 0.0337048 -0.665056 0.611718 -0.42837 0 
0.0680944 0.196393 0.0331043 -0.737825 0.606585 -0.29609 0 
0.06822 0.196575 0.0328193 -0.732798 0.628338 -0.261148 0 
0.0680509 0.196116 0.0317147 -0.438124 0.89875 -0.0172073 0 
0.0683642 0.196073 0.0317205 -0.605267 0.795373 0.0321504 0 
0.0684897 0.196255 0.0314355 -0.592312 0.805708 0.00136793 0 
0.0682266 0.195946 0.0330528 -0.707944 0.643731 -0.290562 0 
0.0684961 0.19582 0.0330911 -0.652843 0.688482 -0.315892 0 
0.0685771 0.196617 0.0327927 -0.737825 0.606585 -0.29609 0 
0.0688905 0.196574 0.0327984 -0.683095 0.660486 -0.311672 0 
0.0684865 0.196414 0.032764 -0.721878 0.646057 -0.247997 0 
0.0684777 0.19631 0.0324829 -0.765269 0.611291 -0.201711 0 
0.0688787 0.196435 0.0324237 -0.731462 0.657856 -0.179415 0 
0.06852 0.195905 0.0324186 -0.669003 0.72665 -0.156252 0 
0.0683315 0.195884 0.0321119 -0.568832 0.822259 -0.0179051 0 
0.0684688 0.196205 0.0322018 -0.711377 0.696709 -0.0924057 0 
0.0688698 0.196331 0.0321426 -0.672103 0.733872 -0.0985359 0 
0.0682114 0.196277 0.0311161 -0.538261 0.76779 0.347526 0 
0.0699059 0.19875 0.03516 0.474707 -0.61561 0.629029 0 
0.0701754 0.198623 0.0351984 0.33393 -0.685778 0.646684 0 
0.070041 0.198337 0.0352022 0.449441 -0.619862 0.643253 0 
0.0701287 0.198505 0.0351372 0.480838 -0.57131 0.665132 0 
0.0699423 0.198275 0.0349083 0.0381541 -0.750363 0.659924 0 
0.0701792 0.198903 0.035308 0.520152 -0.712925 0.470298 0 
0.0704925 0.19886 0.0353137 0.399117 -0.740748 0.540368 0 
0.0710279 0.199272 0.0352507 0.123633 -0.713497 0.689664 0 
0.0704398 0.198672 0.0350652 0.305197 -0.67337 0.67337 0 
0.0704309 0.198568 0.0347841 0.4853 -0.511983 0.708772 0 
0.0686498 0.197747 0.0336511 -0.68947 0.723448 -0.0353938 0 
0.0687768 0.197475 0.033428 -0.51745 0.729059 -0.448016 0 
0.0686351 0.197573 0.0331826 -0.520631 0.728884 -0.444603 0 
0.0686773 0.197168 0.0331183 -0.663563 0.637086 -0.39218 0 
0.0695637 0.197745 0.0342633 -0.297201 -0.650629 0.698823 0 
0.0694234 0.197389 0.0340797 -0.511882 -0.323714 0.79573 0 
0.0693685 0.197411 0.0337533 -0.433247 -0.32689 0.839905 0 
0.069546 0.197536 0.0337011 -0.540053 -0.31065 0.782201 0 
0.0691473 0.198144 0.0338079 -0.503916 -0.581442 0.638744 0 
0.0690508 0.197872 0.0335919 -0.633115 -0.0294799 0.773496 0 
0.0689981 0.197684 0.0333433 -0.579597 0.747503 -0.32451 0 
0.0691771 0.197356 0.033353 -0.571297 0.728445 -0.378137 0 
0.0692743 0.196929 0.033615 -0.701663 0.679882 0.213144 0 
0.0693538 0.197237 0.0332848 -0.569212 0.782471 -0.252461 0 
0.0688993 0.196679 0.0330795 -0.697859 0.625948 -0.348112 0 
0.0691185 0.197098 0.032917 -0.672273 0.639399 -0.37312 0 
0.0696302 0.197231 0.0321043 -0.725953 0.609542 -0.318514 0 
0.0693875 0.196533 0.0315173 -0.621569 0.76906 0.148996 0 
0.0692642 0.197085 0.0318499 -0.666287 0.734853 -0.126699 0 
0.0683012 0.196235 0.0311289 0.749132 0.631743 0.199254 0 
0.06857 0.196807 0.0311212 -0.607917 0.730467 0.311215 0 
0.0707027 0.198232 0.0349002 0.694757 -0.254797 0.672601 0 
0.0792326 0.205691 0.0456278 0.727552 -0.670312 -0.146113 0 
0.0783165 0.204959 0.0449679 0.732935 -0.00415653 -0.680286 0 
0.0792742 0.205041 0.0455476 0.295826 0.129842 -0.946376 0 
0.0793195 0.205614 0.0455468 0.727552 -0.670312 -0.146113 0 
0.0788161 0.205147 0.0452026 0.275766 0.105863 -0.955378 0 
0.0791243 0.205279 0.0450369 0.675687 -0.731383 0.0923389 0 
0.0790857 0.205021 0.0452409 0.275766 0.105863 -0.955378 0 
0.0791844 0.206026 0.0455047 0.73935 -0.647124 -0.18599 0 
0.0794138 0.206095 0.0456851 0.627288 -0.777384 -0.046728 0 
0.0794539 0.2059 0.045543 0.648454 -0.759618 -0.0498811 0 
0.079771 0.206137 0.0456584 0.602938 -0.779111 -0.171617 0 
0.0797651 0.206067 0.045471 0.611808 -0.782819 -0.113516 0 
0.0801356 0.206737 0.0458509 -0.0238491 -0.747738 0.663565 0 
0.0799952 0.206381 0.0456674 -0.0921949 -0.654145 0.75073 0 
0.0796218 0.205677 0.0451938 0.701151 -0.643124 -0.307862 0 
0.0766237 0.20455 0.0437858 0.339052 0.0425426 -0.939805 0 
0.0770685 0.204759 0.0436941 -0.0226921 -0.228115 -0.97337 0 
0.0783982 0.205057 0.0447155 0.746092 -0.665807 -0.00692107 0 
0.07498 0.204993 0.0427125 0.86461 -0.0341473 -0.501282 0 
0.0761947 0.205509 0.0429097 0.283676 -0.690759 -0.665116 0 
0.0762179 0.205349 0.0422213 0.457324 -0.841786 -0.286796 0 
0.075759 0.204267 0.0418905 0.82328 0.407674 -0.394984 0 
0.0759313 0.204567 0.0416667 0.9061 -0.341068 0.250312 0 
0.0766083 0.205075 0.0432713 0.409979 -0.468316 -0.782686 0 
0.0767842 0.204711 0.0431872 0.283946 -0.176952 -0.942371 0 
0.0767753 0.204607 0.0429062 0.353983 -0.116172 -0.928009 0 
0.0770442 0.205179 0.0428984 0.180556 -0.581118 -0.793537 0 
0.0764576 0.205068 0.0427447 0.539975 -0.724921 -0.427687 0 
0.0769068 0.204858 0.0428086 0.330641 -0.27186 -0.903752 0 
0.0768755 0.204215 0.0432619 0.406246 0.118663 -0.906026 0 
0.0775357 0.205507 0.0428679 -0.440608 -0.835745 0.327712 0 
0.0768409 0.205928 0.0420932 -0.440608 -0.835745 0.327712 0 
0.0778462 0.20543 0.04278 -0.440608 -0.835745 0.327712 0 
0.077687 0.203872 0.0434706 0.440608 0.835745 -0.327712 0 
0.0761095 0.203994 0.0416605 0.582724 0.796539 -0.161115 0 
0.0869736 0.216393 0.0725712 -0.319665 0.870284 -0.374727 0 
0.0869165 0.216624 0.072167 -0.469483 0.870651 -0.146804 0 
0.0870932 0.216505 0.0720989 -0.543073 0.812315 -0.21264 0 
0.0873627 0.216379 0.0721372 -0.509812 0.798865 -0.319228 0 
0.087584 0.216588 0.0720524 -0.700639 0.681997 -0.209726 0 
0.0878499 0.217126 0.071951 -0.662914 0.747722 0.0381635 0 
0.0877155 0.21684 0.0719549 -0.703652 0.694573 -0.14981 0 
0.0877199 0.216421 0.0721105 -0.697536 0.681932 -0.220028 0 
0.0868638 0.216436 0.0719184 -0.451308 0.848706 -0.275714 0 
0.0868089 0.216457 0.071592 -0.551837 0.797443 -0.244052 0 
0.0869077 0.21652 0.0718859 -0.55368 0.811558 -0.186582 0 
0.086852 0.216297 0.0715436 -0.527862 0.798883 -0.288354 0 
0.0868461 0.216227 0.0713562 -0.575005 0.785788 -0.227832 0 
0.0871653 0.216254 0.0715494 -0.57124 0.773786 -0.273752 0 
0.0868899 0.216311 0.0713236 -0.598575 0.769596 -0.222328 0 
0.0869864 0.216583 0.0715398 -0.592717 0.773177 -0.225575 0 
0.087175 0.216603 0.0718464 -0.55368 0.811558 -0.186582 0 
0.0871661 0.216499 0.0715653 -0.578325 0.775802 -0.252332 0 
