0.097244 0.210189 0.037263 0.41587 0.860896 0.293104 1 
0.0935518 0.212807 0.0430618 -0.949363 -0.311371 0.0419397 1 
0.0935512 0.212698 0.0426397 -0.970179 -0.188397 0.152512 1 
0.0812679 0.22087 0.0582026 0.709495 -0.318384 -0.628687 1 
0.0818312 0.220622 0.0570577 0.709495 -0.318384 -0.628687 1 
0.0823491 0.220282 0.0573339 -0.237653 0.835619 -0.495239 1 
0.0819863 0.221316 0.0591056 0.709495 -0.318384 -0.628687 1 
0.0820501 0.22085 0.0587752 0.709495 -0.318384 -0.628687 1 
0.0825138 0.221082 0.059023 0.709495 -0.318384 -0.628687 1 
0.0828995 0.22091 0.0590665 0.709495 -0.318384 -0.628687 1 
0.0821071 0.220716 0.0584306 0.322472 0.879606 -0.349723 1 
0.0822186 0.220776 0.0583677 0.322472 0.879606 -0.349723 1 
0.0829317 0.22035 0.057955 0.389272 0.863168 -0.321572 1 
0.0825049 0.220322 0.0574892 -0.339061 0.803876 -0.488693 1 
0.0827753 0.220202 0.0573776 -0.430662 0.758162 -0.489612 1 
0.0827195 0.220553 0.0585664 0.168061 0.900636 -0.400762 1 
0.0829493 0.220342 0.0584546 0.437684 0.776117 -0.453955 1 
0.0824338 0.221116 0.059867 0.709495 -0.318384 -0.628687 1 
0.0835494 0.221059 0.0594064 0.709495 -0.318384 -0.628687 1 
0.0825201 0.219879 0.0563003 0.811046 0.53191 -0.243469 1 
0.0825589 0.219644 0.055034 0.518928 0.762939 -0.385536 1 
0.081504 0.219456 0.0553682 0.411511 0.705683 -0.576776 1 
0.0815786 0.219313 0.0555233 0.393178 0.841181 -0.371248 1 
0.0818115 0.218882 0.0552075 0.531613 0.78385 -0.320884 1 
0.0814732 0.218813 0.0551782 0.48144 0.790593 -0.37839 1 
0.0826081 0.218967 0.054 -0.219734 0.806716 -0.548567 1 
0.0821929 0.218713 0.0546108 0.562928 0.505795 -0.653669 1 
0.0826911 0.219476 0.0552666 0.656645 0.672939 -0.340543 1 
0.0824389 0.219696 0.0563001 0.87425 0.440836 -0.203348 1 
0.0822195 0.219465 0.0566441 0.889058 0.397931 -0.226333 1 
0.0821553 0.219165 0.0567214 0.950389 0.245393 -0.191162 1 
0.0823281 0.219088 0.0569541 0.956816 0.267595 -0.113565 1 
0.0825645 0.219202 0.0566876 0.983205 0.178871 -0.0362418 1 
0.0826517 0.219602 0.0561108 0.874523 0.42605 -0.231711 1 
0.082915 0.219048 0.0557319 0.84295 0.52043 -0.136338 1 
0.082835 0.219082 0.0565759 0.97833 0.195181 -0.0691014 1 
0.082875 0.219065 0.0561539 0.965681 0.251753 -0.0638777 1 
0.0822347 0.219022 0.0554552 0.625846 0.649211 -0.432251 1 
0.0824481 0.219036 0.0556881 0.742241 0.562798 -0.36378 1 
0.0823464 0.218425 0.0555612 0.603804 0.676993 -0.420833 1 
0.0825004 0.218902 0.0567648 0.9373 0.347481 -0.0269266 1 
0.0824282 0.218716 0.0559836 0.880906 0.397683 -0.256618 1 
0.0828951 0.218728 0.0560273 0.859998 0.507107 -0.0569627 1 
0.0831085 0.218742 0.0562602 0.745961 0.665988 -0.00137886 1 
0.0829867 0.218468 0.0562599 0.83073 0.555211 -0.0403537 1 
0.0826344 0.218297 0.0559492 0.884838 0.455741 -0.0967573 1 
0.0825502 0.218334 0.0561529 0.929991 0.343782 -0.130117 1 
0.0829757 0.218802 0.0556055 0.926293 0.339501 -0.163463 1 
0.0824676 0.218591 0.0551394 0.65083 0.516292 -0.556653 1 
0.082792 0.218556 0.0548872 0.714473 0.484643 -0.504628 1 
0.083029 0.218779 0.0550428 0.754036 0.577183 -0.313512 1 
0.0833942 0.218179 0.0549597 0.162472 0.91408 -0.371566 1 
0.0835743 0.21788 0.0556288 0.306866 0.949085 -0.0712137 1 
0.083989 0.218025 0.0545958 -0.851663 -0.523574 -0.0232396 1 
0.0830285 0.218777 0.0571043 0.791573 0.57722 0.200573 1 
0.082592 0.218642 0.0569973 0.828604 0.514253 0.221266 1 
0.0826933 0.218488 0.0568711 0.792454 0.606834 0.0613973 1 
0.0827242 0.218474 0.05723 0.819121 0.573247 0.0207198 1 
0.082643 0.218291 0.0572298 0.819121 0.573247 0.0207198 1 
0.0831837 0.218708 0.0568375 0.816525 0.55284 0.166301 1 
0.0830789 0.218317 0.0569146 0.684429 0.720061 0.114319 1 
0.0839612 0.217925 0.0565166 0.709495 -0.318384 -0.628687 1 
0.0843764 0.218179 0.0559058 0.709495 -0.318384 -0.628687 1 
0.0804668 0.220575 0.0538025 0.709495 -0.318384 -0.628687 1 
0.0806706 0.220484 0.0543942 0.68833 0.717809 0.10465 1 
0.0806089 0.219856 0.0538453 0.672411 0.739793 0.0238643 1 
0.0810544 0.219987 0.0531714 0.669929 0.737068 0.0890319 1 
0.0808527 0.219747 0.054015 0.54326 0.818672 0.186131 1 
0.0810521 0.219659 0.0539665 0.598786 0.790988 0.125671 1 
0.0804519 0.219599 0.0528457 0.709495 -0.318384 -0.628687 1 
0.0803864 0.219844 0.0543934 0.682103 0.675713 0.27955 1 
0.0814086 0.219721 0.0524338 0.709495 -0.318384 -0.628687 1 
0.0814449 0.219815 0.0517936 0.709495 -0.318384 -0.628687 1 
0.081753 0.21935 0.0520551 0.709495 -0.318384 -0.628687 1 
0.0818651 0.219518 0.0524143 0.709495 -0.318384 -0.628687 1 
0.0817944 0.218893 0.0526463 0.709495 -0.318384 -0.628687 1 
0.082118 0.219407 0.051803 0.709495 -0.318384 -0.628687 1 
0.0830312 0.219001 0.051764 0.709495 -0.318384 -0.628687 1 
0.0794766 0.221559 0.0567963 -0.100244 0.91593 -0.388618 1 
0.0791996 0.221353 0.0570628 -0.175989 0.945428 -0.274215 1 
0.0794263 0.221362 0.057155 -0.100244 0.91593 -0.388618 1 
0.0797405 0.221113 0.0568395 -0.0943124 0.87978 -0.465932 1 
0.0799133 0.221036 0.0570723 -0.0695537 0.904198 -0.421413 1 
0.0801261 0.220942 0.056883 -0.082602 0.877822 -0.471812 1 
0.0790268 0.22143 0.05683 -0.175989 0.945428 -0.274215 1 
0.0788881 0.220616 0.0569212 -0.175989 0.945428 -0.274215 1 
0.079019 0.220887 0.0561406 -0.0990877 0.845836 -0.52416 1 
0.0793724 0.221276 0.0572956 -0.175989 0.945428 -0.274215 1 
0.0790517 0.221199 0.0577659 -0.37658 0.351785 -0.856992 1 
0.0789699 0.220908 0.0573435 -0.175989 0.945428 -0.274215 1 
0.0792094 0.220802 0.0568729 -0.100244 0.91593 -0.388618 1 
0.0799316 0.220373 0.0556794 0.101683 0.729467 -0.676415 1 
0.0801825 0.220699 0.0561164 0.0432649 0.833199 -0.551279 1 
0.0803953 0.220604 0.0559271 0.182893 0.811683 -0.554726 1 
0.0806082 0.22051 0.0557379 0.779304 0.618472 -0.100885 1 
0.0809629 0.220353 0.0554225 0.649765 0.758297 0.052838 1 
0.0798498 0.220082 0.055257 0.908737 0.41158 0.0692759 1 
0.0806174 0.21985 0.0551259 0.688487 0.724944 0.0210332 1 
0.0810431 0.219662 0.0547474 0.663834 0.730673 0.159502 1 
0.0812795 0.219776 0.0544808 0.518602 0.8145 0.260079 1 
0.081584 0.219422 0.0545242 0.554953 0.831745 -0.0150728 1 
0.081838 0.219527 0.0547572 0.475482 0.845472 -0.243092 1 
0.081767 0.219559 0.0548202 0.448652 0.88746 -0.105483 1 
0.0817435 0.21935 0.0548976 0.497302 0.863587 -0.0831185 1 
0.0807327 0.219799 0.0552811 0.688487 0.724944 0.0210332 1 
0.0806109 0.219525 0.0552807 0.679875 0.721714 0.129998 1 
0.0804891 0.219251 0.0552804 0.63454 0.768127 0.0856702 1 
0.0813712 0.219516 0.0547134 0.490641 0.87058 0.0369006 1 
0.081675 0.219053 0.0543346 0.631276 0.732534 -0.254725 1 
0.0810068 0.219568 0.0553876 0.645394 0.76222 0.0498649 1 
0.0812093 0.219259 0.0551351 0.428905 0.895778 0.116718 1 
0.0808407 0.219313 0.055169 0.60924 0.788684 0.0824862 1 
0.0810875 0.218985 0.0551347 0.551829 0.816466 0.169909 1 
0.0813816 0.219073 0.0549457 0.577379 0.770366 -0.270498 1 
0.0813004 0.218891 0.0549455 0.62078 0.783925 0.00967809 1 
0.0815944 0.218979 0.0547564 0.555273 0.814099 -0.170043 1 
0.0825255 0.219224 0.0529865 -0.505259 -0.836029 -0.213938 1 
0.0829586 0.218813 0.0530443 -0.453903 -0.830846 -0.321973 1 
0.083417 0.218173 0.0519765 0.709495 -0.318384 -0.628687 1 
0.0835394 0.218556 0.052399 -0.572396 -0.793375 -0.207168 1 
0.0837803 0.21801 0.0529417 -0.335617 -0.918306 -0.209939 1 
0.0931425 0.216822 0.0404422 -0.709495 0.318384 0.628687 1 
0.0946304 0.216493 0.0376821 -0.709495 0.318384 0.628687 1 
0.0944151 0.216916 0.0384975 -0.709495 0.318384 0.628687 1 
0.0941647 0.216699 0.0384827 -0.709495 0.318384 0.628687 1 
0.0946892 0.216684 0.038604 -0.709495 0.318384 0.628687 1 
0.0945813 0.216513 0.0388851 -0.709495 0.318384 0.628687 1 
0.0927253 0.216899 0.0396176 -0.709495 0.318384 0.628687 1 
0.0942957 0.216313 0.037871 -0.709495 0.318384 0.628687 1 
0.0933354 0.216408 0.0405485 -0.709495 0.318384 0.628687 1 
0.0936059 0.216288 0.0404369 -0.709495 0.318384 0.628687 1 
0.0935993 0.215962 0.0405917 -0.709495 0.318384 0.628687 1 
0.0934441 0.216031 0.0408585 -0.709495 0.318384 0.628687 1 
0.093985 0.215791 0.0406352 -0.556637 -0.733972 0.389153 1 
0.0945888 0.215633 0.0394904 -0.799967 -0.540095 -0.261437 1 
0.0953395 0.215519 0.0392819 -0.176807 -0.355029 -0.917983 1 
0.0953329 0.215194 0.0394367 -0.394619 -0.904633 -0.160982 1 
0.0957997 0.215205 0.0394805 -0.434993 -0.681656 -0.588324 1 
0.0958604 0.214959 0.0393541 -0.363815 -0.512575 -0.777756 1 
0.0945714 0.214985 0.0391598 -0.208171 -0.417819 -0.884359 1 
0.0949273 0.215045 0.0396887 -0.589395 -0.795311 -0.141753 1 
0.0949236 0.215156 0.0394706 -0.465284 -0.870767 -0.158984 1 
0.0941835 0.214828 0.0399114 -0.56943 -0.821901 0.0150933 1 
0.0950189 0.214785 0.0399213 -0.589395 -0.795311 -0.141753 1 
0.0954106 0.214831 0.0393878 -0.362272 -0.670449 -0.6475 1 
0.0955968 0.214748 0.0394799 -0.459713 -0.663658 -0.590104 1 
0.0946653 0.215816 0.0409119 -0.482844 -0.826616 -0.289081 1 
0.0951284 0.215939 0.0407376 -0.709495 0.318384 0.628687 1 
0.0945435 0.215542 0.0409116 -0.58785 -0.777079 0.224903 1 
0.0948375 0.215631 0.0407226 -0.618841 -0.78116 0.0826088 1 
0.0946655 0.21516 0.0410809 -0.516909 -0.713035 0.473695 1 
0.0949699 0.214806 0.0411243 -0.709495 0.318384 0.628687 1 
0.0950911 0.214971 0.0407025 -0.710562 -0.692686 -0.123641 1 
0.0959115 0.214608 0.0395865 -0.514256 -0.568211 -0.642399 1 
0.0957963 0.214659 0.0394314 -0.360389 -0.525231 -0.770877 1 
0.0956588 0.214063 0.0403668 -0.637023 -0.643676 -0.424127 1 
0.0959625 0.214257 0.039819 -0.513737 -0.58785 -0.624906 1 
0.0967536 0.214891 0.0394416 -0.485836 -0.219459 -0.846051 1 
0.0962867 0.214879 0.0393978 -0.475393 -0.485332 -0.733795 1 
0.0964995 0.214785 0.0392085 -0.47873 -0.302934 -0.824044 1 
0.0967123 0.214691 0.0390193 -0.507569 -0.141885 -0.849849 1 
0.0972058 0.214691 0.0387817 -0.590603 0.164644 -0.789988 1 
0.0973205 0.214531 0.0385148 0.709495 -0.318384 -0.628687 1 
0.0961649 0.214605 0.0393974 -0.461849 -0.471711 -0.751122 1 
0.0961243 0.214514 0.0393973 -0.461849 -0.471711 -0.751122 1 
0.09604 0.214551 0.0396011 -0.461849 -0.471711 -0.751122 1 
0.0963371 0.214419 0.0392081 -0.528725 -0.401045 -0.748072 1 
0.0960025 0.21424 0.039397 -0.461849 -0.471711 -0.751122 1 
0.0963882 0.214068 0.0394405 -0.554251 -0.344185 -0.757854 1 
0.0967495 0.214237 0.0389703 -0.540755 -0.102383 -0.834926 1 
0.0969756 0.214137 0.0386404 -0.590603 0.164644 -0.789988 1 
0.0967835 0.214002 0.0391252 -0.543342 -0.06633 -0.836887 1 
0.0868145 0.218435 0.0360091 0.709495 -0.318384 -0.628687 1 
0.0865375 0.21823 0.0362755 -0.300279 -0.85772 -0.417311 1 
0.0871359 0.217964 0.0361298 -0.30986 -0.855582 -0.414688 1 
0.0876138 0.217641 0.0368281 -0.286786 -0.813345 -0.506186 1 
0.0893734 0.217515 0.0372843 0.709495 -0.318384 -0.628687 1 
0.0889746 0.217036 0.0375505 0.361677 -0.920252 0.149419 1 
0.0894827 0.217247 0.0380165 -0.0934479 -0.991009 0.0957552 1 
0.0893251 0.216987 0.0390784 -0.361037 -0.892936 0.268921 1 
0.0902594 0.217119 0.0395882 -0.709495 0.318384 0.628687 1 
0.0903487 0.216425 0.0381321 -0.666891 -0.743676 0.0469241 1 
0.0904591 0.216374 0.0397086 -0.709495 0.318384 0.628687 1 
0.0867406 0.21803 0.0364451 -0.302249 -0.860718 -0.409647 1 
0.0863757 0.217973 0.0366972 -0.337288 -0.815508 -0.470302 1 
0.0865618 0.21789 0.0367893 -0.28998 -0.838927 -0.460557 1 
0.0871263 0.217858 0.0364887 -0.28998 -0.838927 -0.460557 1 
0.0871663 0.217841 0.0360667 -0.30986 -0.855582 -0.414688 1 
0.0867923 0.217787 0.0370997 -0.286786 -0.813345 -0.506186 1 
0.0868536 0.21765 0.0373954 -0.288225 -0.849263 -0.442356 1 
0.0864 0.217633 0.037211 -0.293897 -0.85707 -0.42315 1 
0.0866305 0.21753 0.0375214 -0.247819 -0.829656 -0.500256 1 
0.0868943 0.217085 0.0375645 -0.234945 -0.85338 -0.465342 1 
0.0870894 0.217656 0.0367067 -0.28998 -0.838927 -0.460557 1 
0.0874364 0.217062 0.0381855 -0.450286 -0.869363 0.203594 1 
0.0877054 0.217381 0.0370606 -0.244235 -0.857097 -0.453579 1 
0.0874122 0.216745 0.0378408 -0.582652 -0.794526 0.171012 1 
0.088257 0.216042 0.0372386 0.0179675 -0.595693 0.803011 1 
0.0878221 0.21689 0.0382291 -0.365883 -0.875995 0.314265 1 
0.0880925 0.21677 0.0381175 -0.365883 -0.875995 0.314265 1 
0.0883053 0.216676 0.0379282 -0.179278 -0.904994 0.385806 1 
0.088603 0.216653 0.0379574 0.182453 -0.906517 0.380708 1 
0.0883877 0.217076 0.0387727 -0.143872 -0.956945 0.252106 1 
0.0883477 0.217093 0.0391947 -0.380243 -0.855158 0.352307 1 
0.0886005 0.216982 0.0385835 -0.143872 -0.956945 0.252106 1 
0.0882241 0.216493 0.037928 -0.402752 -0.865227 0.298618 1 
0.0889444 0.216502 0.0377827 -0.162527 -0.74884 0.642514 1 
0.0886334 0.21653 0.0378942 0.182453 -0.906517 0.380708 1 
0.0889955 0.216151 0.0380151 -0.224658 -0.897162 0.380303 1 
0.0885383 0.216245 0.0376125 0.114233 -0.734358 0.669081 1 
0.089312 0.216336 0.0393881 -0.709495 0.318384 0.628687 1 
0.0901832 0.216279 0.0383357 -0.625719 -0.764433 0.155299 1 
0.0901051 0.215876 0.0381314 -0.681343 -0.720277 0.130279 1 
0.0901069 0.216202 0.0393979 -0.709495 0.318384 0.628687 1 
0.0902596 0.216462 0.0397571 -0.709495 0.318384 0.628687 1 
0.0904835 0.216034 0.0402224 -0.709495 0.318384 0.628687 1 
0.0904464 0.215725 0.0379567 -0.916231 -0.381185 0.123365 1 
0.0903247 0.215451 0.0379563 -0.876724 -0.431687 0.212135 1 
0.0906133 0.215431 0.0387665 -0.906065 -0.415337 0.0808742 1 
0.0908366 0.214894 0.0388096 -0.862612 -0.471995 0.181992 1 
0.0914373 0.21572 0.0401834 -0.709495 0.318384 0.628687 1 
0.0917181 0.215157 0.0403041 -0.709495 0.318384 0.628687 1 
0.0909961 0.214823 0.039183 -0.832442 -0.383839 0.399635 1 
0.0903475 0.216207 0.0372879 0.0122558 -0.842925 0.537892 1 
0.0902829 0.215142 0.037112 -0.865628 -0.478641 0.146939 1 
0.0905695 0.215453 0.0364867 -0.947191 -0.290722 0.135313 1 
0.0904071 0.215088 0.0364862 -0.918004 -0.389579 0.0741413 1 
0.0906097 0.214779 0.0362336 -0.709495 0.318384 0.628687 1 
0.0904957 0.215048 0.0369227 -0.898178 -0.423086 0.119476 1 
0.0907425 0.214719 0.0368884 -0.831454 -0.55195 0.0635237 1 
0.0904835 0.215165 0.035424 -0.709495 0.318384 0.628687 1 
0.0906764 0.21475 0.0355303 -0.709495 0.318384 0.628687 1 
0.0909755 0.214288 0.0365727 -0.82222 -0.56729 0.0462236 1 
0.0907811 0.215905 0.0377678 -0.922257 -0.378327 0.0794353 1 
0.0905715 0.215122 0.0379221 -0.899557 -0.416592 0.131332 1 
0.090862 0.214665 0.0376839 -0.875079 -0.461405 0.146088 1 
0.0910749 0.214571 0.0374947 -0.891688 -0.433756 0.129416 1 
0.0910184 0.214814 0.0382614 -0.868605 -0.480963 0.119164 1 
0.0912423 0.214385 0.0387266 -0.796044 -0.58155 0.167668 1 
0.0912811 0.214151 0.0374603 -0.801179 -0.58576 0.122464 1 
0.0910283 0.214263 0.0380715 -0.820355 -0.560064 0.115522 1 
0.0912005 0.214077 0.0378822 -0.709495 0.318384 0.628687 1 
0.0917825 0.2148 0.0403958 -0.864433 -0.301404 0.402382 1 
0.0919637 0.215374 0.0417402 -0.709495 0.318384 0.628687 1 
0.0920548 0.215006 0.0415506 -0.862632 -0.503777 0.045547 1 
0.0922718 0.214909 0.0420017 -0.639782 -0.710335 -0.293434 1 
0.0919537 0.214503 0.0418459 -0.857689 -0.471505 -0.205067 1 
0.0924605 0.214497 0.0414677 -0.865728 -0.477392 0.150371 1 
0.0914625 0.214938 0.043772 -0.709495 0.318384 0.628687 1 
0.0919554 0.214829 0.0431123 -0.762312 -0.566518 -0.312949 1 
0.0921107 0.21476 0.0428455 -0.703381 -0.645437 -0.29777 1 
0.0920059 0.214369 0.0429226 -0.65205 -0.690882 -0.312272 1 
0.091793 0.214463 0.0431118 -0.717859 -0.624295 -0.308115 1 
0.0917531 0.214481 0.0435339 -0.802746 -0.489946 -0.33993 1 
0.0919593 0.214061 0.0434995 -0.645943 -0.724525 -0.240461 1 
0.0922127 0.214058 0.0433104 -0.670316 -0.69567 -0.258301 1 
0.0920088 0.214806 0.0425496 -0.703381 -0.645437 -0.29777 1 
0.0925763 0.214555 0.042045 -0.831087 -0.5348 -0.152588 1 
0.0920192 0.214363 0.0427819 -0.703381 -0.645437 -0.29777 1 
0.0923739 0.214206 0.0424666 -0.804108 -0.543819 -0.240148 1 
0.0924832 0.213938 0.0431987 -0.66837 -0.687603 -0.283696 1 
0.0927596 0.214035 0.0425101 -0.740789 -0.664509 -0.0982828 1 
0.0931858 0.213955 0.0425537 -0.845199 -0.491395 0.210166 1 
0.0929088 0.213749 0.0428202 -0.772976 -0.621062 -0.129574 1 
0.0927586 0.213161 0.0418348 -0.931428 -0.250171 0.264305 1 
0.0931454 0.213207 0.0427227 -0.865224 -0.499326 0.0453933 1 
0.0917172 0.214283 0.0396288 -0.861513 -0.299457 0.410025 1 
0.0918834 0.21388 0.0400164 -0.881974 -0.284945 0.375404 1 
0.0918828 0.213772 0.0395943 -0.865532 -0.333607 0.373578 1 
0.0921563 0.213432 0.0392787 -0.848219 -0.41555 0.328393 1 
0.0921883 0.214291 0.0403129 -0.965373 -0.0900677 0.244832 1 
0.0926832 0.213852 0.0410886 -0.930844 -0.165083 0.326003 1 
0.0919611 0.213517 0.0399675 -0.657861 -0.308726 0.686955 1 
0.0921175 0.213666 0.0405449 -0.914294 -0.229657 0.333652 1 
0.0918126 0.213255 0.0402485 -0.797266 -0.237781 0.554822 1 
0.0919539 0.213083 0.0397002 -0.226627 -0.0838894 0.970362 1 
0.0923396 0.212912 0.0397438 0.132901 0.10656 0.985384 1 
0.0925144 0.212504 0.041412 -0.709495 0.318384 0.628687 1 
0.0932278 0.213607 0.0435672 -0.779372 -0.613106 -0.129153 1 
0.0926404 0.213538 0.0443673 -0.574553 -0.802574 -0.160515 1 
0.0926514 0.213204 0.0450217 -0.625859 -0.762245 -0.165178 1 
0.0930061 0.213047 0.0447063 -0.722319 -0.68407 -0.101507 1 
0.092738 0.213495 0.0440229 -0.73709 -0.67555 -0.0181825 1 
0.0928932 0.213427 0.043756 -0.757317 -0.641265 -0.123492 1 
0.0932073 0.213178 0.0434405 -0.846436 -0.517186 -0.126747 1 
0.093299 0.212918 0.0436731 -0.85276 -0.521511 0.0287447 1 
0.0933765 0.213212 0.0434551 -0.843683 -0.530681 -0.081096 1 
0.0932547 0.212938 0.0434548 -0.871041 -0.485154 -0.0768977 1 
0.0930747 0.212581 0.0429547 -0.951999 -0.30204 0.0497027 1 
0.0932748 0.212601 0.0433283 -0.910682 -0.407303 0.0690115 1 
0.093513 0.213041 0.0443281 -0.80796 -0.589223 -0.00410132 1 
0.093407 0.212433 0.0435609 -0.897054 -0.441196 0.0253254 1 
0.093638 0.212439 0.0442935 -0.833075 -0.553118 0.00679507 1 
0.0934714 0.212076 0.0436527 -0.977886 -0.150348 0.145378 1 
0.0933112 0.212802 0.0451718 -0.632735 -0.757157 -0.162356 1 
0.0933052 0.212585 0.0457488 -0.709495 0.318384 0.628687 1 
0.0936503 0.212322 0.0457922 -0.709495 0.318384 0.628687 1 
0.0937388 0.212282 0.0462288 -0.709495 0.318384 0.628687 1 
0.0935882 0.213007 0.0449053 -0.648068 -0.749843 -0.133206 1 
0.0936792 0.212639 0.0447157 -0.785217 -0.619033 0.0152335 1 
0.0936798 0.212747 0.0451379 -0.623694 -0.763304 -0.168443 1 
0.0937309 0.212396 0.0453703 -0.623694 -0.763304 -0.168443 1 
0.0936151 0.212339 0.044793 -0.782165 -0.622081 0.0351062 1 
0.076674 0.222164 0.043355 0.709495 -0.318384 -0.628687 1 
0.076765 0.221796 0.0431654 0.709495 -0.318384 -0.628687 1 
0.0770385 0.221456 0.0428498 0.846061 0.265642 0.462186 1 
0.0764105 0.221296 0.0436498 0.709495 -0.318384 -0.628687 1 
0.0766543 0.221188 0.0438195 0.834614 0.356793 0.419665 1 
0.0766174 0.220985 0.0440376 0.709495 -0.318384 -0.628687 1 
0.076958 0.221382 0.0432717 0.887196 0.307742 0.34377 1 
0.0770806 0.221108 0.0438632 0.834614 0.356793 0.419665 1 
0.0771 0.220662 0.0433145 0.927156 0.269174 0.260629 1 
0.0769588 0.220834 0.0438628 0.887196 0.307742 0.34377 1 
0.0772116 0.220722 0.0432516 0.888822 0.310263 0.337243 1 
0.0774681 0.220499 0.0428585 0.766546 0.0949057 0.635138 1 
0.077302 0.220245 0.0426398 0.718846 0.265005 0.642677 1 
0.0772069 0.219959 0.0423581 0.624332 0.293709 0.72384 1 
0.0774779 0.219948 0.0426686 0.603249 0.208283 0.769876 1 
0.077608 0.218794 0.0438654 0.0181882 -0.681357 0.731725 1 
0.0780337 0.218606 0.0434869 -0.713178 -0.279208 -0.642977 1 
0.077754 0.219386 0.0442106 -0.709495 0.318384 0.628687 1 
0.0779026 0.218991 0.0440985 -0.709495 0.318384 0.628687 1 
0.0777809 0.218717 0.0440982 -0.485673 -0.85329 -0.189786 1 
0.0757095 0.21942 0.0431623 0.709495 -0.318384 -0.628687 1 
0.0758618 0.218914 0.0432685 0.709495 -0.318384 -0.628687 1 
0.0761456 0.218789 0.0430162 0.709495 -0.318384 -0.628687 1 
0.0762784 0.218729 0.043671 -0.0634807 -0.947029 -0.314813 1 
0.0760244 0.218623 0.043438 0.709495 -0.318384 -0.628687 1 
0.0758862 0.218575 0.0437823 0.709495 -0.318384 -0.628687 1 
0.0763136 0.218712 0.0446703 0.709495 -0.318384 -0.628687 1 
0.0763809 0.218792 0.044389 0.0170476 -0.999794 0.0110308 1 
0.0765029 0.218409 0.0445584 -0.626974 0.123023 -0.769265 1 
0.0764211 0.218118 0.044136 0.363147 -0.475131 -0.801483 1 
0.0772521 0.218734 0.0433365 -0.112266 -0.817938 0.564246 1 
0.0779525 0.218423 0.0434867 -0.564001 -0.0908749 -0.820759 1 
0.0779927 0.217749 0.0432336 -0.714473 -0.504628 -0.484643 1 
0.0759175 0.217247 0.0444792 0.465033 -0.347584 -0.814205 1 
0.0762285 0.217218 0.0443677 0.329447 -0.344629 -0.879031 1 
0.0757957 0.216973 0.0444789 0.413869 -0.439635 -0.797141 1 
0.0758244 0.218709 0.0455481 0.709495 -0.318384 -0.628687 1 
0.0761507 0.216265 0.0468162 0.709495 -0.318384 -0.628687 1 
0.0764131 0.218995 0.0455922 0.709495 -0.318384 -0.628687 1 
0.07687 0.217478 0.0459107 0.933874 -0.217017 0.284223 1 
0.0770853 0.217055 0.0450953 -0.212129 -0.76955 -0.602324 1 
0.0772787 0.217407 0.0454547 -0.0666918 -0.566171 -0.821586 1 
0.0778719 0.218349 0.0439086 -0.500032 -0.183594 0.846322 1 
0.0776701 0.218109 0.0447523 -0.406144 -0.362237 -0.838947 1 
0.078511 0.218175 0.043763 -0.439694 -0.202822 -0.874947 1 
0.0787584 0.217955 0.0441509 -0.911718 -0.331929 -0.242062 1 
0.0778819 0.217141 0.0438878 -0.449751 -0.357576 -0.818452 1 
0.0778019 0.217175 0.0447318 -0.326576 -0.551802 -0.767374 1 
0.0775686 0.216841 0.0447944 -0.268905 -0.688971 -0.673059 1 
0.0779943 0.216652 0.044416 -0.285931 -0.742782 -0.605407 1 
0.0781058 0.216712 0.044353 -0.369485 -0.605955 -0.704485 1 
0.0787563 0.21697 0.045115 -0.0954485 -0.729814 -0.67695 1 
0.0786237 0.216373 0.0446292 -0.307443 -0.73561 -0.603619 1 
0.0763304 0.217172 0.0446636 0.353577 -0.42272 -0.834441 1 
0.0763608 0.21705 0.0446004 0.269906 -0.399581 -0.876063 1 
0.0768313 0.21695 0.0448623 -0.159681 -0.698034 -0.698034 1 
0.0765336 0.216973 0.0448332 0.120534 -0.662194 -0.739574 1 
0.076151 0.216924 0.0445856 0.095272 -0.681561 -0.725533 1 
0.0761104 0.216833 0.0445855 0.127022 -0.673964 -0.727762 1 
0.076239 0.216775 0.0446 -0.00138309 -0.728889 -0.68463 1 
0.0764561 0.216678 0.0450511 -0.0125488 -0.720857 -0.692971 1 
0.0767671 0.21665 0.0449395 -0.235897 -0.760808 -0.604585 1 
0.0767265 0.216558 0.0449394 -0.235897 -0.760808 -0.604585 1 
0.0770617 0.216847 0.0451727 -0.236223 -0.764987 -0.599161 1 
0.0762906 0.216533 0.0452546 0.0181992 -0.701368 -0.712567 1 
0.0767981 0.216636 0.0452985 -0.0529873 -0.694564 -0.717477 1 
0.0768017 0.216524 0.0455166 -0.0799889 -0.667544 -0.740261 1 
0.0758467 0.216621 0.0447113 0.272685 -0.715997 -0.642644 1 
0.076087 0.215967 0.0448319 0.185324 -0.632553 -0.752018 1 
0.0759262 0.216584 0.0459288 0.361743 -0.840934 -0.402458 1 
0.0763016 0.216199 0.045909 -0.579915 -0.64379 -0.499232 1 
0.0765477 0.216419 0.0452836 -0.0559604 -0.698788 -0.713137 1 
0.0768085 0.216193 0.0455308 -0.31103 -0.717142 -0.623672 1 
0.0766142 0.217047 0.0444112 0.0288461 -0.534339 -0.844778 1 
0.0771327 0.216815 0.0451096 -0.206148 -0.661842 -0.720741 1 
0.0774874 0.216658 0.0447942 -0.243623 -0.737156 -0.630276 1 
0.0771122 0.216387 0.044983 -0.267809 -0.755888 -0.597421 1 
0.0768891 0.216267 0.0451089 -0.254032 -0.752629 -0.607468 1 
0.0772583 0.216321 0.0454971 -0.339808 -0.616206 -0.710507 1 
0.0774808 0.216333 0.044949 -0.237816 -0.700848 -0.672499 1 
0.0782071 0.216558 0.0442267 -0.198087 -0.772386 -0.603474 1 
0.0779434 0.216347 0.0443525 -0.31175 -0.715571 -0.625115 1 
0.078272 0.21631 0.0447406 -0.333548 -0.704518 -0.626419 1 
0.0778216 0.216073 0.0443522 -0.351298 -0.681355 -0.642141 1 
0.0781769 0.216024 0.0444589 -0.29974 -0.748548 -0.591465 1 
0.0771771 0.216139 0.0454969 -0.333135 -0.641895 -0.690646 1 
0.0770754 0.215527 0.04537 -0.300055 -0.72687 -0.61776 1 
0.0765253 0.216427 0.0462052 -0.227526 -0.568041 -0.790924 1 
0.0769001 0.215933 0.0457633 -0.294347 -0.693242 -0.657856 1 
0.0765655 0.215753 0.0459522 -0.382709 -0.711215 -0.589667 1 
0.077412 0.215376 0.0466165 -0.199821 -0.717187 -0.667619 1 
0.0775288 0.216201 0.0453855 -0.326697 -0.648518 -0.687527 1 
0.0777016 0.216124 0.0456183 -0.297336 -0.663782 -0.686283 1 
0.0779144 0.21603 0.045429 -0.290212 -0.684644 -0.66861 1 
0.0784625 0.216224 0.045473 -0.285669 -0.748484 -0.598468 1 
0.0787256 0.216327 0.0449251 -0.344726 -0.687818 -0.638804 1 
0.0778835 0.216044 0.0450701 -0.308726 -0.686955 -0.657861 1 
0.0782691 0.215873 0.0451136 -0.265173 -0.709775 -0.652612 1 
0.0783608 0.215613 0.0453462 -0.260165 -0.758419 -0.59759 1 
0.0793593 0.216044 0.0457786 -0.274684 -0.440415 -0.854742 1 
0.0788682 0.215716 0.0453901 -0.450327 -0.614387 -0.647869 1 
0.0787464 0.215442 0.0453897 -0.434747 -0.661282 -0.611311 1 
0.0774476 0.216019 0.0453852 -0.318884 -0.662049 -0.678236 1 
0.0775798 0.21585 0.0456179 -0.304575 -0.71712 -0.626876 1 
0.077133 0.215502 0.0454476 -0.300055 -0.72687 -0.61776 1 
0.0781479 0.215707 0.0455354 -0.234779 -0.791409 -0.564403 1 
0.0781014 0.215399 0.0461122 -0.0209979 0.712528 -0.701329 1 
0.0783451 0.215291 0.0462819 -0.27364 -0.511315 -0.814664 1 
0.0782226 0.215565 0.0456904 -0.232716 -0.754375 -0.613809 1 
0.0756318 0.21573 0.0458647 0.304807 -0.95205 -0.0263413 1 
0.0771441 0.215168 0.046102 -0.226783 -0.661582 -0.714758 1 
0.0771035 0.215076 0.0461019 -0.117455 -0.676482 -0.727032 1 
0.0783886 0.217792 0.0433405 -0.22322 -0.113523 -0.968135 1 
0.0786124 0.217363 0.0438057 -0.621098 -0.431272 -0.654401 1 
0.0783584 0.217258 0.0435727 -0.51774 -0.400146 -0.756194 1 
0.0789878 0.216978 0.043786 0.479111 -0.485742 -0.7311 1 
0.0785351 0.216412 0.0441926 -0.37006 -0.685845 -0.626635 1 
0.0794459 0.216335 0.0447797 -0.382113 -0.7626 -0.52195 1 
0.0796527 0.216024 0.0451675 -0.052503 -0.0460741 -0.997557 1 
0.0786268 0.216153 0.0444252 -0.456538 -0.677281 -0.576943 1 
0.0794557 0.215784 0.0445899 -0.533809 -0.798352 -0.278715 1 
0.0795703 0.215624 0.0443229 -0.369226 -0.625223 -0.687581 1 
0.0799523 0.215564 0.0441484 0.586549 -0.204753 -0.783605 1 
0.0791957 0.215462 0.0449339 -0.464831 -0.639353 -0.612503 1 
0.0794661 0.215342 0.0448222 -0.338369 -0.481341 -0.80859 1 
0.0791321 0.21527 0.0454332 -0.541554 -0.504668 -0.672332 1 
0.0799736 0.215444 0.0448661 0.236047 -0.92273 0.304715 1 
0.0789527 0.215022 0.0453553 -0.555541 -0.465453 -0.689004 1 
0.0793582 0.21517 0.0451033 -0.431561 -0.434793 -0.790386 1 
0.0794559 0.215127 0.0447589 -0.358403 -0.457162 -0.813972 1 
0.07973 0.214896 0.0448654 -0.420914 -0.364162 -0.830793 1 
0.0795069 0.214776 0.0449913 -0.679719 -0.326071 -0.657008 1 
0.0802087 0.216104 0.0460699 0.709495 -0.318384 -0.628687 1 
0.0805628 0.215839 0.0453324 0.691223 0.265366 -0.672155 1 
0.0811213 0.21559 0.0456087 0.709495 -0.318384 -0.628687 1 
0.079724 0.214679 0.0454424 -0.283967 0.292705 -0.913064 1 
0.0693723 0.215774 0.0470468 0.321942 -0.780029 -0.53657 1 
0.0691492 0.215654 0.0471727 0.110277 -0.860736 -0.496964 1 
0.0695311 0.216251 0.0468291 0.341146 -0.751814 -0.564265 1 
0.0694092 0.215977 0.0468287 0.341146 -0.751814 -0.564265 1 
0.069701 0.215737 0.0474349 0.10102 -0.771561 -0.628083 1 
0.069028 0.215489 0.0475945 -0.240035 -0.839356 -0.487713 1 
0.0693627 0.215668 0.0474056 -0.193525 -0.8061 -0.559241 1 
0.0695355 0.215591 0.0476384 -0.153841 -0.814014 -0.560102 1 
0.0692142 0.215406 0.0476866 -0.311814 -0.808817 -0.498586 1 
0.0694137 0.215317 0.047638 -0.162015 -0.833859 -0.527665 1 
0.0698503 0.215451 0.047745 -0.0608417 -0.81924 -0.570214 1 
0.0697018 0.215189 0.048026 -0.349791 -0.800206 -0.487151 1 
0.0699322 0.215086 0.0483364 -0.386214 -0.783741 -0.486404 1 
0.0696057 0.216108 0.0469842 0.292769 -0.747122 -0.596737 1 
0.0694839 0.215834 0.0469838 0.321942 -0.780029 -0.53657 1 
0.0683024 0.215372 0.0487389 -0.544118 -0.795008 -0.268139 1 
0.0680672 0.215475 0.0498498 0.709495 -0.318384 -0.628687 1 
0.0684758 0.215403 0.0493939 -0.583826 -0.774783 -0.242609 1 
0.0687057 0.215192 0.0492821 -0.534814 -0.788731 -0.303114 1 
0.0682102 0.215523 0.0480842 -0.298504 -0.912987 -0.278119 1 
0.0687863 0.215266 0.0488602 -0.502427 -0.799098 -0.330166 1 
0.0688609 0.215123 0.0490152 -0.511421 -0.787171 -0.344688 1 
0.06907 0.21514 0.0486079 -0.458882 -0.786423 -0.41348 1 
0.0691912 0.215306 0.0481861 -0.435377 -0.804885 -0.403246 1 
0.0694248 0.214983 0.0482925 -0.404957 -0.808313 -0.427365 1 
0.0694151 0.214878 0.0486513 -0.436839 -0.827945 -0.351679 1 
0.0696685 0.214875 0.0484622 -0.508811 -0.745927 -0.429772 1 
0.0699523 0.214749 0.0482099 -0.386214 -0.783741 -0.486404 1 
0.0697698 0.21472 0.0483359 -0.47308 -0.761184 -0.443615 1 
0.0686148 0.214904 0.0496407 -0.597991 -0.730878 -0.328976 1 
0.0688719 0.214789 0.0496697 -0.492908 -0.791542 -0.361252 1 
0.0694689 0.213647 0.0509103 -0.517676 -0.747754 0.415784 1 
0.0691136 0.213696 0.0508035 -0.514867 -0.531637 -0.672513 1 
0.0690761 0.213384 0.0505994 -0.466386 -0.0765709 -0.881261 1 
0.0689494 0.215083 0.0494518 -0.497771 -0.838752 -0.220724 1 
0.069223 0.214744 0.0491362 -0.452688 -0.838483 -0.303347 1 
0.0691424 0.214669 0.0495581 -0.501896 -0.798254 -0.333004 1 
0.069568 0.214481 0.0491796 -0.431382 -0.82642 -0.361855 1 
0.0693892 0.214341 0.0495238 -0.479 -0.788657 -0.385458 1 
0.0696722 0.214763 0.0486803 -0.425231 -0.826751 -0.368323 1 
0.0699736 0.214629 0.0489276 -0.392047 -0.853827 -0.34246 1 
0.0693952 0.214558 0.0489468 -0.452688 -0.838483 -0.303347 1 
0.0695814 0.214475 0.0490389 -0.406387 -0.86338 -0.299039 1 
0.0697542 0.214398 0.0492717 -0.42473 -0.806186 -0.411908 1 
0.0696597 0.214221 0.0494121 -0.44921 -0.783279 -0.429749 1 
0.0700494 0.214704 0.049927 -0.252562 -0.816566 -0.519069 1 
0.0701507 0.214549 0.0498007 -0.297203 -0.777179 -0.554674 1 
0.0700246 0.214278 0.04916 -0.46788 -0.795879 -0.384273 1 
0.0691942 0.21377 0.0503816 -0.493636 -0.61157 -0.618309 1 
0.0705837 0.214138 0.0498585 -0.32594 -0.718366 -0.614584 1 
0.0700498 0.21339 0.050265 -0.697537 -0.588185 -0.409244 1 
0.0696817 0.213553 0.0507211 -0.705177 -0.382998 -0.596689 1 
0.0703202 0.21327 0.0501533 0.336413 0.00375182 -0.941707 1 
0.070182 0.213221 0.0504977 -0.257073 -0.315169 -0.913554 1 
0.0704373 0.213544 0.051575 0.513793 -0.065799 -0.855388 1 
0.0716115 0.213572 0.0495525 0.709495 -0.318384 -0.628687 1 
0.0714563 0.213641 0.0498194 0.709495 -0.318384 -0.628687 1 
0.0720948 0.213358 0.0492516 0.709495 -0.318384 -0.628687 1 
0.0695023 0.213304 0.0506431 -0.726084 -0.657965 0.199712 1 
0.0696309 0.213247 0.0506576 -0.732534 -0.631276 -0.254725 1 
0.0698437 0.213153 0.0504684 -0.474345 -0.418923 -0.774274 1 
0.0700159 0.212967 0.050279 -0.383609 -0.431361 -0.816561 1 
0.0700088 0.212533 0.0500117 -0.416975 -0.532343 -0.736711 1 
0.0704465 0.212885 0.050963 0.161998 0.0124614 -0.986712 1 
0.0704629 0.212659 0.0506183 -0.388255 -0.439383 -0.810062 1 
0.0711869 0.212556 0.0506911 -0.576815 -0.546367 -0.607262 1 
0.070101 0.212382 0.0506664 -0.683626 -0.65115 0.329635 1 
0.0702029 0.212336 0.0509623 -0.71826 -0.611251 0.332378 1 
0.0706351 0.212473 0.050429 0.223293 -0.010633 -0.974693 1 
0.0707704 0.212085 0.0504576 -0.467414 -0.671803 -0.574634 1 
0.0704733 0.212216 0.0508506 -0.718221 -0.665479 0.203212 1 
0.070842 0.212162 0.0508167 -0.467414 -0.671803 -0.574634 1 
0.0699665 0.212222 0.0512289 -0.453107 -0.130072 0.881916 1 
0.0702945 0.212076 0.0511948 -0.490296 -0.68106 -0.543844 1 
0.070605 0.211939 0.0506612 -0.467414 -0.671803 -0.574634 1 
0.0707157 0.212547 0.050007 -0.391013 -0.592294 -0.704483 1 
0.0709697 0.212653 0.0502401 -0.43957 -0.552365 -0.708288 1 
0.0710613 0.212393 0.0504726 0.42472 0.0415341 -0.904372 1 
0.0713894 0.212247 0.0504386 -0.394695 -0.678744 -0.619292 1 
0.0722086 0.213746 0.0483935 0.709495 -0.318384 -0.628687 1 
0.0721067 0.213792 0.0480977 0.709495 -0.318384 -0.628687 1 
0.0711133 0.213573 0.0512113 -0.881334 -0.337114 -0.331067 1 
0.0707614 0.212088 0.0512386 -0.387347 -0.684038 -0.618106 1 
0.0704031 0.211699 0.0515048 -0.388043 -0.612613 -0.68857 1 
0.0704231 0.212019 0.0512094 -0.393803 -0.703572 -0.591528 1 
0.0710925 0.211722 0.0510006 -0.387347 -0.684038 -0.618106 1 
0.0712276 0.211991 0.0508603 -0.387347 -0.684038 -0.618106 1 
0.0714574 0.211779 0.0507485 -0.338906 -0.731323 -0.591869 1 
0.07164 0.211808 0.0506224 -0.365535 -0.713039 -0.598297 1 
0.0727343 0.21187 0.0494441 0.709495 -0.318384 -0.628687 1 
0.0658799 0.196963 0.0542367 0.709495 -0.318384 -0.628687 1 
0.0662905 0.196561 0.0552161 0.709495 -0.318384 -0.628687 1 
0.0659443 0.196607 0.0543284 0.709495 -0.318384 -0.628687 1 
0.0665635 0.196112 0.0544783 0.709495 -0.318384 -0.628687 1 
0.0669503 0.196158 0.0553662 0.709495 -0.318384 -0.628687 1 
0.0652484 0.195389 0.0501892 -0.709495 0.318384 0.628687 1 
0.0646259 0.194681 0.050159 -0.709495 0.318384 0.628687 1 
0.0661324 0.195323 0.0510575 -0.335213 -0.940925 0.0478875 1 
0.0659372 0.195409 0.0517464 -0.54186 -0.838693 -0.0546061 1 
0.06615 0.195315 0.0515572 -0.51276 -0.855537 -0.071646 1 
0.065839 0.195344 0.0516687 -0.541657 -0.836067 -0.0871796 1 
0.0660282 0.195041 0.0515568 -0.431464 -0.897612 0.0901774 1 
0.0663157 0.194804 0.0515227 -0.410088 -0.908734 -0.0776579 1 
0.0664485 0.194744 0.0521775 -0.425635 -0.867932 -0.255987 1 
0.0661939 0.19453 0.0515223 -0.40913 -0.912475 0.00129063 1 
0.0665262 0.194381 0.0521285 -0.464526 -0.87226 -0.1529 1 
0.0668348 0.194681 0.0526432 -0.17266 -0.925063 -0.338301 1 
0.0666996 0.194413 0.0527835 -0.152393 -0.948074 -0.279163 1 
0.0668858 0.19433 0.0528756 -0.245195 -0.921992 -0.299683 1 
0.0669229 0.193876 0.0528265 -0.332773 -0.914766 -0.229052 1 
0.0672182 0.194181 0.0534818 -0.337673 -0.879767 -0.334645 1 
0.0671775 0.19409 0.0534817 -0.417098 -0.895828 -0.153366 1 
0.0675462 0.194036 0.0534478 -0.340953 -0.869967 -0.356243 1 
0.0682775 0.19492 0.0490737 0.715287 -0.675463 -0.179205 1 
0.0678471 0.195109 0.0508734 -0.16521 -0.952308 -0.256546 1 
0.0678028 0.195129 0.0506551 -0.119957 -0.992171 -0.034754 1 
0.0684001 0.194646 0.0496651 0.883019 -0.463064 0.076482 1 
0.0685971 0.194886 0.0502427 -0.496858 -0.778465 -0.383568 1 
0.0688477 0.194446 0.0504266 -0.556125 -0.656933 -0.509081 1 
0.0654169 0.195315 0.0497816 -0.709495 0.318384 0.628687 1 
0.0663434 0.194903 0.0496019 -0.207811 -0.78968 0.577252 1 
0.0658548 0.195009 0.0509019 -0.39717 -0.917053 0.0356265 1 
0.0666994 0.194963 0.0501308 -0.157923 -0.987304 0.0170421 1 
0.0657646 0.194067 0.0493679 -0.0294873 -0.756841 0.652933 1 
0.0655292 0.194826 0.0503098 -0.0876181 -0.976139 0.198683 1 
0.0656754 0.194761 0.050824 -0.233463 -0.956532 0.174764 1 
0.0653062 0.194706 0.0504357 -0.100985 -0.965108 0.241597 1 
0.0661169 0.194238 0.0496787 -0.0645985 -0.773746 0.630194 1 
0.0671148 0.194561 0.049689 0.0594655 -0.976934 0.205095 1 
0.066576 0.193707 0.049033 0.275651 -0.881181 0.384105 1 
0.0674756 0.193964 0.0489656 0.709495 -0.318384 -0.628687 1 
0.0680032 0.193729 0.048883 0.709495 -0.318384 -0.628687 1 
0.0668322 0.194904 0.0507856 -0.301984 -0.953176 -0.0161555 1 
0.0663963 0.194878 0.0511007 -0.303543 -0.952753 0.0111506 1 
0.0666594 0.194981 0.0505528 -0.184394 -0.974653 0.126692 1 
0.066711 0.194738 0.0512074 -0.346321 -0.920223 -0.182348 1 
0.0669837 0.194946 0.0503006 -0.238718 -0.956205 0.16937 1 
0.0669638 0.194626 0.0505961 -0.253425 -0.960415 0.115666 1 
0.0665291 0.194818 0.0517555 -0.453389 -0.885723 -0.0996614 1 
0.0668838 0.194661 0.0514401 -0.347521 -0.921564 -0.173057 1 
0.0669014 0.194652 0.0519398 -0.399755 -0.905451 -0.142669 1 
0.0666613 0.19465 0.0519882 -0.435526 -0.881316 -0.183302 1 
0.0675022 0.194715 0.050999 -0.251383 -0.959946 -0.123738 1 
0.0677963 0.194804 0.05081 -0.276765 -0.950627 -0.140388 1 
0.0671676 0.194535 0.0511878 -0.315895 -0.925019 -0.211069 1 
0.0674616 0.194624 0.0509988 -0.251383 -0.959946 -0.123738 1 
0.0675933 0.194347 0.0508094 -0.271909 -0.9483 -0.163687 1 
0.0675799 0.194352 0.0509501 -0.314053 -0.936673 -0.154969 1 
0.0674071 0.194429 0.0507172 -0.263344 -0.958674 -0.107673 1 
0.0674823 0.194395 0.0512945 -0.328135 -0.921902 -0.205972 1 
0.06693 0.194204 0.0506102 -0.246178 -0.969099 0.0156113 1 
0.0670319 0.194158 0.050906 -0.283127 -0.948677 -0.140893 1 
0.0672586 0.194167 0.0509983 -0.277515 -0.952049 -0.128799 1 
0.0683711 0.194329 0.0507416 -0.215098 -0.946704 -0.239759 1 
0.0679959 0.194058 0.0509304 -0.297148 -0.925565 -0.23459 1 
0.0678219 0.193918 0.0498533 0.195259 -0.963189 0.184775 1 
0.0657101 0.193872 0.0490863 0.067484 -0.77104 0.633201 1 
0.0651961 0.193444 0.0491973 -0.0738301 -0.655785 0.751329 1 
0.0655307 0.193624 0.0490084 0.018145 -0.738364 0.674158 1 
0.0660382 0.193727 0.0490523 0.38392 -0.753136 0.53422 1 
0.0676453 0.194869 0.0517171 -0.301386 -0.932193 -0.200457 1 
0.0676461 0.194321 0.0523082 -0.426775 -0.884348 -0.189189 1 
0.0679401 0.19441 0.0521192 -0.451341 -0.852193 -0.264685 1 
0.0678589 0.194227 0.052119 -0.448755 -0.865993 -0.220625 1 
0.0680717 0.194133 0.0519297 -0.499307 -0.848077 -0.177366 1 
0.0683422 0.194013 0.0518181 -0.520541 -0.831357 -0.194637 1 
0.0680625 0.194792 0.0525417 -0.475809 -0.83921 -0.263312 1 
0.0679912 0.194058 0.0523517 -0.50956 -0.826687 -0.238615 1 
0.0681907 0.19397 0.0523031 -0.533772 -0.80766 -0.250546 1 
0.0669658 0.194295 0.0520315 -0.351272 -0.927083 -0.130866 1 
0.0671556 0.194101 0.0523418 -0.351144 -0.926745 -0.133572 1 
0.0673691 0.194116 0.0525747 -0.396634 -0.881576 -0.255941 1 
0.0676971 0.19397 0.0525407 -0.46053 -0.849149 -0.25857 1 
0.067759 0.193941 0.0532585 -0.475849 -0.824491 -0.306239 1 
0.0680422 0.193707 0.0525841 -0.498446 -0.828685 -0.254624 1 
0.0683356 0.193687 0.051973 -0.629323 -0.747418 -0.212882 1 
0.0683526 0.19357 0.0520504 -0.600449 -0.775516 -0.195031 1 
0.0685697 0.193473 0.0525015 -0.733011 -0.624888 -0.268718 1 
0.0687605 0.194047 0.0510033 -0.444246 -0.8067 -0.389718 1 
0.0686963 0.193747 0.0510805 -0.463477 -0.803468 -0.373669 1 
0.0687789 0.19349 0.0520941 -0.687086 -0.66134 -0.300902 1 
0.0686571 0.193216 0.0520937 -0.702704 -0.644815 -0.300699 1 
0.0683745 0.193559 0.0531903 -0.694575 -0.625935 -0.354642 1 
0.0738712 0.215851 0.0495315 0.496529 0.848423 0.183403 1 
0.0732245 0.215589 0.0514714 0.430104 0.830273 0.354481 1 
0.0730559 0.215663 0.0518788 0.443517 0.8484 0.288981 1 
0.0731572 0.215509 0.0517526 0.429269 0.834952 0.344359 1 
0.0738761 0.215957 0.050594 0.53243 0.768706 0.354414 1 
0.0741193 0.21574 0.0503415 0.484853 0.798488 0.356839 1 
0.0734056 0.216057 0.0503321 0.439904 0.837539 0.324057 1 
0.0732844 0.215892 0.0507538 0.495063 0.796267 0.347666 1 
0.0734972 0.215797 0.0505645 0.509047 0.788461 0.345253 1 
0.0732038 0.215817 0.0511757 0.430104 0.830273 0.354481 1 
0.0735015 0.215795 0.0512048 0.483297 0.805494 0.342933 1 
0.0737143 0.2157 0.0510156 0.516377 0.783413 0.34586 1 
0.0735519 0.215335 0.0510152 0.518565 0.785072 0.338753 1 
0.0738253 0.215652 0.0505305 0.512714 0.785947 0.34556 1 
0.0738829 0.215626 0.0506081 0.512714 0.785947 0.34556 1 
0.0742509 0.215463 0.050152 0.451658 0.829352 0.328908 1 
0.0745049 0.215569 0.0503851 0.464038 0.808479 0.361982 1 
0.0735829 0.21532 0.0513741 0.511421 0.787171 0.344688 1 
0.0738133 0.215218 0.0516845 0.538898 0.773761 0.332991 1 
0.0738939 0.215292 0.0512626 0.530986 0.773077 0.346997 1 
0.0739442 0.215489 0.0509039 0.522824 0.788233 0.324567 1 
0.0741709 0.215497 0.0509961 0.485736 0.804251 0.342404 1 
0.074151 0.215178 0.0512916 0.492223 0.793649 0.357543 1 
0.0744614 0.21504 0.0507579 0.429929 0.833085 0.348038 1 
0.0738885 0.215184 0.0522617 0.440233 0.848027 0.295033 1 
0.0756419 0.213419 0.0532108 -0.709495 0.318384 0.628687 1 
0.0745456 0.213687 0.0529537 -0.709495 0.318384 0.628687 1 
0.0753067 0.21313 0.0529775 -0.709495 0.318384 0.628687 1 
0.07465 0.213313 0.0526235 -0.709495 0.318384 0.628687 1 
0.0744297 0.215603 0.0498078 0.474792 0.862318 0.176013 1 
0.0745449 0.215551 0.049963 0.509755 0.832347 0.217597 1 
0.0753962 0.215174 0.0492061 0.413698 0.909065 0.0495367 1 
0.0747342 0.215249 0.0498511 0.468752 0.868871 0.159171 1 
0.0750373 0.215334 0.0488812 0.493457 0.856594 0.150819 1 
0.0751998 0.215043 0.0490506 0.488253 0.848809 0.202813 1 
0.0746536 0.215175 0.0502731 0.443174 0.869933 0.216364 1 
0.0747688 0.215123 0.0504282 0.431957 0.877273 0.209299 1 
0.0750222 0.21512 0.0502391 0.42503 0.886576 0.182573 1 
0.0752453 0.21524 0.0501132 0.437589 0.885288 0.157417 1 
0.0749816 0.215029 0.050239 0.42503 0.886576 0.182573 1 
0.0747489 0.214803 0.0507237 0.417674 0.861357 0.289159 1 
0.0753163 0.215209 0.0500501 0.415426 0.902188 0.116095 1 
0.0756607 0.214837 0.0496714 0.423793 0.894675 0.141264 1 
0.0755256 0.214569 0.0498117 0.423793 0.894675 0.141264 1 
0.0757694 0.21446 0.0499814 0.421914 0.900919 0.101649 1 
0.0755958 0.215086 0.0491575 0.422597 0.906309 0.0039009 1 
0.0764823 0.214692 0.0493998 0.51276 0.855537 0.071646 1 
0.0757983 0.214777 0.0489049 0.460937 0.860315 0.217706 1 
0.0760524 0.214883 0.049138 0.495132 0.868817 -0.00133459 1 
0.0764011 0.214509 0.0493996 0.51276 0.855537 0.071646 1 
0.0767527 0.214572 0.0492882 0.153366 0.895828 0.417098 1 
0.0754491 0.215149 0.0507049 0.357446 0.915688 0.183707 1 
0.0760238 0.215332 0.0504676 0.377639 0.921764 0.0879804 1 
0.0757238 0.215026 0.0512336 0.0183347 0.96196 0.272576 1 
0.0748204 0.214881 0.0510828 0.299616 0.901801 0.311424 1 
0.0753783 0.214523 0.050937 0.305476 0.947893 0.0904628 1 
0.0759264 0.214718 0.050981 0.399425 0.916173 0.0329559 1 
0.0760592 0.214658 0.0516358 -0.709495 0.318384 0.628687 1 
0.0766449 0.2144 0.0495693 0.347836 0.928022 0.13336 1 
0.0764121 0.214175 0.050054 0.307409 0.943704 0.122158 1 
0.0748715 0.214529 0.0513153 0.303677 0.919666 0.248986 1 
0.0761921 0.214598 0.0522906 -0.709495 0.318384 0.628687 1 
0.0769234 0.214272 0.0527998 -0.709495 0.318384 0.628687 1 
0.076199 0.21361 0.0524738 -0.709495 0.318384 0.628687 1 
0.0875809 0.20462 0.0478771 -0.72515 -0.684623 0.0738177 1 
0.0874591 0.204346 0.0478768 -0.699564 -0.713696 0.0353315 1 
0.0876707 0.204034 0.0468433 -0.50774 -0.860831 0.0342143 1 
0.087795 0.20398 0.0462175 -0.709495 0.318384 0.628687 1 
0.0878853 0.204266 0.0479204 -0.72612 -0.686332 0.0412084 1 
0.0876719 0.204252 0.0476875 -0.703366 -0.709072 0.0499347 1 
0.0880564 0.203863 0.0468868 -0.526725 -0.850035 0.00134712 1 
0.0877477 0.204326 0.0486869 -0.777485 -0.624584 -0.0735654 1 
0.0876848 0.204244 0.0496084 -0.709495 0.318384 0.628687 1 
0.0880292 0.203872 0.0492297 -0.598824 -0.800736 -0.0152126 1 
0.0881615 0.203704 0.0494624 -0.640586 -0.75894 0.116874 1 
0.0891987 0.203901 0.0486286 -0.350885 -0.934379 0.0617663 1 
0.0879364 0.203915 0.0481528 -0.556728 -0.82726 -0.0754644 1 
0.0883456 0.203952 0.0481191 -0.556804 -0.819698 -0.134401 1 
0.087757 0.203666 0.0480749 -0.708204 -0.705388 -0.0295672 1 
0.0882002 0.203469 0.0481961 -0.691807 -0.688683 -0.217068 1 
0.0891836 0.20358 0.0475028 -0.680055 -0.563093 -0.469522 1 
0.0885343 0.20354 0.047585 -0.674573 -0.705732 -0.216549 1 
0.0885785 0.203521 0.0478033 -0.660567 -0.716786 -0.223312 1 
0.0892347 0.203229 0.0477352 -0.682135 -0.348429 -0.642876 1 
0.0881602 0.203486 0.0486181 -0.71924 -0.693705 -0.0383027 1 
0.0886611 0.203264 0.0488168 -0.777179 -0.554674 -0.297203 1 
0.0891036 0.203615 0.0483468 -0.603585 -0.760361 -0.239866 1 
0.0891268 0.203058 0.0480163 -0.706599 -0.393653 -0.588009 1 
0.0890647 0.203743 0.0471295 -0.494282 -0.854296 -0.160826 1 
0.0894305 0.203252 0.0474685 -0.711827 -0.401332 -0.576398 1 
0.0892334 0.203012 0.0468909 -0.701367 -0.616353 -0.358041 1 
0.0898143 0.202755 0.0462456 -0.75626 0.612805 -0.229217 1 
0.08969 0.202809 0.0468714 -0.959486 -0.00853418 -0.281628 1 
0.0899131 0.202929 0.0467455 -0.935966 -0.308302 -0.17005 1 
0.0893663 0.202952 0.0475457 -0.756584 -0.366089 -0.541812 1 
0.0901677 0.203143 0.0474006 -0.665283 -0.712244 -0.223848 1 
0.0903539 0.203061 0.0474928 -0.73934 -0.650924 -0.172259 1 
0.090046 0.202869 0.0474003 -0.970155 -0.0863751 -0.226578 1 
0.0903504 0.202515 0.0474436 -0.982287 -0.0412726 -0.182779 1 
0.0902369 0.202786 0.0460711 -0.910342 -0.345901 0.227224 1 
0.0904497 0.202692 0.0458819 -0.709495 0.318384 0.628687 1 
0.0902745 0.203204 0.0487589 -0.636072 0.0526502 -0.769832 1 
0.0895773 0.202532 0.0460901 -0.831207 0.483188 -0.274998 1 
0.0889585 0.201712 0.0462781 -0.709495 0.318384 0.628687 1 
0.0897325 0.202463 0.0458232 -0.805895 0.21644 -0.551078 1 
0.0889098 0.202498 0.0477343 -0.765397 -0.399834 -0.504281 1 
0.0882925 0.203318 0.0488507 -0.772377 -0.63298 -0.0526298 1 
0.0885388 0.202881 0.0483943 -0.764409 -0.482871 -0.427218 1 
0.0890626 0.202758 0.0480935 -0.756764 -0.49083 -0.431733 1 
0.0887716 0.20245 0.0480786 -0.775911 -0.510255 -0.370947 1 
0.0889408 0.202484 0.0480932 -0.741758 -0.484042 -0.464218 1 
0.089193 0.202264 0.0470598 -0.969534 -0.113091 -0.217287 1 
0.0893082 0.202212 0.047215 -0.952075 0.0418355 -0.302991 1 
0.0893566 0.202846 0.0479046 -0.685508 -0.458673 -0.565419 1 
0.0897423 0.202675 0.0479481 -0.704682 -0.10489 -0.701727 1 
0.0894076 0.202495 0.048137 -0.603826 -0.271009 -0.749632 1 
0.0898333 0.202307 0.0477585 -0.843428 0.283206 -0.456534 1 
0.088859 0.202192 0.0476708 -0.809084 -0.437386 -0.392526 1 
0.0896121 0.20175 0.0468362 -0.96306 0.225453 -0.147261 1 
0.0889912 0.202024 0.0479035 -0.848231 -0.432644 -0.305487 1 
0.0899268 0.20161 0.0469428 -0.86107 0.504957 0.0598158 1 
0.0900179 0.201241 0.0467532 -0.709495 0.318384 0.628687 1 
0.0897933 0.202324 0.0481805 -0.448641 0.565387 -0.692141 1 
0.0894587 0.202144 0.0483694 -0.0798977 0.72489 -0.684215 1 
0.0896715 0.20205 0.0481802 -0.360364 0.582126 -0.728881 1 
0.0900263 0.201893 0.0478648 -0.575202 0.451825 -0.681906 1 
0.0712498 0.202455 0.0551612 -0.243432 -0.967485 0.0686602 1 
0.0716244 0.202618 0.0545503 -0.272554 -0.943667 0.187638 1 
0.07175 0.202124 0.0549378 -0.359046 -0.929218 0.0874083 1 
0.0705101 0.202129 0.0535405 -0.709495 0.318384 0.628687 1 
0.0710351 0.202224 0.0540841 -0.709495 0.318384 0.628687 1 
0.0718707 0.202181 0.0540939 -0.709495 0.318384 0.628687 1 
0.0727232 0.202021 0.0541812 -0.439318 -0.898308 -0.00655699 1 
0.0732399 0.201464 0.0536132 -0.157006 -0.88874 0.430686 1 
0.0730034 0.20135 0.0538798 -0.504629 -0.854543 0.122904 1 
0.0733984 0.200518 0.0533113 -0.709915 -0.527033 0.46718 1 
0.0732079 0.200604 0.0525789 -0.709495 0.318384 0.628687 1 
0.0732655 0.200578 0.0526565 -0.709495 0.318384 0.628687 1 
0.0761776 0.199835 0.0501194 0.709495 -0.318384 -0.628687 1 
0.0775737 0.200529 0.0494415 0.227087 -0.263309 0.937603 1 
0.0775368 0.200326 0.0496595 0.227087 -0.263309 0.937603 1 
0.0770804 0.199872 0.0498481 0.157588 -0.969873 -0.185775 1 
0.0770597 0.2001 0.0495524 0.402098 -0.872476 0.277675 1 
0.0772732 0.200115 0.0497853 0.100188 -0.956342 -0.274542 1 
0.0776248 0.200177 0.0496739 0.227087 -0.263309 0.937603 1 
0.0768774 0.199415 0.0498475 0.42753 -0.831397 0.354961 1 
0.072517 0.202547 0.0566994 -0.207689 -0.915263 0.345193 1 
0.0731524 0.202484 0.0563356 0.133641 -0.541905 -0.829746 1 
0.0733653 0.20239 0.0561464 -0.248563 -0.789461 0.561221 1 
0.0716596 0.202601 0.0555496 -0.449533 -0.880276 0.151772 1 
0.0718724 0.202507 0.0553603 -0.36621 -0.926927 0.0818272 1 
0.0718324 0.202524 0.0557823 -0.319519 -0.933658 0.161834 1 
0.0722181 0.202353 0.0558259 -0.245906 -0.958637 0.143335 1 
0.0720319 0.202435 0.0557338 -0.245906 -0.958637 0.143335 1 
0.0715378 0.202327 0.0555492 -0.463515 -0.884644 0.0505901 1 
0.0718835 0.202173 0.0560148 -0.310527 -0.917137 0.249866 1 
0.0721429 0.202387 0.0552487 -0.336716 -0.939945 0.0559027 1 
0.0721375 0.202278 0.0562478 -0.173708 -0.976016 0.131219 1 
0.0723503 0.202184 0.0560586 -0.240794 -0.939515 0.243578 1 
0.072679 0.202147 0.0564467 -0.136029 -0.990424 0.0236083 1 
0.0720424 0.201993 0.0559661 -0.240794 -0.939515 0.243578 1 
0.0725328 0.202213 0.0559325 -0.368032 -0.852531 0.371138 1 
0.0728918 0.202053 0.0562574 -0.346105 -0.852071 0.392666 1 
0.0730706 0.202193 0.0559132 -0.343582 -0.861266 0.374396 1 
0.0726238 0.201844 0.0557429 -0.363273 -0.857943 0.363273 1 
0.0730379 0.201881 0.0542878 -0.478762 -0.87612 -0.0565684 1 
0.0727039 0.20181 0.0548989 -0.475402 -0.877771 0.059253 1 
0.0735345 0.201661 0.0538463 -0.19834 -0.9801 0.00811917 1 
0.0737073 0.201584 0.0540791 -0.246414 -0.966895 -0.0662942 1 
