0.071 0.2025 0.0617 0.101171 -0.244604 0.96433 1 
0.0706 0.2031 0.0617 0.112961 -0.299013 0.94754 1 
0.0713 0.2028 0.0618 0.0670801 -0.269586 0.960637 1 
0.0719 0.2025 0.0617 -0.080567 -0.334155 0.939068 1 
0.0719 0.2026 0.0618 -0.0575095 -0.300327 0.952101 1 
0.0718 0.2031 0.0618 -0.152872 -0.470263 0.869185 1 
0.0727 0.2019 0.0612 0.186347 -0.351356 0.917509 1 
0.0727 0.202 0.0615 0.158224 -0.351453 0.922738 1 
0.0722 0.2029 0.0617 -0.0880807 -0.457181 0.885001 1 
0.0722 0.2029 0.062 -0.106364 -0.472256 0.875021 1 
0.0712 0.2035 0.0618 -0.0718185 -0.513995 0.854781 1 
0.0704 0.1981 0.0392 -0.0321475 0.208364 -0.977523 1 
0.0688 0.1993 0.0397 -0.178701 0.306146 -0.935062 1 
0.0684 0.1995 0.0397 -0.136421 0.26357 -0.954945 1 
0.0686 0.1995 0.0398 -0.1754 0.2997 -0.937771 1 
0.0697 0.1989 0.0391 -0.0882381 0.384175 -0.919034 1 
0.0701 0.1989 0.0392 -0.130533 0.350377 -0.927468 1 
0.0695 0.1984 0.0392 -0.156138 0.29191 -0.943615 1 
0.0692 0.1987 0.0394 -0.115989 0.350697 -0.929278 1 
0.0695 0.1987 0.0394 -0.107317 0.35727 -0.927815 1 
0.0689 0.199 0.0395 -0.178701 0.306146 -0.935062 1 
0.0691 0.1992 0.0394 -0.127217 0.340613 -0.931557 1 
0.0694 0.1992 0.0394 -0.0960313 0.363837 -0.926499 1 
0.0694 0.1992 0.0398 -0.0929744 0.359771 -0.928397 1 
0.0698 0.1989 0.0394 -0.0990559 0.3623 -0.926783 1 
0.0698 0.199 0.0394 -0.0990559 0.3623 -0.926783 1 
0.0704 0.1989 0.0394 -0.148455 0.30372 -0.941124 1 
0.0704 0.1992 0.0392 -0.153943 0.339784 -0.927819 1 
0.0692 0.1995 0.0398 -0.101842 0.359841 -0.927439 1 
0.0692 0.1999 0.0398 -0.0707321 0.367006 -0.927525 1 
0.0695 0.1996 0.0397 -0.0850808 0.376787 -0.922384 1 
0.0697 0.1993 0.0395 -0.0812042 0.35011 -0.933182 1 
0.0698 0.1995 0.0394 -0.127011 0.33733 -0.932779 1 
0.0697 0.1998 0.0397 -0.124882 0.355433 -0.926322 1 
0.0703 0.1996 0.0397 -0.175255 0.302211 -0.936992 1 
0.0689 0.2004 0.0398 -0.139019 0.263474 -0.954597 1 
0.0701 0.2026 0.0407 -0.999999 -0.000977516 -0.000977516 1 
0.0694 0.2017 0.0409 -0.999999 -0.000977516 -0.000977516 1 
0.0701 0.2023 0.0411 -0.999999 -0.000977516 -0.000977516 1 
0.0698 0.2016 0.0412 -0.999999 -0.000977516 -0.000977516 1 
0.0707 0.1987 0.0392 -0.0463686 0.189041 -0.980874 1 
0.0707 0.1989 0.0392 -0.0380235 0.248992 -0.967759 1 
0.0719 0.1989 0.0392 -0.0217819 0.0425267 -0.998858 1 
0.071 0.199 0.0394 -0.0408833 0.169374 -0.984704 1 
0.0718 0.1984 0.0392 -0.0126763 0.18323 -0.982988 1 
0.0719 0.1987 0.0394 -0.0474127 0.222475 -0.973785 1 
0.0707 0.1993 0.0395 -0.0927364 0.199074 -0.975587 1 
0.0707 0.1995 0.0395 -0.102526 0.186523 -0.977086 1 
0.071 0.1995 0.0394 -0.0926582 0.157639 -0.98314 1 
0.0712 0.1995 0.0392 -0.0692258 0.146665 -0.986761 1 
0.071 0.1995 0.0395 -0.0926582 0.157639 -0.98314 1 
0.0706 0.1998 0.0398 -0.154983 0.242409 -0.957715 1 
0.0713 0.1995 0.0392 -0.0620073 0.0980843 -0.993244 1 
0.0719 0.1995 0.0394 -0.0681555 0.123604 -0.989988 1 
0.0718 0.1996 0.0397 -0.0681555 0.123604 -0.989988 1 
0.0719 0.1999 0.0397 -0.0476794 0.0920323 -0.994614 1 
0.0721 0.199 0.0392 0.0130365 0.0150422 -0.999802 1 
0.0727 0.1998 0.0392 0.0490101 0.128794 -0.99046 1 
0.0725 0.199 0.0394 -0.0830622 0.214474 -0.973191 1 
0.0725 0.1993 0.0392 0.0807956 0.0586598 -0.995003 1 
0.0727 0.1998 0.0394 0.0490101 0.128794 -0.99046 1 
0.073 0.1999 0.0392 -0.435526 0.183302 -0.881316 1 
0.071 0.2001 0.0392 -0.15245 0.113423 -0.981781 1 
0.0715 0.2002 0.0388 -0.0755978 0.0493029 -0.995919 1 
0.0709 0.2007 0.0392 -0.458289 -0.0282231 -0.888355 1 
0.0704 0.2001 0.0397 -0.264988 0.180735 -0.947162 1 
0.071 0.2004 0.0398 -0.140491 0.00331869 -0.990076 1 
0.0713 0.2007 0.0394 -0.0255221 0.0214385 -0.999444 1 
0.071 0.2013 0.0394 -0.999999 -0.000977516 -0.000977516 1 
0.0728 0.2001 0.0394 -0.128464 0.0659678 -0.989518 1 
0.0724 0.2004 0.0397 -0.157421 0.0310247 -0.987044 1 
0.0704 0.2004 0.04 -0.232195 0.131015 -0.963805 1 
0.0707 0.2019 0.0394 -0.999999 -0.000977516 -0.000977516 1 
0.071 0.2028 0.0394 -0.999999 -0.000977516 -0.000977516 1 
0.0709 0.2023 0.0403 -0.999999 -0.000977516 -0.000977516 1 
0.0847 0.2076 0.0439 -0.347224 -0.182824 0.919789 1 
0.0847 0.2076 0.0442 -0.296056 -0.193201 0.935427 1 
0.0856 0.207 0.0444 -0.113521 -0.0460828 0.992466 1 
0.0861 0.2066 0.0444 -0.999999 -0.000977516 -0.000977516 1 
0.085 0.2079 0.0441 -0.326063 -0.212155 0.921235 1 
0.085 0.2076 0.0442 -0.307585 -0.182324 0.933889 1 
0.0859 0.2073 0.0444 -0.107254 -0.0841889 0.990661 1 
0.0844 0.2084 0.0441 -0.307742 -0.34377 0.887196 1 
0.0838 0.2091 0.0442 -0.999999 -0.000977516 -0.000977516 1 
0.0844 0.2091 0.0444 -0.162341 -0.149756 0.975304 1 
0.0844 0.2094 0.0445 -0.289299 -0.0843247 0.953518 1 
0.0856 0.2093 0.0439 0.00531628 0.0861237 0.99627 1 
0.085 0.2082 0.0444 -0.0879887 -0.165129 0.982339 1 
0.0853 0.2084 0.0442 -0.0546444 -0.214935 0.975099 1 
0.085 0.2081 0.0447 -0.263611 -0.249514 0.9318 1 
0.0853 0.2085 0.0447 -0.136183 -0.388893 0.911162 1 
0.0864 0.2085 0.0442 -0.00964327 -0.610281 0.792126 1 
0.0859 0.2082 0.0445 -0.120274 -0.374646 0.919334 1 
0.0858 0.2084 0.0445 -0.102052 -0.368748 0.92391 1 
0.0864 0.2088 0.0445 0.032097 -0.802426 0.595888 1 
0.085 0.2088 0.0447 -0.270193 -0.267334 0.924948 1 
0.0853 0.2093 0.0447 -0.189034 -0.533833 0.82419 1 
0.0858 0.2091 0.0442 -0.0398719 -0.338268 0.940205 1 
0.0862 0.209 0.0447 -0.00690996 -0.761478 0.648154 1 
0.0865 0.2081 0.0441 0.0197955 -0.189804 0.981622 1 
0.0867 0.2087 0.0444 -0.0153012 -0.755325 0.655172 1 
0.087 0.2082 0.0447 -0.0779388 -0.522898 0.848824 1 
0.0879 0.2081 0.0447 -0.585296 -0.770457 -0.252635 1 
0.0874 0.2085 0.0447 -0.499979 -0.770327 0.395749 1 
0.0876 0.2085 0.0445 -0.457177 -0.594498 0.661484 1 
0.0867 0.2088 0.0447 -0.0826936 -0.761651 0.642689 1 
0.0873 0.2091 0.0442 -0.105431 -0.373802 0.921497 1 
0.0874 0.2093 0.0442 -0.212493 -0.391281 0.895403 1 
0.0873 0.2091 0.0445 -0.516909 -0.713035 0.473695 1 
0.0876 0.2094 0.0447 -0.567537 -0.697355 0.437719 1 
0.0883 0.2082 0.0445 -0.681407 -0.258903 0.684583 1 
0.0886 0.2082 0.0445 -0.999999 -0.000977516 -0.000977516 1 
0.0865 0.2102 0.0441 0.0176837 -0.97732 0.211026 1 
0.0879 0.2079 0.045 -0.568735 -0.816011 -0.103274 1 
0.0876 0.2079 0.046 -0.999999 -0.000977516 -0.000977516 1 
0.0882 0.2078 0.045 -0.29338 -0.947123 0.129945 1 
0.0864 0.2088 0.0453 -0.0983574 -0.729606 0.676757 1 
0.085 0.2091 0.0448 -0.31877 -0.324756 0.89046 1 
0.0856 0.209 0.0451 -0.120406 -0.6496 0.750681 1 
0.0862 0.2091 0.045 -0.110646 -0.647645 0.753865 1 
0.0861 0.209 0.0454 -0.154778 -0.602581 0.782905 1 
0.0862 0.2091 0.0453 -0.0797988 -0.663055 0.744305 1 
0.0871 0.2085 0.0454 -0.51308 -0.700263 0.496368 1 
0.0871 0.2087 0.0454 -0.498744 -0.793821 0.347998 1 
0.0865 0.2091 0.0448 0.0181975 -0.718099 0.695703 1 
0.0868 0.2094 0.0448 -0.0246752 -0.923371 0.383115 1 
0.0865 0.2094 0.0451 0.132198 -0.858559 0.495378 1 
0.0871 0.2094 0.0451 -0.399786 -0.912822 0.0832319 1 
0.0865 0.2088 0.0456 -0.1891 -0.65647 0.730266 1 
0.0877 0.2087 0.0457 -0.661801 -0.726292 0.185796 1 
0.0865 0.2091 0.0457 -0.275479 -0.613061 0.740451 1 
0.0879 0.209 0.0457 -0.807544 -0.578911 -0.112851 1 
0.0882 0.209 0.046 -0.999999 -0.000977516 -0.000977516 1 
0.0868 0.2097 0.0451 -0.0585452 -0.940626 -0.334358 1 
0.0865 0.2097 0.0454 0.148841 -0.762246 -0.629943 1 
0.0868 0.2097 0.0454 0.02211 -0.922118 -0.386275 1 
0.0873 0.2097 0.0454 -0.118225 -0.97691 -0.177959 1 
0.0692 0.2044 0.0525 0.0902369 0.16002 0.982981 1 
0.0698 0.2041 0.0522 -0.0154753 0.232129 0.972562 1 
0.0698 0.2046 0.0526 -0.0163072 0.101105 0.994742 1 
0.0698 0.2028 0.0531 -0.999999 -0.000977516 -0.000977516 1 
0.0698 0.2035 0.0528 -0.999999 -0.000977516 -0.000977516 1 
0.0704 0.204 0.0525 -0.999999 -0.000977516 -0.000977516 1 
0.071 0.2046 0.0523 -0.0257267 -0.0298429 0.999223 1 
0.0719 0.2046 0.0526 -0.103558 0.472396 0.875281 1 
0.0716 0.2047 0.0528 -0.166775 0.0241537 0.985699 1 
0.0725 0.2047 0.0534 -0.634058 0.0889138 0.768157 1 
0.0728 0.204 0.0534 -0.999999 -0.000977516 -0.000977516 1 
0.0728 0.2041 0.0534 -0.999999 -0.000977516 -0.000977516 1 
0.0767 0.204 0.0529 0.999999 0.000977516 0.000977516 1 
0.0779 0.2041 0.0517 -0.350874 0.925031 0.14562 1 
0.0778 0.2043 0.0519 -0.350874 0.925031 0.14562 1 
0.0775 0.2043 0.0525 0.532374 0.195659 0.823587 1 
0.0776 0.204 0.0523 0.384808 0.672175 0.632538 1 
0.0776 0.2043 0.0522 0.546133 0.0903054 0.832817 1 
0.0779 0.2044 0.052 -0.350874 0.925031 0.14562 1 
0.0775 0.2043 0.053 0.342264 0.734814 0.58558 1 
0.0691 0.2063 0.0519 -0.0769824 0.384912 0.919737 1 
0.0698 0.2064 0.0517 0.789119 -0.426156 0.44236 1 
0.0701 0.2064 0.0517 -0.285936 0.495311 0.82031 1 
0.0692 0.2049 0.0522 -0.135928 0.0862846 0.986954 1 
0.0695 0.2049 0.0522 -0.0205824 0.0920792 0.995539 1 
0.0692 0.2052 0.0522 -0.03631 0.18155 0.982711 1 
0.0695 0.2055 0.0522 0.0372807 0.217671 0.97531 1 
0.0694 0.2053 0.0522 0.0372807 0.217671 0.97531 1 
0.0692 0.2049 0.0525 -0.0833072 0.00105452 0.996523 1 
0.0692 0.2055 0.0525 -0.08787 0.250875 0.964023 1 
0.0698 0.205 0.0522 0.020498 0.089544 0.995772 1 
0.0692 0.2058 0.0523 0.101478 0.253053 0.962116 1 
0.0695 0.2058 0.0523 -0.0286805 0.290546 0.956431 1 
0.0695 0.2063 0.0522 0.196952 0.194308 0.960965 1 
0.0694 0.2056 0.0526 -0.0286805 0.290546 0.956431 1 
0.0697 0.2058 0.0522 -0.228002 0.295977 0.927584 1 
0.0698 0.2063 0.0522 -0.225171 0.322697 0.919328 1 
0.0701 0.2061 0.052 -0.211257 0.313341 0.925844 1 
0.07 0.2058 0.0525 -0.215512 0.294392 0.931068 1 
0.0712 0.2049 0.0523 -0.0317486 -0.0930563 0.995155 1 
0.0706 0.2052 0.0525 -0.0996093 -0.0032132 0.995021 1 
0.0719 0.2049 0.0523 0.161666 0.144121 0.976265 1 
0.0719 0.2052 0.0523 0.171625 0.0556303 0.98359 1 
0.0718 0.205 0.0525 0.17304 0.083495 0.981369 1 
0.0715 0.2052 0.0528 -0.109879 -0.0344065 0.993349 1 
0.0716 0.2053 0.0525 0.106145 0.04581 0.993295 1 
0.071 0.2059 0.0526 -0.157575 -0.0147373 0.987397 1 
0.071 0.2063 0.0526 -0.175069 0.0631202 0.982531 1 
0.0715 0.2058 0.0523 0.244832 -0.0900677 0.965373 1 
0.0713 0.2059 0.0525 0.0809739 -0.0587893 0.994981 1 
0.0715 0.2061 0.0525 0.248319 -0.123509 0.960772 1 
0.0719 0.2064 0.0526 0.284458 -0.132213 0.949528 1 
0.0731 0.205 0.0519 0.0287181 0.159672 0.986752 1 
0.0724 0.2058 0.0516 0.327139 -0.0748874 0.942004 1 
0.0725 0.2061 0.0519 0.254451 -0.189138 0.94841 1 
0.0722 0.2049 0.0522 0.0759672 0.289705 0.954096 1 
0.0722 0.2055 0.0525 0.108856 0.0994919 0.989066 1 
0.0724 0.2058 0.0522 0.34124 -0.132933 0.930529 1 
0.0725 0.2058 0.0525 0.167069 0.0455644 0.984892 1 
0.0725 0.2058 0.0528 0.167069 0.0455644 0.984892 1 
0.0724 0.2061 0.0525 0.147931 -0.0792912 0.985814 1 
0.0707 0.2073 0.0519 -0.999999 -0.000977516 -0.000977516 1 
0.0712 0.2076 0.0519 -0.0505631 0.245416 0.968098 1 
0.071 0.2072 0.0528 -0.145055 0.338461 0.929733 1 
0.0719 0.2064 0.052 0.159268 -0.0648869 0.985101 1 
0.0713 0.2067 0.0526 -0.121756 0.156191 0.980194 1 
0.0721 0.2067 0.0522 0.115233 -0.0164619 0.993202 1 
0.0725 0.2064 0.0522 0.147572 -0.198902 0.968845 1 
0.0722 0.2069 0.0522 0.108488 -0.0186292 0.993923 1 
0.0722 0.2064 0.0525 0.259794 -0.183624 0.948045 1 
0.0724 0.207 0.0525 0.205948 -0.00581775 0.978546 1 
0.0722 0.2069 0.0525 0.108488 -0.0186292 0.993923 1 
0.0722 0.207 0.0526 0.0578326 0.0643797 0.996248 1 
0.0725 0.2072 0.0525 0.137503 0.0375007 0.989791 1 
0.0728 0.2069 0.0523 -0.0724012 -0.207387 0.975576 1 
0.0734 0.207 0.0525 -0.107552 -0.420432 0.900927 1 
0.0721 0.2079 0.0522 -0.0970241 0.320313 0.94233 1 
0.0716 0.2061 0.0529 0.161731 -0.0802666 0.983565 1 
0.073 0.2052 0.0534 -0.999999 -0.000977516 -0.000977516 1 
0.0718 0.2066 0.0528 0.201714 -0.0721281 0.976785 1 
0.0722 0.2064 0.0528 0.240219 -0.163243 0.956894 1 
0.0722 0.2069 0.0528 0.146109 -0.0448682 0.98825 1 
0.0725 0.207 0.0528 0.179385 0.00571291 0.983762 1 
0.0743 0.205 0.0525 0.999999 0.000977516 0.000977516 1 
0.0751 0.205 0.0522 0.999999 0.000977516 0.000977516 1 
0.0751 0.2055 0.0525 0.451687 -0.448426 0.771293 1 
0.074 0.2056 0.0522 -0.216282 -0.301099 0.928742 1 
0.0742 0.2059 0.0523 -0.245632 -0.30309 0.920761 1 
0.0737 0.2061 0.0522 -0.137892 -0.185964 0.972833 1 
0.0742 0.2063 0.0526 -0.335127 -0.259028 0.905867 1 
0.0749 0.2061 0.0528 -0.0657075 -0.0812991 0.994521 1 
0.0751 0.2061 0.0526 0.161905 -0.408343 0.898355 1 
0.0763 0.2064 0.0519 -0.0263247 -0.569445 0.821608 1 
0.0758 0.2061 0.052 0.396018 -0.408741 0.822253 1 
0.0757 0.2064 0.0525 0.452389 -0.669402 0.589274 1 
0.0739 0.2064 0.0525 -0.223419 -0.311648 0.923558 1 
0.0757 0.2067 0.0528 0.452389 -0.669402 0.589274 1 
0.076 0.2067 0.0526 0.133914 -0.926355 0.352042 1 
0.076 0.2072 0.0522 0.0919056 -0.760045 0.643339 1 
0.0764 0.2072 0.0526 -0.233828 -0.701483 0.673235 1 
0.0767 0.207 0.0528 -0.339784 -0.768138 0.542689 1 
0.0751 0.2063 0.0534 0.00121952 0.289025 0.957321 1 
0.0746 0.205 0.0536 0.999999 0.000977516 0.000977516 1 
0.074 0.2067 0.0528 -0.338239 -0.381484 0.86027 1 
0.0752 0.2069 0.0528 0.169815 -0.273063 0.946889 1 
0.076 0.207 0.0529 0.133914 -0.926355 0.352042 1 
0.0767 0.2069 0.053 -0.339784 -0.768138 0.542689 1 
0.0712 0.2082 0.0516 -0.999999 -0.000977516 -0.000977516 1 
0.0713 0.2085 0.0522 -0.999999 -0.000977516 -0.000977516 1 
0.0727 0.2085 0.0522 -0.999999 -0.000977516 -0.000977516 1 
0.0772 0.2064 0.0525 -0.999999 -0.000977516 -0.000977516 1 
0.0769 0.2067 0.0526 -0.32805 -0.593076 0.735285 1 
0.0769 0.2049 0.053 0.999999 0.000977516 0.000977516 1 
0.0772 0.2063 0.0532 -0.999999 -0.000977516 -0.000977516 1 
0.0772 0.2064 0.0528 -0.999999 -0.000977516 -0.000977516 1 
0.0757 0.2031 0.0572 0.201933 -0.0128397 0.979315 1 
0.0742 0.2032 0.0576 0.561447 -0.224269 0.796543 1 
0.0751 0.2037 0.057 0.38745 -0.0883659 0.917646 1 
0.0746 0.204 0.0572 0.50605 -0.0512982 0.860978 1 
0.0748 0.2038 0.0575 0.479849 -0.147309 0.864896 1 
0.0751 0.2038 0.0576 0.471762 -0.121884 0.873261 1 
0.0751 0.2041 0.0572 0.444234 -0.0362366 0.895178 1 
0.0751 0.2043 0.0575 0.484905 -0.134615 0.864145 1 
0.0751 0.2046 0.0575 0.446042 -0.184011 0.875892 1 
0.0755 0.2034 0.057 0.260628 -0.053622 0.963949 1 
0.0757 0.2037 0.057 0.281971 -0.0209324 0.959194 1 
0.0752 0.2034 0.0575 0.358973 -0.110558 0.926777 1 
0.0763 0.2032 0.057 0.0729687 0.0137477 0.997239 1 
0.0754 0.2043 0.057 0.354587 -0.131073 0.92579 1 
0.0755 0.2043 0.0572 0.367006 -0.0707321 0.927525 1 
0.0754 0.2043 0.0572 0.378117 -0.0681412 0.923247 1 
0.0752 0.2046 0.0573 0.454993 -0.204374 0.866725 1 
0.0728 0.2037 0.0582 0.999999 0.000977516 0.000977516 1 
0.0731 0.2038 0.0584 0.345286 -0.885078 0.312114 1 
0.076 0.2031 0.0576 0.221128 -0.0549765 0.973694 1 
0.0739 0.2038 0.0576 0.482906 -0.0797845 0.87203 1 
0.0737 0.2037 0.0579 0.468265 -0.276632 0.839168 1 
0.0737 0.2038 0.0578 0.442477 0.00393897 0.896771 1 
0.0743 0.2038 0.0578 0.539717 -0.143432 0.829538 1 
0.0742 0.204 0.0579 0.504328 -0.0231094 0.863203 1 
0.0737 0.2034 0.0582 0.397057 -0.451713 0.798937 1 
0.0737 0.204 0.0581 0.605456 -0.0124125 0.795782 1 
0.0737 0.204 0.0584 0.607985 -0.067236 0.791096 1 
0.0749 0.2034 0.0576 0.451629 -0.155384 0.878571 1 
0.0743 0.2041 0.0576 0.504045 -0.0175673 0.863499 1 
0.0743 0.2041 0.0578 0.481981 -0.0508072 0.874707 1 
0.074 0.2041 0.0582 0.507269 -0.0744744 0.858564 1 
0.0743 0.2044 0.0582 0.535711 -0.0604609 0.842234 1 
0.0745 0.2043 0.0576 0.511013 -0.0315102 0.858995 1 
0.0746 0.2043 0.0579 0.505039 -0.057043 0.86121 1 
0.0749 0.2043 0.0576 0.506949 -0.126374 0.852662 1 
0.0745 0.2046 0.0578 0.503831 -0.0569065 0.861926 1 
0.0745 0.204 0.0582 0.572765 -0.0639564 0.817221 1 
0.0739 0.2038 0.0587 0.502416 -0.769071 0.395104 1 
0.0742 0.204 0.0584 0.53823 -0.152721 0.828845 1 
0.0743 0.2043 0.0584 0.544364 -0.037399 0.838015 1 
0.074 0.2044 0.0593 -0.0205206 0.24504 0.969296 1 
0.0775 0.2047 0.0584 -0.999999 -0.000977516 -0.000977516 1 
0.0778 0.2046 0.059 -0.999999 -0.000977516 -0.000977516 1 
0.0787 0.2043 0.0582 -0.999999 -0.000977516 -0.000977516 1 
0.079 0.2047 0.0588 -0.999999 -0.000977516 -0.000977516 1 
0.0751 0.2052 0.057 0.289725 -0.17713 0.940577 1 
0.0748 0.2049 0.0576 0.389712 -0.12711 0.912122 1 
0.0749 0.2049 0.0575 0.409342 -0.106845 0.906103 1 
0.0749 0.2063 0.0575 0.172716 -0.16504 0.971046 1 
0.0754 0.2049 0.0572 0.315763 -0.300938 0.89985 1 
0.0754 0.205 0.0576 0.0977313 -0.194226 0.976076 1 
0.0752 0.2053 0.0573 0.217439 -0.172634 0.960686 1 
0.076 0.2058 0.0572 -0.221986 0.17945 0.958395 1 
0.0763 0.2059 0.0573 -0.488853 0.596368 0.636685 1 
0.0766 0.2059 0.0573 -0.399188 0.470298 0.787063 1 
0.0748 0.2066 0.0576 0.0802955 -0.208768 0.974663 1 
0.0763 0.2067 0.0576 -0.999999 -0.000977516 -0.000977516 1 
0.0728 0.2064 0.0582 0.488243 -0.397407 0.776972 1 
0.0736 0.2058 0.0579 0.348959 -0.121794 0.92919 1 
0.0731 0.2064 0.0578 0.460339 -0.211426 0.862199 1 
0.0734 0.2061 0.0578 0.356657 -0.152453 0.921713 1 
0.0731 0.2056 0.0584 0.744272 0.292907 0.60022 1 
0.073 0.2061 0.0581 0.624266 0.0438826 0.779978 1 
0.073 0.2064 0.0588 0.145872 -0.648154 0.747407 1 
0.073 0.2064 0.0581 0.29519 -0.327824 0.897438 1 
0.073 0.2064 0.0584 0.29941 -0.353575 0.886193 1 
0.0731 0.2066 0.0582 0.495306 -0.336044 0.80109 1 
0.0736 0.2066 0.0582 0.313439 -0.167076 0.934795 1 
0.0731 0.2069 0.0584 0.42078 -0.342568 0.839995 1 
0.0727 0.2064 0.0584 0.284213 -0.566839 0.773251 1 
0.0728 0.2066 0.0585 0.375808 -0.535241 0.756496 1 
0.073 0.2067 0.0584 0.495306 -0.336044 0.80109 1 
0.073 0.2067 0.0588 0.428178 -0.533982 0.729059 1 
0.0737 0.2052 0.0576 0.265932 0.0912133 0.959667 1 
0.0743 0.2052 0.0576 0.400882 0.100565 0.910594 1 
0.074 0.205 0.0578 0.357229 0.0619549 0.93196 1 
0.074 0.2055 0.0578 0.296297 0.0628509 0.953026 1 
0.0742 0.2052 0.0578 0.392592 0.0916503 0.915135 1 
0.0739 0.2052 0.0581 0.37676 0.156631 0.912973 1 
0.0737 0.2052 0.0582 0.587102 0.295951 0.753475 1 
0.0749 0.2049 0.0576 0.407028 -0.106966 0.907131 1 
0.0751 0.2049 0.0578 0.321838 -0.146539 0.935386 1 
0.0746 0.2053 0.0579 0.267842 0.0698166 0.96093 1 
0.0751 0.2053 0.0578 0.19708 -0.0979204 0.975485 1 
0.0751 0.2055 0.0576 0.204819 -0.125945 0.970663 1 
0.074 0.2061 0.0578 0.239219 -0.172398 0.955538 1 
0.0737 0.2061 0.0579 0.333684 -0.181625 0.925023 1 
0.0761 0.2052 0.0579 0.205183 -0.82833 0.521316 1 
0.0766 0.2052 0.0581 0.216602 -0.69032 -0.69032 1 
0.0767 0.2053 0.0584 -0.390181 -0.832492 -0.39334 1 
0.0752 0.2056 0.0579 0.081898 -0.107275 0.990851 1 
0.0758 0.2053 0.0584 -0.149714 -0.724373 0.672956 1 
0.0763 0.2053 0.0584 0.102695 -0.884864 -0.45439 1 
0.0739 0.207 0.0578 0.278846 -0.38737 0.878743 1 
0.0742 0.2072 0.0578 0.194814 -0.420388 0.886184 1 
0.0742 0.2072 0.0582 0.240476 -0.443141 0.863596 1 
0.0748 0.2066 0.0579 0.1598 -0.20657 0.965294 1 
0.0751 0.2066 0.0578 0.187222 -0.241098 0.952271 1 
0.0745 0.207 0.0576 0.180011 -0.390263 0.902934 1 
0.0745 0.207 0.0579 0.180011 -0.390263 0.902934 1 
0.0745 0.207 0.0584 0.213673 -0.373564 0.902659 1 
0.0749 0.2069 0.0582 0.182483 -0.313424 0.931915 1 
0.074 0.2076 0.0579 0.262905 -0.136076 0.955177 1 
0.0739 0.2075 0.0584 0.228828 -0.0106707 0.973408 1 
0.0737 0.2079 0.0582 0.319886 0.11109 0.940921 1 
0.0742 0.2069 0.0587 0.328035 -0.340128 0.881309 1 
0.0737 0.2069 0.0588 0.339955 -0.373797 0.862964 1 
0.0752 0.2073 0.0582 -0.0324323 -0.686718 0.7262 1 
0.0755 0.2075 0.0582 0.0125293 -0.664052 0.747581 1 
0.077 0.2063 0.0576 -0.494948 0.410006 0.766108 1 
0.0769 0.2067 0.0576 -0.999999 -0.000977516 -0.000977516 1 
0.0769 0.2049 0.0584 -0.999999 -0.000977516 -0.000977516 1 
0.0772 0.2053 0.0584 -0.248618 -0.849572 -0.465206 1 
0.077 0.2067 0.0578 -0.999999 -0.000977516 -0.000977516 1 
0.0773 0.2066 0.0576 -0.999999 -0.000977516 -0.000977516 1 
0.0769 0.205 0.0596 -0.999999 -0.000977516 -0.000977516 1 
0.076 0.2085 0.0614 -0.999999 -0.000977516 -0.000977516 1 
0.0766 0.2096 0.0608 -0.772394 0.455598 -0.442535 1 
0.0766 0.2091 0.0615 -0.782975 0.519304 -0.342451 1 
0.076 0.209 0.0617 -0.87966 0.434673 -0.193024 1 
0.0763 0.2091 0.0617 -0.829301 0.495728 -0.257902 1 
0.0763 0.2093 0.0618 -0.837132 0.450524 -0.310222 1 
0.0763 0.2096 0.062 -0.829342 0.465623 -0.308848 1 
0.0764 0.2096 0.0617 -0.774867 0.448607 -0.445345 1 
0.0767 0.2097 0.0612 -0.809825 0.478895 -0.338886 1 
0.0766 0.21 0.0615 -0.778808 0.374022 -0.503553 1 
0.0766 0.2097 0.0618 -0.770948 0.471045 -0.428667 1 
0.0767 0.2099 0.0618 -0.752913 0.411724 -0.513425 1 
0.0767 0.2102 0.0618 -0.805635 0.314973 -0.501741 1 
0.0763 0.2097 0.0621 -0.794943 0.436977 -0.420852 1 
0.0766 0.2097 0.0623 -0.653539 0.414075 -0.633584 1 
0.0767 0.2106 0.062 -0.820716 0.137525 -0.554538 1 
0.0764 0.2111 0.0624 -0.760911 -0.0528212 -0.646703 1 
0.0767 0.2111 0.0624 -0.679614 -0.0267343 -0.733083 1 
0.0763 0.2108 0.0624 -0.7208 -0.00415048 -0.69313 1 
0.0767 0.2109 0.0626 -0.757919 -0.0125161 -0.652228 1 
0.0767 0.2114 0.0618 -0.700361 -0.0529926 -0.711819 1 
0.0761 0.212 0.062 -0.400805 -0.397637 -0.825373 1 
0.0764 0.212 0.0617 -0.468138 -0.326278 -0.821212 1 
0.0767 0.2117 0.062 -0.616257 -0.162014 -0.7707 1 
0.0764 0.212 0.062 -0.46486 -0.305211 -0.831114 1 
0.0766 0.2114 0.0621 -0.667208 -0.101628 -0.737906 1 
0.0766 0.2118 0.062 -0.581982 -0.193994 -0.789724 1 
0.0767 0.212 0.0618 -0.48887 -0.288949 -0.823113 1 
0.0764 0.2121 0.0618 -0.426137 -0.33248 -0.841347 1 
0.0764 0.2121 0.062 -0.413396 -0.384886 -0.825207 1 
0.0766 0.213 0.0611 -0.487233 -0.3317 -0.807824 1 
0.0767 0.2117 0.0624 -0.619435 -0.152221 -0.770149 1 
0.077 0.21 0.0609 -0.775706 0.421191 -0.469977 1 
0.0775 0.2099 0.0612 -0.857168 0.456651 -0.238187 1 
0.077 0.21 0.0612 -0.841875 0.45117 -0.296129 1 
0.0769 0.2102 0.0614 -0.823619 0.292252 -0.486045 1 
0.0772 0.2102 0.0615 -0.848599 0.321133 -0.420421 1 
0.077 0.2106 0.0615 -0.874053 0.180686 -0.450982 1 
0.0775 0.2111 0.0614 -0.911212 0.0440263 -0.409578 1 
0.0769 0.2103 0.0617 -0.827286 0.265414 -0.49513 1 
0.0769 0.2105 0.0618 -0.853647 0.205535 -0.478583 1 
0.0772 0.2105 0.0618 -0.838255 0.165269 -0.519629 1 
0.077 0.2108 0.0617 -0.801683 0.100392 -0.589259 1 
0.077 0.2112 0.0618 -0.739693 -0.0125372 -0.672828 1 
0.0769 0.2108 0.062 -0.75132 0.0706616 -0.656144 1 
0.0769 0.2106 0.062 -0.831636 0.162162 -0.531117 1 
0.0772 0.2106 0.0624 -0.792389 0.125894 -0.596884 1 
0.0772 0.2103 0.0624 -0.772933 0.246147 -0.584795 1 
0.0769 0.2132 0.0608 -0.332208 -0.781571 -0.528001 1 
0.0772 0.2115 0.0615 -0.666723 -0.0708665 -0.741929 1 
0.0772 0.2118 0.0614 -0.554726 -0.182893 -0.811683 1 
0.0772 0.212 0.0614 -0.42315 -0.293897 -0.85707 1 
0.0769 0.2124 0.0612 -0.492161 -0.332886 -0.804341 1 
0.0769 0.2127 0.0611 -0.314981 -0.612193 -0.725263 1 
0.077 0.2124 0.0614 -0.492161 -0.332886 -0.804341 1 
0.0772 0.2123 0.0615 -0.492161 -0.332886 -0.804341 1 
0.0775 0.2123 0.0614 -0.278497 -0.415463 -0.865927 1 
0.0772 0.2126 0.0614 -0.234399 -0.497907 -0.834952 1 
0.0779 0.2127 0.0612 -0.206698 -0.672936 -0.710235 1 
0.0769 0.2114 0.0618 -0.68048 -0.0892673 -0.727309 1 
0.0769 0.2118 0.0617 -0.493454 -0.244421 -0.834722 1 
0.0772 0.2118 0.0621 -0.545388 -0.185825 -0.817326 1 
0.0772 0.2124 0.0618 -0.492161 -0.332886 -0.804341 1 
0.0772 0.2121 0.062 -0.423577 -0.332922 -0.842464 1 
0.0775 0.212 0.0618 -0.53352 -0.215548 -0.81786 1 
0.0772 0.2123 0.062 -0.498574 -0.300402 -0.813131 1 
0.077 0.213 0.0611 -0.312386 -0.668475 -0.674949 1 
0.077 0.213 0.0614 -0.119349 -0.587903 -0.800079 1 
0.0769 0.213 0.0615 -0.350687 -0.488399 -0.799053 1 
0.0766 0.2139 0.0597 -0.999999 -0.000977516 -0.000977516 1 
0.0781 0.2175 0.0576 -0.429746 0.47223 0.769621 1 
0.0793 0.2141 0.059 -0.242738 -0.477844 -0.844241 1 
0.0799 0.2141 0.0588 0.999999 0.000977516 0.000977516 1 
0.0775 0.2135 0.0597 -0.999999 -0.000977516 -0.000977516 1 
0.0776 0.2138 0.0596 -0.999999 -0.000977516 -0.000977516 1 
0.0796 0.2141 0.0593 0.999999 0.000977516 0.000977516 1 
0.0778 0.2145 0.059 -0.999999 -0.000977516 -0.000977516 1 
0.0781 0.2145 0.059 -0.26074 -0.349127 -0.900069 1 
0.0775 0.2156 0.059 -0.999999 -0.000977516 -0.000977516 1 
0.0773 0.2156 0.0588 -0.999999 -0.000977516 -0.000977516 1 
0.0781 0.2159 0.0584 0.0713626 0.499538 0.863348 1 
0.0796 0.215 0.0581 0.999999 0.000977516 0.000977516 1 
0.0799 0.2156 0.0578 0.999999 0.000977516 0.000977516 1 
0.0797 0.2153 0.0584 -0.288023 -0.477962 -0.829817 1 
0.0787 0.2144 0.0591 -0.210896 -0.373795 -0.903217 1 
0.079 0.2144 0.0588 -0.162671 -0.652205 -0.740382 1 
0.0797 0.2147 0.0588 0.135907 -0.76317 -0.631744 1 
0.0796 0.215 0.0584 0.910288 -0.379168 0.166152 1 
0.0782 0.2165 0.0582 0.340264 0.184957 0.921961 1 
0.0782 0.2168 0.0582 -0.423672 0.423672 0.800627 1 
0.0778 0.2168 0.0578 -0.197873 0.417731 0.886762 1 
0.0781 0.2169 0.0579 -0.423672 0.423672 0.800627 1 
0.0779 0.2174 0.0578 -0.429746 0.47223 0.769621 1 
0.0781 0.2172 0.0581 -0.423672 0.423672 0.800627 1 
0.0784 0.2162 0.0588 -0.832868 0.552001 0.0403225 1 
0.0782 0.2165 0.0585 0.340264 0.184957 0.921961 1 
0.0788 0.2171 0.0581 -0.423672 0.423672 0.800627 1 
0.0787 0.2174 0.0582 -0.415267 0.450815 0.790138 1 
0.0791 0.2174 0.0584 -0.371814 0.530932 0.761489 1 
0.0785 0.216 0.0584 0.0806738 0.414308 0.906554 1 
0.0791 0.2171 0.0585 -0.379308 0.45613 0.805029 1 
0.0778 0.2151 0.0593 -0.197436 -0.373255 -0.906477 1 
0.0781 0.2148 0.0594 -0.999999 -0.000977516 -0.000977516 1 
0.0784 0.2145 0.0594 -0.2096 -0.302443 -0.929837 1 
0.0802 0.2159 0.0578 0.999999 0.000977516 0.000977516 1 
0.0802 0.2154 0.0582 0.999999 0.000977516 0.000977516 1 
0.08 0.2147 0.0591 0.999999 0.000977516 0.000977516 1 
0.0787 0.2177 0.0579 -0.429746 0.47223 0.769621 1 
0.079 0.2177 0.0579 -0.999999 -0.000977516 -0.000977516 1 
0.0856 0.2079 0.0602 0.391902 -0.620097 0.679627 1 
0.0856 0.2082 0.0606 0.077679 -0.518331 0.851645 1 
0.0853 0.209 0.0608 0.203458 -0.49885 0.842469 1 
0.0847 0.2082 0.0612 0.747743 -0.159256 0.644606 1 
0.0858 0.2082 0.0608 0.0515137 -0.527667 0.847888 1 
0.0862 0.2088 0.0608 -0.0141463 -0.374234 0.927226 1 
0.0856 0.2091 0.0609 0.131667 -0.417653 0.899016 1 
0.0849 0.2093 0.0612 0.999999 0.000977516 0.000977516 1 
0.0853 0.2093 0.0611 0.269135 -0.330904 0.904471 1 
0.0849 0.2091 0.0615 0.999999 0.000977516 0.000977516 1 
0.0862 0.2091 0.0611 0.0493716 -0.2899 0.955783 1 
0.0853 0.2087 0.0617 0.269588 -0.334407 0.903047 1 
0.0864 0.2099 0.0612 -0.042973 -0.355504 0.933686 1 
0.0864 0.2102 0.0615 -0.177109 -0.255524 0.950442 1 
0.0864 0.2103 0.0621 -0.212467 -0.299706 0.930072 1 
0.0865 0.2085 0.0609 -0.301116 -0.238324 0.923326 1 
0.0868 0.2085 0.0612 -0.514066 0.0807211 0.853944 1 
0.0865 0.2091 0.0611 -0.198093 -0.159251 0.96716 1 
0.0871 0.2091 0.0614 -0.740647 -0.0678565 0.668459 1 
0.0879 0.2085 0.0618 -0.999999 -0.000977516 -0.000977516 1 
0.0877 0.2084 0.0623 -0.999999 -0.000977516 -0.000977516 1 
0.0876 0.209 0.0618 -0.87453 -0.0424263 0.483113 1 
0.0876 0.2096 0.062 -0.901082 -0.321075 0.291483 1 
0.087 0.2097 0.0612 -0.432812 -0.212688 0.876035 1 
0.0868 0.21 0.0612 -0.380008 -0.208204 0.901246 1 
0.0868 0.2103 0.0614 -0.257984 -0.255165 0.931845 1 
0.087 0.2102 0.0614 -0.352063 -0.208364 0.912489 1 
0.0874 0.2102 0.0615 -0.33972 -0.21358 0.915955 1 
0.0871 0.2109 0.0615 0.0595959 -0.366846 0.928371 1 
0.0865 0.2108 0.0618 0.0419482 -0.450605 0.891737 1 
0.0868 0.2109 0.0617 0.0595959 -0.366846 0.928371 1 
0.0877 0.2108 0.062 -0.0602797 -0.164292 0.984568 1 
0.0877 0.2081 0.0626 -0.999999 -0.000977516 -0.000977516 1 
0.0871 0.2091 0.0627 -0.999999 -0.000977516 -0.000977516 1 
0.0876 0.2091 0.0627 -0.999999 -0.000977516 -0.000977516 1 
0.0871 0.2114 0.0618 0.218558 -0.321409 0.921373 1 
0.0868 0.2112 0.062 0.21057 -0.370313 0.904726 1 
0.0871 0.2114 0.0621 0.275188 -0.301396 0.912925 1 
0.0874 0.2112 0.0617 0.21057 -0.370313 0.904726 1 
0.0876 0.212 0.0618 0.999999 0.000977516 0.000977516 1 
0.0727 0.2034 0.0383 0.513946 -0.083534 0.853745 0 
0.0733 0.2013 0.0391 -0.999999 -0.000977516 -0.000977516 0 
0.0724 0.2011 0.0397 -0.999999 -0.000977516 -0.000977516 0 
0.0719 0.2031 0.0392 0.107055 0.614465 0.781647 0 
0.0715 0.2028 0.0394 -0.491655 0.837804 0.237403 0 
0.0725 0.2028 0.0391 0.17016 0.431944 0.885703 0 
0.0725 0.2031 0.0392 -0.247787 0.673918 0.696014 0 
0.0736 0.2019 0.0394 -0.999999 -0.000977516 -0.000977516 0 
0.0734 0.2016 0.0395 -0.999999 -0.000977516 -0.000977516 0 
0.0719 0.2034 0.0388 0.0605687 0.550753 0.832468 0 
0.0725 0.2034 0.0386 -0.219759 0.653042 0.724736 0 
0.0724 0.2032 0.0388 0.00942548 0.504937 0.863105 0 
0.0722 0.2037 0.0388 0.51128 0.0121412 0.859328 0 
0.0724 0.2037 0.0391 0.634741 -0.18201 0.750983 0 
0.0715 0.2022 0.0409 -0.999999 -0.000977516 -0.000977516 0 
0.0894 0.2007 0.0415 0.999999 0.000977516 0.000977516 0 
0.0885 0.2008 0.0418 0.999999 0.000977516 0.000977516 0 
0.0888 0.2016 0.0419 0.460021 0.858203 -0.227748 0 
0.0888 0.2016 0.0422 0.460021 0.858203 -0.227748 0 
0.0891 0.2013 0.0416 0.999999 0.000977516 0.000977516 0 
0.0891 0.2013 0.0419 0.999999 0.000977516 0.000977516 0 
0.085 0.2047 0.043 0.378685 0.524958 0.762245 0 
0.0841 0.2046 0.0441 0.999999 0.000977516 0.000977516 0 
0.0856 0.2037 0.0435 0.999999 0.000977516 0.000977516 0 
0.0853 0.2034 0.0436 0.999999 0.000977516 0.000977516 0 
0.0855 0.2041 0.0439 0.999999 0.000977516 0.000977516 0 
0.0849 0.2046 0.0439 0.231976 0.248645 0.940406 0 
0.0853 0.2047 0.0438 0.411432 0.306648 0.858307 0 
0.0856 0.204 0.0433 0.999999 0.000977516 0.000977516 0 
0.0861 0.204 0.0435 0.999999 0.000977516 0.000977516 0 
0.0858 0.2044 0.0436 0.999999 0.000977516 0.000977516 0 
0.0874 0.2016 0.0427 0.999999 0.000977516 0.000977516 0 
0.0877 0.2016 0.0425 0.999999 0.000977516 0.000977516 0 
0.0879 0.2019 0.043 0.999999 0.000977516 0.000977516 0 
0.0876 0.2022 0.043 0.999999 0.000977516 0.000977516 0 
0.0885 0.2019 0.0419 0.429899 -0.442877 0.786796 0 
0.0885 0.2019 0.0424 0.429899 -0.442877 0.786796 0 
0.0882 0.202 0.0422 0.429899 -0.442877 0.786796 0 
0.0882 0.2019 0.0425 0.429899 -0.442877 0.786796 0 
0.0865 0.2028 0.0433 0.999999 0.000977516 0.000977516 0 
0.0766 0.2007 0.0546 0.527665 -0.162015 0.833859 0 
0.0766 0.2011 0.0552 0.705688 0.308436 0.637865 0 
0.0764 0.2014 0.0552 0.910465 0.0633954 0.408698 0 
0.0767 0.2005 0.0552 0.724658 0.673435 -0.146137 0 
0.0766 0.2014 0.0554 0.840334 -0.0991163 0.53293 0 
0.0764 0.2013 0.0559 0.984584 0.16232 0.065165 0 
0.0749 0.2007 0.0576 0.359598 0.468276 0.807098 0 
0.074 0.201 0.0572 0.999999 0.000977516 0.000977516 0 
0.0767 0.2005 0.0564 0.911689 -0.263183 0.315529 0 
0.0763 0.2013 0.0561 0.763026 0.567871 0.30873 0 
0.0757 0.2007 0.0569 0.580892 0.460361 0.671291 0 
0.0757 0.2001 0.0576 0.248977 -0.00119128 0.968509 0 
0.0754 0.2007 0.0572 0.311017 0.497311 0.809907 0 
0.0754 0.2007 0.0575 0.499646 0.42429 0.755203 0 
0.0763 0.2007 0.057 0.196485 0.710132 0.676096 0 
0.0764 0.2017 0.0549 0.776245 0.0705678 0.626469 0 
0.0766 0.2028 0.0549 0.617093 0.110458 0.779099 0 
0.0764 0.2029 0.0552 0.730381 -0.0210282 0.682717 0 
0.0761 0.2019 0.0554 0.986394 -0.00792739 0.16421 0 
0.0764 0.2017 0.0552 0.854062 0.0987106 0.51072 0 
0.0763 0.2022 0.0554 0.880695 0.0972287 0.463598 0 
0.0763 0.2016 0.0556 0.999004 0.0259347 -0.0363086 0 
0.0763 0.2019 0.0558 0.791512 0.391726 0.469104 0 
0.0766 0.2029 0.0553 0.8054 -0.15748 0.571429 0 
0.0742 0.202 0.0573 0.323914 0.111556 0.939486 0 
0.0743 0.2022 0.0572 0.357162 -0.212562 0.909534 0 
0.0751 0.2019 0.0573 0.190288 0.169576 0.966972 0 
0.0743 0.2025 0.0573 0.384957 -0.18599 0.904 0 
0.0751 0.2026 0.0572 0.27042 -0.172579 0.947148 0 
0.0748 0.2025 0.0572 0.241718 -0.187703 0.952019 0 
0.0751 0.2028 0.0572 0.228328 -0.164977 0.959505 0 
0.0752 0.2017 0.0567 0.601926 0.215084 0.769041 0 
0.0767 0.2019 0.057 0.999999 0.000977516 0.000977516 0 
0.0754 0.2025 0.057 0.128626 -0.119009 0.984526 0 
0.0743 0.1978 0.0606 0.999999 0.000977516 0.000977516 0 
0.073 0.1981 0.0618 0.506752 0.560626 0.654905 0 
0.0712 0.1981 0.0627 -0.360902 0.489223 0.793984 0 
0.0713 0.1978 0.063 -0.489955 0.601079 0.631386 0 
0.0716 0.198 0.0629 -0.450206 0.654389 0.607527 0 
0.0716 0.1983 0.063 -0.355082 0.705256 0.613621 0 
0.0712 0.1975 0.0635 -0.783315 0.534441 0.317474 0 
0.0719 0.1978 0.0632 -0.29796 0.834599 0.463319 0 
0.0719 0.1978 0.0638 -0.498313 0.865491 0.0510737 0 
0.0719 0.1981 0.0636 -0.409945 0.88895 0.204238 0 
0.0736 0.1972 0.063 0.649121 0.531099 0.544587 0 
0.0733 0.1975 0.0632 0.597566 0.661172 0.453614 0 
0.0727 0.198 0.0627 0.38232 0.792064 0.475884 0 
0.0727 0.198 0.063 0.403116 0.788423 0.464636 0 
0.0724 0.1981 0.063 0.128743 0.863587 0.487486 0 
0.0725 0.1983 0.0632 0.248997 0.870736 0.42405 0 
0.0728 0.1983 0.0632 0.464265 0.756275 0.460984 0 
0.073 0.1981 0.0627 0.418923 0.774274 0.474345 0 
0.0734 0.1981 0.0626 0.612684 0.602557 0.511414 0 
0.0728 0.1971 0.0638 0.731305 0.152923 0.664686 0 
0.0728 0.198 0.0635 0.44236 0.789119 0.426156 0 
0.0722 0.1983 0.0632 -0.0525405 0.903965 0.424365 0 
0.0727 0.1983 0.0633 0.474978 0.751089 0.458542 0 
0.0721 0.198 0.0639 -0.594336 0.799678 -0.0853183 0 
0.0727 0.1978 0.0639 0.810406 0.0820482 0.580095 0 
0.0724 0.1981 0.0636 -0.0479878 0.96837 0.244861 0 
0.0727 0.1983 0.0638 0.38734 0.893975 0.225335 0 
0.0739 0.1974 0.0626 0.999999 0.000977516 0.000977516 0 
0.0737 0.1978 0.0626 0.691818 0.461767 0.555121 0 
0.0763 0.1993 0.0578 0.999999 0.000977516 0.000977516 0 
0.0751 0.2004 0.0576 0.124048 -0.252013 0.95974 0 
0.0746 0.2007 0.0578 0.294135 0.344899 0.891364 0 
0.0743 0.2016 0.0576 0.0920887 0.27886 0.955906 0 
0.0748 0.2008 0.0578 0.294135 0.344899 0.891364 0 
0.0754 0.2007 0.0578 0.461509 0.311323 0.830715 0 
0.0737 0.1986 0.0606 0.31416 0.317137 0.894834 0 
0.0737 0.1989 0.0606 0.239617 0.217709 0.946143 0 
0.074 0.199 0.0606 0.217048 0.190416 0.957409 0 
0.0749 0.1987 0.0606 0.00110208 0.135556 0.990769 0 
0.0749 0.1992 0.0606 -0.149897 0.22289 0.96325 0 
0.074 0.1993 0.0606 0.396056 0.0168811 0.918071 0 
0.0749 0.1995 0.0606 -0.028976 0.0719035 0.996991 0 
0.0751 0.1996 0.0605 0.0198652 -0.0512314 0.998489 0 
0.0758 0.1998 0.0603 0.28225 -0.155305 0.946686 0 
0.0755 0.1996 0.0606 0.28225 -0.155305 0.946686 0 
0.0763 0.1999 0.0605 0.800643 -0.0912125 0.592158 0 
0.0758 0.2001 0.0602 0.231366 -0.204306 0.951172 0 
0.0755 0.2001 0.0605 0.231366 -0.204306 0.951172 0 
0.0755 0.2002 0.0608 0.231366 -0.204306 0.951172 0 
0.0755 0.2005 0.0608 0.231366 -0.204306 0.951172 0 
0.0757 0.2004 0.0606 0.231366 -0.204306 0.951172 0 
0.0757 0.2007 0.0606 0.266779 -0.18743 0.945357 0 
0.0755 0.2008 0.0608 0.266779 -0.18743 0.945357 0 
0.0736 0.1989 0.0618 0.843451 0.262714 0.468584 0 
0.073 0.1984 0.0624 0.499232 0.64379 0.579915 0 
0.0734 0.1984 0.0621 0.725062 0.374806 0.577758 0 
0.0722 0.1986 0.0627 0.187612 0.842002 0.505801 0 
0.0724 0.1986 0.0627 0.187612 0.842002 0.505801 0 
0.0739 0.1987 0.0608 0.438139 0.457684 0.773666 0 
0.0742 0.1986 0.0612 -0.248915 0.944777 0.213159 0 
0.0751 0.1987 0.0608 -0.069751 0.110916 0.991379 0 
0.0757 0.1998 0.0608 0.261472 -0.144672 0.954307 0 
0.0757 0.1998 0.0612 0.274869 -0.134115 0.952082 0 
0.0757 0.2001 0.0611 0.231366 -0.204306 0.951172 0 
0.0752 0.201 0.0609 0.999999 0.000977516 0.000977516 0 
0.0695 0.1963 0.0667 0.210732 -0.936432 0.280511 0 
0.0691 0.1966 0.0671 0.216712 -0.958584 0.184803 0 
0.0692 0.1966 0.0668 0.218811 -0.93796 0.268984 0 
0.0695 0.1966 0.0669 0.250109 -0.937558 0.241725 0 
0.0697 0.1965 0.0667 0.246909 -0.907279 0.340412 0 
0.07 0.1965 0.0666 0.326907 -0.894142 0.306009 0 
0.0701 0.1963 0.0671 0.263103 -0.93282 0.246219 0 
0.0701 0.1971 0.0663 0.335208 -0.941408 0.0372453 0 
0.0692 0.1969 0.0671 0.326269 -0.928398 0.177838 0 
0.0698 0.1969 0.0666 0.358957 -0.909646 0.209031 0 
0.0698 0.1966 0.0672 0.283128 -0.955394 0.0840333 0 
0.0701 0.1966 0.0674 0.292216 -0.955079 0.0493352 0 
0.07 0.1965 0.0686 0.565449 -0.774523 -0.283517 0 
0.0701 0.1968 0.0686 0.392365 -0.874111 -0.286321 0 
0.0704 0.1968 0.0688 0.413218 -0.87033 -0.26791 0 
0.0695 0.1969 0.0674 0.321719 -0.944315 0.0690327 0 
0.0695 0.1972 0.0674 0.394704 -0.91555 0.0773131 0 
0.0703 0.1969 0.0674 0.28243 -0.955618 0.0838262 0 
0.0704 0.1972 0.0674 0.357421 -0.930367 0.0816581 0 
0.0701 0.1969 0.0675 0.308529 -0.950774 0.028964 0 
0.0701 0.1969 0.0678 0.243934 -0.969785 -0.00356976 0 
0.0704 0.1972 0.0678 0.290241 -0.956161 -0.03895 0 
0.0698 0.1971 0.068 0.367957 -0.925958 -0.0849131 0 
0.0698 0.1969 0.0683 0.445631 -0.859323 -0.250953 0 
0.0701 0.1969 0.0681 0.304322 -0.942723 -0.136607 0 
0.0704 0.1972 0.0681 0.351776 -0.924629 -0.145994 0 
0.0704 0.1965 0.0691 0.294908 -0.760385 -0.578658 0 
0.0719 0.1975 0.0644 -0.513499 0.764543 -0.389607 0 
0.0719 0.1978 0.0644 -0.637276 0.670211 -0.38039 0 
0.0716 0.1978 0.0645 -0.530022 0.746625 -0.402029 0 
0.0718 0.1978 0.0645 -0.484431 0.757026 -0.438451 0 
0.0716 0.1977 0.0648 -0.828357 0.430746 -0.358166 0 
0.0721 0.1977 0.0642 -0.521316 0.82833 -0.205183 0 
0.0722 0.198 0.0642 -0.622082 0.739217 -0.258014 0 
0.0728 0.1983 0.0641 -0.767999 0.500585 -0.39949 0 
0.0721 0.198 0.0645 -0.649259 0.642617 -0.406825 0 
0.0721 0.198 0.0648 -0.446336 0.742795 -0.49904 0 
0.071 0.1966 0.0662 0.316686 -0.927537 -0.198456 0 
0.0709 0.1968 0.0665 0.531774 -0.827037 0.18228 0 
0.071 0.1966 0.0667 0.525943 -0.831619 0.178311 0 
0.0707 0.1968 0.0669 0.369736 -0.913716 0.168577 0 
0.0712 0.1975 0.0656 -0.902453 0.0956517 -0.420036 0 
0.0709 0.1975 0.0659 -0.755878 -0.222867 -0.615612 0 
0.071 0.1974 0.0662 -0.737615 -0.146316 -0.659178 0 
0.0712 0.1975 0.0662 -0.751187 -0.253545 -0.609453 0 
0.0715 0.1969 0.0659 -0.916436 -0.126549 -0.379646 0 
0.0713 0.1969 0.0662 -0.551934 -0.455221 -0.698672 0 
0.0712 0.1969 0.0665 0.478685 -0.87598 0.0593184 0 
0.071 0.1972 0.0666 0.48437 -0.866692 0.119296 0 
0.0706 0.1975 0.0665 0.191464 -0.890089 -0.413621 0 
0.071 0.1974 0.0667 0.489201 -0.871937 -0.0202149 0 
0.0704 0.1972 0.0671 0.330783 -0.935177 0.126596 0 
0.0709 0.1972 0.0671 0.359246 -0.921179 0.149569 0 
0.0715 0.1975 0.0678 0.296942 -0.948893 0.106899 0 
0.071 0.1975 0.0686 0.321572 -0.863168 -0.389272 0 
0.0713 0.1972 0.0681 0.360456 -0.925124 -0.119238 0 
0.0704 0.1966 0.0691 0.793801 0.43166 -0.428426 0 
0.071 0.1966 0.0689 0.246168 -0.812819 -0.527945 0 
0.0719 0.1984 0.0648 -0.128169 0.817632 -0.561293 0 
0.0784 0.2043 0.0519 -0.195268 0.916476 0.349202 0 
0.0776 0.2037 0.0528 0.53928 0.573091 0.617045 0 
0.0779 0.2046 0.0522 0.547439 0.0905214 0.831935 0 
0.0784 0.2044 0.052 -0.195268 0.916476 0.349202 0 
0.0779 0.2041 0.0525 0.520717 0.0808743 0.84989 0 
0.0782 0.2043 0.0526 -0.350874 0.925031 0.14562 0 
0.0779 0.2044 0.0525 0.520717 0.0808743 0.84989 0 
0.0787 0.2041 0.0519 -0.153712 0.912399 0.379343 0 
0.0788 0.2043 0.0517 -0.360102 0.884434 0.29682 0 
0.0787 0.2044 0.0519 -0.335174 0.895286 0.293463 0 
0.079 0.2046 0.0517 -0.331166 0.84735 0.415124 0 
0.079 0.2046 0.0519 -0.349655 0.864126 0.361978 0 
0.0796 0.2047 0.0513 -0.853437 0.377751 -0.359096 0 
0.0793 0.2047 0.0516 -0.83105 0.288451 -0.475554 0 
0.0787 0.2046 0.0523 -0.131728 0.8613 0.490724 0 
0.0769 0.2022 0.0541 0.489327 0.167051 0.855952 0 
0.0773 0.2025 0.0541 0.116245 -0.0485296 0.992034 0 
0.0778 0.2037 0.053 -0.226886 0.949663 0.216018 0 
0.0769 0.2004 0.055 0.514724 0.726571 0.455141 0 
0.0778 0.2013 0.0546 -0.238474 0.46024 0.855166 0 
0.0779 0.2013 0.0553 -0.413553 0.726601 0.548658 0 
0.0769 0.2013 0.056 0.82928 0.520006 0.204667 0 
0.0773 0.2013 0.0561 0.0283364 0.989507 -0.141682 0 
0.0775 0.2019 0.0544 0.042193 0.466846 0.883332 0 
0.0773 0.2022 0.0546 0.28382 0.211117 0.935348 0 
0.0773 0.2022 0.0549 0.360486 0.248662 0.899009 0 
0.0779 0.2022 0.0547 -0.151506 0.304376 0.940426 0 
0.0776 0.2017 0.0549 -0.233249 0.737319 0.634 0 
0.0776 0.2022 0.0549 0.21209 0.296364 0.931228 0 
0.0769 0.2025 0.0547 0.572731 0.19702 0.795715 0 
0.0784 0.2025 0.0546 -0.999999 -0.000977516 -0.000977516 0 
0.0787 0.2016 0.0552 -0.999999 -0.000977516 -0.000977516 0 
0.0785 0.2028 0.0547 -0.999999 -0.000977516 -0.000977516 0 
0.0769 0.2034 0.0546 0.999999 0.000977516 0.000977516 0 
0.0769 0.2017 0.0563 0.975156 0.169866 -0.142184 0 
0.082 0.2102 0.0227 0.711604 -0.700104 0.058941 0 
0.0823 0.21 0.023 0.571215 -0.80686 -0.150634 0 
0.0823 0.2102 0.0231 0.511727 -0.856617 -0.0658936 0 
0.0823 0.2105 0.0231 0.547575 -0.835919 0.0374292 0 
0.0826 0.2106 0.0231 0.332809 -0.942749 -0.0215124 0 
0.0832 0.2106 0.023 0.32573 -0.903494 -0.278565 0 
0.0829 0.2106 0.0231 0.321505 -0.943518 -0.0800482 0 
0.0825 0.2108 0.0231 0.336554 -0.941596 -0.0113445 0 
0.0822 0.21 0.0233 0.602681 -0.797544 -0.0264456 0 
0.0823 0.2099 0.0236 0.505704 -0.862026 -0.0342618 0 
0.0823 0.21 0.0233 0.496145 -0.863661 -0.0890517 0 
0.0822 0.21 0.0237 0.532298 -0.84653 0.00677224 0 
0.0822 0.21 0.0239 0.479858 -0.876322 -0.0423806 0 
0.0823 0.2103 0.0237 0.485639 -0.87415 0.00399155 0 
0.0823 0.21 0.0239 0.454952 -0.889655 -0.0391502 0 
0.0825 0.21 0.0236 0.461423 -0.886312 -0.0392413 0 
0.0825 0.2102 0.0233 0.496145 -0.863661 -0.0890517 0 
0.0825 0.2102 0.0236 0.477529 -0.878384 -0.0201773 0 
0.0825 0.21 0.0239 0.422757 -0.905527 -0.0360077 0 
0.0828 0.2102 0.0239 0.389798 -0.919284 -0.0545451 0 
0.0832 0.2103 0.0239 0.449639 -0.886592 -0.108534 0 
0.0823 0.2108 0.0239 0.366944 -0.929678 -0.0324156 0 
0.0826 0.2106 0.0234 0.420767 -0.905123 -0.0608827 0 
0.0832 0.2106 0.0233 0.322303 -0.943229 -0.0802468 0 
0.0829 0.2105 0.0234 0.406892 -0.910405 -0.0748464 0 
0.0825 0.2108 0.0233 0.318246 -0.947069 -0.0421772 0 
0.0825 0.2108 0.0236 0.297624 -0.954619 -0.0111146 0 
0.0826 0.2106 0.0237 0.423416 -0.905821 -0.0144197 0 
0.0832 0.2105 0.0237 0.387288 -0.918966 -0.074219 0 
0.0826 0.2108 0.0237 0.260419 -0.965367 -0.0157463 0 
0.0823 0.2094 0.024 0.871091 -0.491076 0.00669041 0 
0.0823 0.2094 0.0243 0.802126 -0.597153 0.00136648 0 
0.0823 0.2094 0.0254 0.470922 -0.88215 -0.00663271 0 
0.0823 0.21 0.0242 0.52674 -0.848094 -0.0572848 0 
0.0822 0.2102 0.024 0.476532 -0.878393 -0.0366563 0 
0.0822 0.2102 0.0243 0.664563 -0.746399 -0.0352741 0 
0.0822 0.21 0.0245 0.72627 -0.687238 -0.0153339 0 
0.082 0.21 0.0248 0.783764 -0.61633 0.0764999 0 
0.0822 0.2102 0.0245 0.621591 -0.782275 -0.0408756 0 
0.0828 0.2102 0.0242 0.405423 -0.9132 -0.041207 0 
0.0825 0.21 0.0242 0.52674 -0.848094 -0.0572848 0 
0.0826 0.2103 0.0245 0.414325 -0.908277 -0.0580325 0 
0.0826 0.2103 0.0248 0.38376 -0.921292 -0.0628457 0 
0.0829 0.2103 0.0245 0.411475 -0.910071 -0.0495915 0 
0.0823 0.2105 0.024 0.46681 -0.88413 -0.0200635 0 
0.0823 0.2108 0.0242 0.438849 -0.89783 -0.0362353 0 
0.0823 0.2105 0.0242 0.433406 -0.900358 -0.0389126 0 
0.0823 0.2108 0.0243 0.503557 -0.863045 -0.0397906 0 
0.082 0.2106 0.0248 0.850347 -0.525093 0.0344549 0 
0.0823 0.2105 0.0245 0.61796 -0.784823 -0.0466652 0 
0.0823 0.2099 0.025 0.548741 -0.835983 -0.00406475 0 
0.082 0.2102 0.0248 0.915956 -0.397137 0.057498 0 
0.0822 0.2102 0.025 0.37908 -0.925363 -0.00127636 0 
0.0823 0.21 0.0252 0.413413 -0.910037 -0.0303786 0 
0.082 0.2097 0.0255 0.444469 -0.895573 -0.0199016 0 
0.0823 0.2099 0.0255 0.335213 -0.940925 -0.0478875 0 
0.0822 0.2102 0.0254 0.313852 -0.946766 -0.0716261 0 
0.0823 0.2103 0.0252 0.19949 -0.978107 -0.0592426 0 
0.082 0.2102 0.0255 0.32084 -0.944187 -0.0746445 0 
0.0823 0.2103 0.0255 0.251686 -0.961571 -0.109709 0 
0.0829 0.2103 0.0248 0.352496 -0.933388 -0.0673307 0 
0.0829 0.2103 0.0251 0.190444 -0.978905 -0.0739941 0 
0.0828 0.2102 0.0254 0.18532 -0.979897 -0.0738859 0 
0.0822 0.2105 0.025 0.318595 -0.945382 -0.0689206 0 
0.0826 0.2105 0.025 0.193699 -0.978242 -0.0743123 0 
0.0826 0.2105 0.0254 0.119416 -0.987252 -0.105228 0 
0.0832 0.2106 0.023 0.32573 -0.903494 -0.278565 0 
0.0835 0.2106 0.0231 0.290314 -0.858653 -0.422414 0 
0.0835 0.2103 0.0236 0.308827 -0.937463 -0.16059 0 
0.0835 0.2103 0.0239 0.204145 -0.973135 -0.106456 0 
0.0832 0.2103 0.0249 0.195969 -0.974853 -0.106098 0 
0.0832 0.2103 0.0252 0.15245 -0.981781 -0.113423 0 
0.0761 0.2063 0.0328 0.999999 0.000977516 0.000977516 0 
0.0767 0.2061 0.0325 0.217382 -0.834563 0.506211 0 
0.0766 0.2064 0.0326 0.249509 -0.764218 0.594741 0 
0.076 0.2063 0.0328 0.999999 0.000977516 0.000977516 0 
0.076 0.2063 0.0332 0.999999 0.000977516 0.000977516 0 
0.0763 0.2061 0.0331 0.999999 0.000977516 0.000977516 0 
0.0766 0.2063 0.0332 0.254685 -0.707106 0.659649 0 
0.0802 0.2079 0.0284 -0.237552 -0.649729 -0.722095 0 
0.0822 0.2093 0.0258 0.447962 -0.879977 -0.158019 0 
0.0823 0.2096 0.0258 0.361236 -0.923158 -0.131484 0 
0.0819 0.2091 0.0261 0.97318 -0.199659 0.11427 0 
0.0817 0.2093 0.0263 0.993718 -0.10722 0.0320554 0 
0.0817 0.2093 0.0266 0.986174 0.165677 -0.00338117 0 
0.0817 0.2091 0.0269 0.763218 -0.641566 -0.0767562 0 
0.0822 0.209 0.0269 0.837939 0.3074 -0.450958 0 
0.082 0.2094 0.0269 -0.0451485 -0.998516 -0.030449 0 
0.082 0.2094 0.0272 0.156626 -0.985684 -0.0624149 0 
0.0814 0.2099 0.0261 0.980194 -0.121756 0.156191 0 
0.0814 0.2099 0.0263 0.978374 -0.104606 0.178445 0 
0.0816 0.2097 0.0266 0.907108 0.405482 0.112866 0 
0.0816 0.21 0.0266 0.875923 -0.469904 0.109313 0 
0.0822 0.21 0.0257 0.289951 -0.953068 -0.0871154 0 
0.0819 0.2102 0.026 0.384344 -0.917775 -0.0998473 0 
0.082 0.2102 0.0258 0.306601 -0.948505 -0.0795857 0 
0.0822 0.2103 0.0257 0.273878 -0.959209 -0.0700618 0 
0.0817 0.21 0.0261 0.809192 -0.583703 0.0670759 0 
0.0817 0.2099 0.0263 0.81243 -0.574928 0.0970282 0 
0.0817 0.2102 0.0263 0.828616 -0.553842 0.0815736 0 
0.082 0.2102 0.0263 0.356533 -0.930725 -0.0814551 0 
0.082 0.2102 0.0261 0.386037 -0.920344 -0.0627811 0 
0.0823 0.2102 0.0263 0.323504 -0.941223 -0.0971843 0 
0.0826 0.2103 0.0257 0.183711 -0.979389 -0.0839476 0 
0.0828 0.2102 0.0257 0.125695 -0.987937 -0.0904532 0 
0.0832 0.2102 0.0257 0.280662 -0.95425 -0.103127 0 
0.0832 0.2102 0.026 0.134263 -0.983386 -0.122167 0 
0.0826 0.2103 0.0261 0.255177 -0.963581 -0.079981 0 
0.0829 0.2102 0.0261 0.054224 -0.988722 -0.139598 0 
0.0819 0.2108 0.026 0.146761 -0.988037 -0.0473795 0 
0.0817 0.21 0.0266 0.154177 -0.982118 -0.108045 0 
0.0822 0.2099 0.0266 0.2057 -0.969727 -0.131597 0 
0.082 0.2102 0.0266 0.278217 -0.953322 -0.117352 0 
0.0819 0.2103 0.0266 0.289299 -0.953518 -0.0843247 0 
0.0819 0.2102 0.0267 0.203755 -0.973772 -0.101252 0 
0.0817 0.2099 0.0269 0.664246 0.747451 0.00970715 0 
0.0819 0.2097 0.027 0.058325 -0.997887 -0.0286323 0 
0.0822 0.2097 0.0269 0.134716 -0.985931 -0.0989508 0 
0.0819 0.2103 0.0269 0.202798 -0.967488 -0.15113 0 
0.0819 0.2102 0.027 0.0965258 -0.985517 -0.139426 0 
0.0819 0.2103 0.027 0.108958 -0.98062 -0.162825 0 
0.0826 0.2102 0.0266 0.216161 -0.958799 -0.184333 0 
0.0829 0.21 0.0264 0.257786 -0.955792 -0.141452 0 
0.0832 0.2102 0.0266 -0.0602797 -0.984568 -0.164292 0 
0.0828 0.21 0.0269 0.241894 -0.958322 -0.15201 0 
0.0826 0.21 0.0272 0.191997 -0.979306 -0.0639991 0 
0.0825 0.21 0.0269 0.174442 -0.975119 -0.136793 0 
0.0811 0.2087 0.0279 0.447597 -0.837491 -0.313474 0 
0.0802 0.2082 0.0284 -0.237552 -0.649729 -0.722095 0 
0.0808 0.2088 0.028 0.999999 0.000977516 0.000977516 0 
0.0806 0.2087 0.0284 0.999999 0.000977516 0.000977516 0 
0.08 0.2081 0.0285 -0.237552 -0.649729 -0.722095 0 
0.0809 0.2084 0.0284 0.999999 0.000977516 0.000977516 0 
0.0802 0.2088 0.0284 -0.285644 -0.491682 -0.822591 0 
0.0823 0.2091 0.0274 0.453107 -0.881916 -0.130072 0 
0.0822 0.2096 0.0275 -0.0997548 -0.984327 0.145426 0 
0.0823 0.2091 0.0276 0.154299 -0.940812 0.30177 0 
0.0811 0.21 0.0278 0.868683 -0.48731 0.088987 0 
0.0816 0.21 0.0278 0.452982 -0.891352 -0.0172691 0 
0.0816 0.2103 0.0278 -0.329688 -0.923974 0.193851 0 
0.0819 0.2097 0.0273 0.284409 -0.951116 -0.120378 0 
0.0817 0.2099 0.0275 0.565579 -0.806892 -0.170428 0 
0.0822 0.2097 0.0272 0.0502957 -0.99873 0.00307933 0 
0.0819 0.2102 0.0272 0.110676 -0.986562 -0.120196 0 
0.0819 0.2103 0.0273 0.0545655 -0.994428 -0.0902001 0 
0.0817 0.2102 0.0275 -0.230603 -0.967003 0.108294 0 
0.0819 0.2103 0.0275 -0.0881633 -0.994348 0.0591476 0 
0.0822 0.2097 0.0279 -0.152769 -0.955135 0.253729 0 
0.0826 0.21 0.0275 0.169745 -0.985435 -0.0102531 0 
0.0828 0.2099 0.0275 0.0253696 -0.999562 0.0152218 0 
0.0829 0.2097 0.0272 0.284356 -0.94919 -0.134836 0 
0.0832 0.2097 0.0274 0.408639 -0.912583 0.0143611 0 
0.0826 0.2099 0.0278 -0.12784 -0.982544 0.135145 0 
0.0832 0.2097 0.0278 0.422295 -0.899307 0.113641 0 
0.0829 0.21 0.0278 -0.0685652 -0.988966 0.13132 0 
0.0823 0.2102 0.0281 -0.154393 -0.971015 0.182464 0 
