0.0787053 0.209432 0.0409967 0.578745 0.813639 -0.055186 0 
0.079611 0.20932 0.0417089 0.0678244 0.972972 -0.220738 0 
0.0788376 0.208055 0.0388155 0.344263 0.618368 -0.706473 0 
0.0790239 0.208069 0.0389739 0.0324439 0.70107 -0.712354 0 
0.0788581 0.208893 0.0391593 0.387561 0.491343 -0.779986 0 
0.0793355 0.208046 0.038925 0.0558428 0.717365 -0.694456 0 
0.0795163 0.208716 0.0393476 0.0616016 0.628909 -0.775034 0 
0.0793801 0.208463 0.0392145 0.0437545 0.605505 -0.794638 0 
0.0797102 0.208676 0.0393756 0.0701655 0.591395 -0.803324 0 
0.0785534 0.208803 0.0397153 0.446615 0.784419 -0.430375 0 
0.0790051 0.210236 0.0400673 0.133473 0.909021 0.394799 0 
0.0794172 0.208935 0.0396343 0.104314 0.501566 -0.858807 0 
0.0754587 0.2102 0.0352765 0.133473 0.909021 0.394799 0 
0.0758275 0.209399 0.0337133 0.744836 0.587182 -0.316917 0 
0.0757782 0.208095 0.0321816 0.595917 -0.132261 -0.792079 0 
0.0755622 0.208356 0.0319075 0.65115 -0.329635 -0.683626 0 
0.0757747 0.208552 0.0321453 0.702642 -0.314977 -0.638031 0 
0.0760863 0.208528 0.0320964 0.76397 -0.243153 -0.597685 0 
0.0753614 0.208509 0.0313724 0.479109 -0.702805 -0.525852 0 
0.0756819 0.208974 0.0319646 0.865479 -0.266184 -0.424373 0 
0.0758056 0.209195 0.0314203 0.78623 -0.60559 -0.122895 0 
0.0760553 0.209061 0.0316436 0.852105 -0.473728 -0.222486 0 
0.0752807 0.210565 0.0327379 0.709747 0.68543 -0.162619 0 
0.0755737 0.210306 0.0324791 0.811391 0.578744 -0.0818571 0 
0.0758771 0.209477 0.0327639 0.916532 0.362941 -0.168054 0 
0.075939 0.209587 0.0324918 0.912399 0.379343 -0.153712 0 
0.0759968 0.209295 0.0323865 0.955617 0.124874 -0.266837 0 
0.076245 0.209419 0.0322727 0.963931 0.207958 -0.166105 0 
0.0762842 0.209692 0.032392 0.889211 0.439626 -0.126624 0 
0.0760132 0.20973 0.032897 0.904427 0.397378 -0.155248 0 
0.0760448 0.210056 0.0331467 0.769948 0.623434 -0.136049 0 
0.0752443 0.210152 0.0316804 0.379675 0.878849 -0.288916 0 
0.0760552 0.209862 0.032078 0.912802 0.395134 -0.103258 0 
0.0762059 0.209147 0.0321535 0.957263 -0.0728491 -0.279894 0 
0.0762918 0.209638 0.0322615 0.885563 0.447756 -0.123666 0 
0.0760463 0.209373 0.031437 0.678772 -0.732846 -0.0469591 0 
0.0759307 0.209958 0.0316476 0.305379 0.932871 -0.191036 0 
0.0761206 0.209515 0.0318423 0.982903 -0.151123 -0.105182 0 
0.076395 0.209821 0.031808 0.963514 0.257022 0.0747008 0 
0.0754313 0.210651 0.0332478 0.133473 0.909021 0.394799 0 
0.075793 0.210389 0.0332241 0.652205 0.740382 -0.162671 0 
0.0765967 0.210687 0.0388201 0.133473 0.909021 0.394799 0 
0.0774654 0.209304 0.038678 -0.0287185 0.5183 -0.854716 0 
0.0777323 0.208863 0.0383397 0.558342 0.524606 -0.642684 0 
0.0785246 0.208336 0.0385274 0.47774 0.378009 -0.793016 0 
0.0778554 0.209024 0.0384332 0.558342 0.524606 -0.642684 0 
0.0778368 0.209589 0.0386577 0.533616 0.66155 -0.526883 0 
0.0761562 0.209494 0.0351496 0.534854 0.548352 -0.642838 0 
0.0764471 0.209434 0.0351914 0.437456 0.523297 -0.731295 0 
0.0765832 0.209687 0.0353246 0.406974 0.511578 -0.756743 0 
0.0764098 0.210564 0.0356404 0.338014 0.331951 -0.880656 0 
0.0768947 0.210464 0.0357102 0.395532 0.174034 -0.901813 0 
0.0768741 0.209626 0.0353665 0.25534 0.696237 -0.670862 0 
0.0771856 0.210404 0.0357521 0.268223 0.323919 -0.907267 0 
0.077288 0.210529 0.0359362 0.161398 0.395639 -0.904113 0 
0.0775321 0.211051 0.0364237 0.0828178 0.637842 -0.765701 0 
0.0773609 0.210929 0.0360045 0.0828178 0.637842 -0.765701 0 
0.0777356 0.211559 0.0364549 0.141986 0.962642 -0.230565 0 
0.0778024 0.210954 0.0365563 0.0321331 0.602146 -0.797739 0 
0.0778251 0.210792 0.0361649 0.0321331 0.602146 -0.797739 0 
0.077984 0.210882 0.0359068 0.0321331 0.602146 -0.797739 0 
0.0782749 0.210822 0.0359486 0.0321331 0.602146 -0.797739 0 
0.0781628 0.21095 0.0361955 0.0321331 0.602146 -0.797739 0 
0.0784537 0.21089 0.0362374 0.0496413 0.62548 -0.778659 0 
0.0785658 0.210762 0.0359905 0.0496413 0.62548 -0.778659 0 
0.0766816 0.209784 0.0340633 0.460182 0.886226 -0.0532555 0 
0.0762422 0.209559 0.033211 0.811373 0.533188 -0.239548 0 
0.0762326 0.209813 0.033642 0.573325 0.798397 -0.184012 0 
0.0763936 0.208903 0.0326488 0.944574 0.19056 -0.267332 0 
0.0764197 0.209085 0.0327283 0.944574 0.19056 -0.267332 0 
0.0763205 0.209729 0.0350616 0.660758 0.5905 -0.463367 0 
0.0763452 0.210169 0.0348042 0.928365 -0.335436 -0.160063 0 
0.0764772 0.210819 0.0355386 0.30806 0.27886 -0.90958 0 
0.0776222 0.211144 0.0359304 0.0887218 0.618143 -0.781042 0 
0.0777048 0.211291 0.0355677 0.10102 0.628083 -0.771561 0 
0.077975 0.211194 0.0357002 0.0321331 0.602146 -0.797739 0 
0.0787412 0.210486 0.0358084 0.133473 0.909021 0.394799 0 
0.0746361 0.20838 0.0276271 -0.822336 0.484003 -0.299174 0 
0.0749573 0.208104 0.0271471 -0.862835 0.457678 -0.214583 0 
0.0749085 0.208084 0.027459 -0.826616 0.482844 -0.289081 0 
0.0749683 0.208394 0.0274875 -0.825143 0.507424 -0.248314 0 
0.0748562 0.208522 0.0277345 -0.778152 0.531069 -0.335328 0 
0.0748747 0.208758 0.0279444 -0.759446 0.591385 -0.271118 0 
0.074797 0.209072 0.0275027 -0.818902 0.51549 -0.252327 0 
0.0754077 0.208618 0.0283399 -0.860831 0.50774 -0.0342143 0 
0.0752613 0.208134 0.0272287 -0.820648 0.548593 -0.159944 0 
0.0752365 0.208496 0.0279207 -0.792 0.58605 -0.17112 0 
0.0750694 0.208776 0.0273347 -0.872507 0.478106 -0.100728 0 
0.0751498 0.209122 0.0272725 -0.878773 0.473185 -0.0620797 0 
0.0752874 0.209492 0.0261305 -0.735111 0.56484 0.374923 0 
0.0755914 0.209523 0.0262121 -0.856292 0.422765 0.296704 0 
0.0756718 0.209869 0.0261499 -0.844318 0.455345 0.282468 0 
0.0753624 0.208517 0.0270759 -0.858585 0.508428 -0.0658295 0 
0.0756533 0.208457 0.0271177 -0.822021 0.568018 -0.040473 0 
0.0754668 0.209244 0.0273938 -0.872507 0.478106 -0.100728 0 
0.0757708 0.209274 0.0274754 -0.839162 0.540166 -0.063466 0 
0.0754614 0.209099 0.0272236 -0.876628 0.479767 -0.0366961 0 
0.0755233 0.209209 0.0269516 -0.909414 0.414096 -0.0386135 0 
0.0758533 0.209421 0.0271126 -0.897706 0.440259 0.0171873 0 
0.0757193 0.20897 0.0266788 -0.868733 0.486094 0.0949512 0 
0.0755873 0.20912 0.0263788 -0.827096 0.48442 0.285044 0 
0.0755852 0.209319 0.0266795 -0.903276 0.414642 0.110292 0 
0.0759152 0.209531 0.0268406 -0.880112 0.45374 0.139723 0 
0.0754428 0.210039 0.0258359 -0.818595 0.208841 0.535059 0 
0.0756385 0.209475 0.0308343 0.594614 -0.7618 0.257088 0 
0.0759294 0.209415 0.0308762 0.489521 -0.85257 0.183012 0 
0.0759109 0.209179 0.0306663 0.57227 -0.779228 0.255562 0 
0.075937 0.209361 0.0307457 0.579901 -0.75339 0.31003 0 
0.0758759 0.209309 0.0303802 0.238347 -0.969444 0.0580431 0 
0.0758173 0.209543 0.0311231 0.690569 -0.71696 0.0953015 0 
0.0761213 0.209574 0.0312047 0.580458 -0.809167 0.0911942 0 
0.0764699 0.210022 0.0315757 0.301565 -0.944905 0.127328 0 
0.0761701 0.209593 0.0308928 0.456452 -0.866812 0.20072 0 
0.076232 0.209703 0.0306208 0.558309 -0.738409 0.37821 0 
0.0750197 0.209499 0.0287185 -0.899786 0.398785 0.177078 0 
0.0752625 0.209478 0.0284346 -0.698068 0.712521 -0.0708185 0 
0.0751229 0.209683 0.0282651 -0.699685 0.711226 -0.0678046 0 
0.0753189 0.209443 0.0279923 -0.80335 0.58143 -0.128714 0 
0.0757948 0.20928 0.0294678 -0.112319 -0.993074 0.034474 0 
0.0758175 0.209118 0.0290764 -0.44062 -0.867706 0.230085 0 
0.0757955 0.209339 0.0288302 -0.371818 -0.883632 0.284509 0 
0.0759186 0.2095 0.0289236 -0.471606 -0.854316 0.218476 0 
0.075314 0.209783 0.0292312 -0.322117 -0.94598 -0.0369225 0 
0.0753498 0.209711 0.0288796 -0.659481 -0.666027 0.348559 0 
0.0753986 0.209731 0.0285678 -0.774144 0.632887 0.0124639 0 
0.0756841 0.209526 0.0284394 -0.754288 0.655596 -0.0352471 0 
0.0759022 0.209065 0.028413 -0.922527 0.19981 0.330182 0 
0.0758987 0.209522 0.0283767 -0.786089 0.611725 0.0886348 0 
0.0757089 0.209164 0.0277475 -0.836036 0.536517 -0.114864 0 
0.0757742 0.209618 0.0279462 -0.815441 0.566563 -0.118583 0 
0.0762879 0.21036 0.0275917 -0.859714 0.498031 -0.113385 0 
0.0763877 0.2102 0.0266674 -0.87467 0.324008 0.360516 0 
0.0760328 0.210349 0.0271982 -0.872079 0.473987 0.121719 0 
0.0755398 0.210019 0.0258499 0.433905 0.476477 0.764655 0 
0.0755768 0.21049 0.0262697 -0.865963 0.191611 0.461946 0 
0.0765938 0.209442 0.0305971 0.660293 -0.485559 0.572926 0 
0.080502 0.209426 0.0457032 0.935364 -0.234192 -0.265043 0 
0.0800015 0.20915 0.0444853 0.755092 0.599958 -0.264361 0 
0.0807896 0.209022 0.0452743 0.331376 0.782815 -0.526679 0 
0.0806196 0.209443 0.0456265 0.935364 -0.234192 -0.265043 0 
0.0803666 0.209233 0.0449324 0.322326 0.76813 -0.553246 0 
0.0806204 0.209502 0.0449888 0.883319 -0.446687 -0.142193 0 
0.0806575 0.209172 0.0449743 0.322326 0.76813 -0.553246 0 
0.0803472 0.209739 0.0457946 0.941628 -0.188326 -0.279052 0 
0.080513 0.209716 0.0460436 0.871619 -0.39702 -0.287497 0 
0.0806382 0.209679 0.0458364 0.884529 -0.376938 -0.27482 0 
0.08083 0.209838 0.0461649 0.863168 -0.321572 -0.389272 0 
0.0808713 0.209911 0.0459836 0.866594 -0.360442 -0.345104 0 
0.0809228 0.210216 0.0467801 0.18008 -0.982789 0.0411947 0 
0.0809455 0.210053 0.0463888 0.0737977 -0.987483 0.139396 0 
0.0809147 0.209786 0.0455015 0.919162 -0.111289 -0.377832 0 
0.0787237 0.209293 0.0428188 0.40309 0.725562 -0.557745 0 
0.0790669 0.209596 0.0430196 0.172657 0.479602 -0.860332 0 
0.0800689 0.209405 0.0443834 0.935177 -0.318153 -0.155633 0 
0.0771639 0.209984 0.0417515 0.866829 0.486966 -0.107104 0 
0.0780716 0.210474 0.0425975 0.590527 0.0041104 -0.807008 0 
0.0782291 0.210822 0.0420023 0.76486 -0.319093 -0.559615 0 
0.078243 0.210171 0.04097 0.653486 0.72523 0.216789 0 
0.0783159 0.210571 0.0410383 0.933839 -0.223279 0.279449 0 
0.0785731 0.210008 0.0427434 0.638384 0.269045 -0.721167 0 
0.0788791 0.209839 0.0425243 0.432592 0.558558 -0.707727 0 
0.078941 0.20995 0.0422522 0.47199 0.606365 -0.639958 0 
0.0789781 0.210421 0.0426721 0.469483 0.146804 -0.870651 0 
0.0784953 0.210322 0.0423017 0.814241 -0.125155 -0.566876 0 
0.0789802 0.210222 0.0423714 0.50711 0.473857 -0.71993 0 
0.0791384 0.209453 0.0423165 0.43264 0.772222 -0.465292 0 
0.0793137 0.210778 0.0430033 -0.133473 -0.909021 -0.394799 0 
0.0786038 0.211452 0.0424528 -0.133473 -0.909021 -0.394799 0 
0.0796383 0.210846 0.0429942 -0.133473 -0.909021 -0.394799 0 
0.0799905 0.209236 0.0425327 0.133473 0.909021 0.394799 0 
0.0786928 0.210201 0.0407538 0.260995 0.798614 0.542307 0 
0.0806682 0.200792 0.0744404 -0.575891 0.806839 0.131759 0 
0.0805753 0.201215 0.0742597 -0.738925 0.625487 0.25051 0 
0.0807899 0.201211 0.0741969 -0.777097 0.612394 0.145238 0 
0.0810808 0.201151 0.0742387 -0.729462 0.68035 0.0707795 0 
0.0812169 0.201403 0.0743719 -0.875498 0.482801 0.0201728 0 
0.0812746 0.201912 0.0747011 -0.89251 0.372745 0.253942 0 
0.0812561 0.201676 0.0744911 -0.888606 0.453258 0.0702619 0 
0.0813978 0.201273 0.07436 -0.871548 0.490162 0.0120862 0 
0.0806241 0.201234 0.0739478 -0.699161 0.699161 0.149497 0 
0.0806021 0.201455 0.0737015 -0.776517 0.62033 0.11051 0 
0.0806372 0.201325 0.0739876 -0.790101 0.591447 0.16103 0 
0.0807067 0.201381 0.0735851 -0.75096 0.65472 0.0860323 0 
0.0807479 0.201454 0.0734036 -0.795587 0.596324 0.106957 0 
0.0810106 0.201411 0.0736667 -0.782578 0.618883 0.0674884 0 
0.080761 0.201545 0.0734433 -0.812655 0.575088 0.0941579 0 
0.0807252 0.201617 0.073795 -0.807722 0.581502 0.0971587 0 
0.0808573 0.201466 0.074095 -0.790101 0.591447 0.16103 0 
0.0809192 0.201576 0.0738229 -0.792239 0.604641 0.0822543 0 
0.0807871 0.201727 0.0735229 -0.830521 0.552261 0.0724044 0 
0.0810202 0.201959 0.07367 -0.849797 0.521756 0.0749405 0 
0.0811694 0.202302 0.073843 -0.824678 0.545328 0.150077 0 
0.0815368 0.201385 0.073555 -0.861432 0.505833 0.0454836 0 
0.0812788 0.201514 0.0740998 -0.836289 0.54079 0.0903708 0 
0.0813366 0.202022 0.074429 -0.888606 0.453258 0.0702619 0 
0.081221 0.201806 0.0742051 -0.842409 0.528486 0.105121 0 
0.0814391 0.201346 0.0741786 -0.886038 0.462574 0.0310181 0 
0.081501 0.201456 0.0739066 -0.889364 0.457199 -0.00131758 0 
0.0813407 0.201624 0.0738277 -0.824605 0.563316 0.0519768 0 
0.0813221 0.202189 0.0740522 -0.854823 0.510618 0.0924517 0 
0.0815347 0.201584 0.0738556 -0.905311 0.424406 -0.0170813 0 
0.0801998 0.201702 0.073269 -0.361705 0.891611 0.272395 0 
0.0802617 0.201812 0.072997 -0.473723 0.848436 0.2361 0 
0.0804887 0.202216 0.0719993 -0.796124 0.601038 0.0702884 0 
0.0808229 0.201655 0.0731713 -0.765414 0.627609 0.142298 0 
0.0809625 0.201451 0.0733408 -0.79926 0.59253 0.100453 0 
0.0810244 0.201561 0.0730688 -0.64458 0.739959 0.192297 0 
0.0808717 0.201674 0.0728595 -0.575851 0.790835 0.207306 0 
0.0809076 0.201603 0.0725079 -0.479382 0.863474 0.156862 0 
0.0810657 0.201634 0.0728873 -0.685725 0.707106 0.172577 0 
0.0810821 0.202069 0.0733979 -0.841233 0.535844 0.0721056 0 
0.080849 0.201837 0.0732508 -0.765414 0.627609 0.142298 0 
0.0812149 0.201978 0.0730603 -0.837148 0.539495 0.0901544 0 
0.0812768 0.202088 0.0727882 -0.8567 0.509503 0.0804479 0 
0.0812541 0.20225 0.0731795 -0.838175 0.539335 0.0811137 0 
0.0812665 0.201481 0.0734225 -0.79954 0.594973 0.0821149 0 
0.0815987 0.201495 0.0732829 -0.819446 0.566867 0.0846713 0 
0.0813078 0.201555 0.0732411 -0.824162 0.56043 0.0816996 0 
0.0816193 0.201531 0.0731922 -0.777416 0.618097 0.116539 0 
0.0814894 0.201483 0.0725916 -0.389618 0.890345 0.235549 0 
0.0813697 0.201665 0.0729689 -0.691039 0.700233 0.179272 0 
0.080891 0.201969 0.0724318 -0.7389 0.665158 0.107664 0 
0.0811015 0.201563 0.0725358 -0.252045 0.933552 0.254861 0 
0.0811688 0.201818 0.0724339 -0.848095 0.529549 0.017697 0 
0.0810293 0.202022 0.0722644 -0.834903 0.546713 0.0635713 0 
0.0807611 0.20192 0.0718312 -0.815007 0.575215 0.0699393 0 
0.0809942 0.202153 0.0719783 -0.879023 0.474372 0.0478473 0 
0.0812514 0.201965 0.0720711 -0.891515 0.449171 0.0587062 0 
0.0813202 0.201962 0.0723062 -0.934701 0.355414 -0.00379446 0 
0.0812459 0.20182 0.0719009 -0.890239 0.451292 0.0617269 0 
0.0813821 0.202072 0.0720341 -0.922077 0.381411 0.0655759 0 
0.081316 0.20236 0.0729074 -0.873073 0.481936 0.0740366 0 
0.0813778 0.20247 0.0726353 -0.937788 0.347095 0.00883515 0 
0.0813298 0.20251 0.0723095 -0.942486 0.334188 0.0062582 0 
0.0814598 0.201758 0.0724757 -0.89056 0.451417 0.0559157 0 
0.081512 0.202121 0.0726347 -0.937788 0.347095 0.00883515 0 
0.0815946 0.202268 0.0722719 -0.963805 0.266584 0.00361879 0 
0.0812746 0.201912 0.0747011 -0.89251 0.372745 0.253942 0 
0.0813344 0.202221 0.0747296 -0.881725 0.281851 0.378313 0 
0.0811467 0.202465 0.0742342 -0.902717 0.409814 0.130971 0 
0.0812086 0.202575 0.0739622 -0.937944 0.344472 0.0399949 0 
0.0813758 0.20267 0.072936 -0.942023 0.332857 0.0424103 0 
0.0814377 0.20278 0.0726639 -0.955378 0.29444 0.0236049 0 
0.0782 0.199923 0.0623913 0.133473 0.909021 0.394799 0 
0.0780225 0.200398 0.0628739 -0.67788 0.550673 -0.48707 0 
0.078321 0.200284 0.0627853 -0.585899 0.599406 -0.545375 0 
0.0781869 0.199832 0.0623515 0.133473 0.909021 0.394799 0 
0.0782695 0.199979 0.0619887 0.133473 0.909021 0.394799 0 
0.0780941 0.200255 0.0621707 0.133473 0.909021 0.394799 0 
0.0783478 0.200524 0.0622271 -0.518461 0.613033 -0.596145 0 
0.0793789 0.201711 0.0682345 -0.807617 -0.352038 0.473101 0 
0.0804612 0.202292 0.0715827 -0.828481 0.522534 0.20144 0 
0.0807652 0.202323 0.0716643 -0.875503 0.464348 0.133698 0 
0.08029 0.20217 0.0711636 -0.0431749 0.965885 0.255349 0 
0.0804991 0.202022 0.0709306 0.0348628 0.936131 0.349919 0 
0.080561 0.202132 0.0706585 0.286351 0.862116 0.418042 0 
0.0804289 0.202282 0.0703585 -0.538274 0.793993 0.282554 0 
0.0803972 0.202756 0.0705432 0.314347 0.531359 0.786666 0 
0.080759 0.202494 0.0705196 -0.980875 0.143632 -0.131356 0 
0.0808209 0.202605 0.0702475 -0.949306 0.313934 -0.0162595 0 
0.0810005 0.201555 0.0710764 0.0426666 0.971579 0.232838 0 
0.0810418 0.201629 0.070895 0.0646948 0.975305 0.211174 0 
0.0809358 0.201961 0.0706745 0.537255 0.782766 0.314063 0 
0.0812268 0.201901 0.0707164 -0.316754 0.930727 0.182796 0 
0.0811194 0.202115 0.0717711 -0.903742 0.424095 0.0582622 0 
0.081336 0.201913 0.0714077 -0.858678 0.499098 0.116504 0 
0.0813078 0.20193 0.0716288 -0.895944 0.439081 0.0670248 0 
0.0814103 0.202055 0.071813 -0.908409 0.416299 0.0385708 0 
0.0811366 0.201808 0.0712096 -0.447719 0.876355 0.17762 0 
0.0810809 0.201901 0.0710143 -0.430879 0.889139 0.154194 0 
0.0813719 0.201841 0.0710561 -0.412635 0.893319 0.178085 0 
0.081411 0.202114 0.0711754 -0.872133 0.48171 0.0856685 0 
0.0813697 0.20204 0.0713568 -0.853944 0.514066 0.0807211 0 
0.0814502 0.202386 0.0712946 -0.888443 0.450498 0.087868 0 
0.0814625 0.202418 0.0719719 -0.943739 0.330497 0.0113098 0 
0.0813916 0.20262 0.0720375 -0.961369 0.275196 -0.00606159 0 
0.0814438 0.202983 0.0721965 -0.910869 0.405886 0.0746614 0 
0.0815057 0.203093 0.0719244 -0.960997 0.275099 0.0283735 0 
0.081545 0.202565 0.0716092 -0.916964 0.397131 0.0382618 0 
0.0814872 0.202858 0.0717144 -0.980191 0.19789 0.00810075 0 
0.0819179 0.201792 0.0714914 -0.948707 0.313696 -0.0393707 0 
0.0812398 0.201991 0.0707561 -0.955647 0.293759 0.0210713 0 
0.0812081 0.202466 0.0709409 -0.940078 0.334337 0.0668675 0 
0.0814729 0.202224 0.0709033 -0.913478 0.398881 0.0803207 0 
0.0815568 0.202113 0.0708774 -0.904237 0.423058 0.0581198 0 
0.0814805 0.20217 0.0707728 -0.937202 0.346778 0.0373849 0 
0.0812047 0.202122 0.0704701 0.81304 0.456639 0.361174 0 
0.0810575 0.20238 0.070431 -0.965575 0.242984 -0.0928682 0 
0.0810761 0.202616 0.0706409 -0.959503 0.281633 0.00609595 0 
0.0816187 0.202223 0.0706054 -0.943824 0.319873 0.0829301 0 
0.0815424 0.20228 0.0705007 -0.971653 0.234786 0.0276927 0 
0.0816394 0.20226 0.0705147 -0.970126 0.237306 0.0504121 0 
0.0815512 0.202769 0.0711417 -0.939724 0.321308 0.116961 0 
0.0813552 0.203008 0.0714144 -0.922545 0.373638 0.0964664 0 
0.0816296 0.203314 0.0713802 -0.996469 0.0824147 -0.0160548 0 
0.0814453 0.203101 0.0709212 -0.928717 0.356573 0.101684 0 
0.0814811 0.203029 0.0705696 -0.938428 0.345472 0.00125626 0 
0.0814061 0.202828 0.070802 -0.950273 0.306498 0.055144 0 
0.0801691 0.202184 0.0691573 -0.816466 0.461343 0.347196 0 
0.0796699 0.201651 0.0682763 -0.807617 -0.352038 0.473101 0 
0.0802475 0.201929 0.0689613 0.133473 0.909021 0.394799 0 
0.080207 0.201914 0.0685051 0.133473 0.909021 0.394799 0 
0.0795674 0.201526 0.0680922 -0.807617 -0.352038 0.473101 0 
0.0799552 0.202246 0.0685825 0.133473 0.909021 0.394799 0 
0.0802517 0.20153 0.06836 -0.682681 -0.462354 0.565841 0 
0.0806104 0.203011 0.0701434 -0.82437 0.539069 0.172682 0 
0.0811029 0.202856 0.0700828 -0.937873 0.157914 -0.308962 0 
0.0806517 0.203084 0.0699621 -0.832623 0.435986 -0.341549 0 
0.0814091 0.201887 0.0694293 -0.343088 0.918223 0.197881 0 
0.0814744 0.202341 0.069628 -0.808045 0.584938 0.0700782 0 
0.0817653 0.202281 0.0696698 -0.89975 -0.0416925 -0.434409 0 
0.0811194 0.20249 0.0701589 -0.909998 0.404901 0.0892155 0 
0.0813286 0.202342 0.0699259 -0.745998 0.609786 0.267672 0 
0.081138 0.202726 0.0703688 -0.962381 0.244805 -0.117869 0 
0.0815837 0.202353 0.0703193 -0.966136 0.257556 0.0157194 0 
0.0817012 0.20237 0.0702426 -0.975 0.219465 -0.0347786 0 
0.0816195 0.202282 0.0699677 -0.946308 0.026532 -0.322174 0 
0.0817425 0.202443 0.0700612 -0.964715 0.141526 -0.222027 0 
0.0812824 0.202983 0.069734 -0.891695 0.147423 -0.427956 0 
0.081543 0.203139 0.0702975 -0.93486 0.350081 -0.0590024 0 
0.0814721 0.203341 0.0703631 -0.962995 0.23065 -0.139432 0 
0.0812294 0.203362 0.070647 -0.912062 0.397565 0.100423 0 
0.0813098 0.203708 0.0705848 -0.827824 0.560607 0.0206612 0 
0.0815079 0.20327 0.0700115 -0.941841 0.131074 -0.309443 0 
0.0813923 0.203855 0.070222 -0.793512 0.605463 -0.0612586 0 
0.0816441 0.203522 0.0701447 -0.940815 0.183204 -0.285137 0 
0.0818216 0.203047 0.069662 -0.924019 0.12256 -0.362171 0 
0.0819041 0.203194 0.0692992 -0.93799 0.201494 -0.282092 0 
0.0816668 0.20336 0.0697534 -0.91613 0.082791 -0.392239 0 
0.0819227 0.20343 0.0695091 -0.930473 0.141983 -0.337727 0 
0.081706 0.203632 0.0698726 -0.900092 0.140329 -0.412483 0 
0.0819639 0.203503 0.0693278 -0.944896 0.141532 -0.295196 0 
0.0819618 0.203702 0.0696284 -0.932974 0.132501 -0.334669 0 
0.0820237 0.203812 0.0693563 -0.941465 0.165337 -0.293781 0 
0.079421 0.201042 0.0669811 -0.927921 -0.352253 0.121987 0 
0.0793831 0.201313 0.0676333 -0.915099 -0.195583 0.35262 0 
0.0793666 0.201679 0.0675571 -0.915099 -0.195583 0.35262 0 
0.0795482 0.201606 0.0669077 -0.944596 -0.318359 0.0799172 0 
0.0792409 0.201232 0.0663553 -0.975963 -0.052003 0.21164 0 
0.0793192 0.201777 0.0665938 -0.921598 -0.387973 -0.0116005 0 
0.0792388 0.201431 0.0666559 -0.921598 -0.387973 -0.0116005 0 
0.0781743 0.201027 0.0641552 -0.875995 0.314265 0.365883 0 
0.0783538 0.201153 0.0638064 -0.941638 0.307557 0.136842 0 
0.07875 0.200703 0.0647064 -0.899805 0.180539 0.397185 0 
0.078891 0.200241 0.0652129 0.133473 0.909021 0.394799 0 
0.0789769 0.200731 0.0653209 -0.892458 0.165804 0.419556 0 
0.0789529 0.200351 0.0649408 0.133473 0.909021 0.394799 0 
0.078521 0.200873 0.0643924 -0.848104 0.34391 0.403044 0 
0.0784783 0.201057 0.0642368 -0.848104 0.34391 0.403044 0 
0.078787 0.201174 0.0651262 -0.847508 0.351177 0.398001 0 
0.0792862 0.201708 0.0660071 -0.979418 0.124429 0.158924 0 
0.0793688 0.201855 0.0656444 -0.856207 0.46359 0.22802 0 
0.0788858 0.202182 0.0673206 -0.892592 -0.432815 0.126297 0 
0.0795957 0.200708 0.0674367 0.0168495 -0.989628 0.142659 0 
0.079615 0.201002 0.067009 -0.927921 -0.352253 0.121987 0 
0.0795998 0.20111 0.0672698 0.229866 -0.973058 -0.0178652 0 
0.0796803 0.201456 0.0672077 0.229866 -0.973058 -0.0178652 0 
0.0815948 0.203393 0.0674352 -0.944239 0.315627 0.0937636 0 
0.0818197 0.202821 0.067916 -0.893365 0.424527 0.147227 0 
0.0819696 0.203222 0.0674513 -0.94599 0.316198 0.0715673 0 
0.0820259 0.202813 0.0686213 -0.940891 0.330299 -0.0750081 0 
0.0817591 0.203253 0.0689595 -0.952789 0.2008 -0.227753 0 
0.0820279 0.203414 0.0687551 -0.944429 0.300439 -0.133379 0 
0.0819909 0.202943 0.0683352 -0.946964 0.318211 0.0447284 0 
0.0820301 0.203215 0.0684545 -0.952405 0.303209 -0.0314533 0 
0.0820789 0.203235 0.0681426 -0.952786 0.295248 0.070911 0 
0.0820898 0.203524 0.068483 -0.972232 0.226813 -0.0576228 0 
0.0818339 0.204255 0.0691616 -0.954879 0.119524 -0.271884 0 
0.0820465 0.20365 0.068965 -0.952464 0.231023 -0.198599 0 
0.0820856 0.203923 0.0690842 -0.949754 0.197016 -0.243213 0 
0.0821084 0.20376 0.0686929 -0.976139 0.198683 -0.0876181 0 
0.0821475 0.204033 0.0688121 -0.982381 0.11808 -0.144862 0 
0.0818031 0.203186 0.0678399 -0.938883 0.324635 0.114498 0 
0.0820919 0.203325 0.0681823 -0.96697 0.25305 0.0305616 0 
0.082094 0.203126 0.0678817 -0.922545 0.373638 0.0964664 0 
0.082191 0.203106 0.0678957 -0.922545 0.373638 0.0964664 0 
0.0821517 0.203635 0.0682109 -0.96746 0.252954 0.00599417 0 
0.0817123 0.20341 0.0673585 -0.940078 0.334337 0.0668675 0 
0.0820424 0.203623 0.0675196 -0.950651 0.305795 0.0524585 0 
0.0819675 0.203422 0.0677519 -0.955416 0.291547 0.046698 0 
0.0822549 0.203818 0.0677574 -0.953366 0.299268 0.0391448 0 
0.0822158 0.203546 0.0676382 -0.942074 0.333625 0.0345129 0 
0.0821703 0.20387 0.0684208 -0.978622 0.2051 -0.015236 0 
0.0823292 0.20396 0.0681626 -0.962396 0.27132 0.0133835 0 
0.082327 0.20416 0.0684633 -0.990534 0.111853 -0.0795656 0 
0.0823147 0.204127 0.0677859 -0.950752 0.306735 0.0445466 0 
0.082098 0.20433 0.0681493 -0.964929 0.262509 -0.00119867 0 
0.081636 0.203467 0.0672538 -0.935448 0.347 0.0672889 0 
0.0816773 0.20354 0.0670725 -0.952284 0.30408 0.0262785 0 
0.0817392 0.203651 0.0668003 -0.963775 0.264638 -0.0332336 0 
0.0816484 0.203874 0.066319 -0.932664 0.329256 -0.147408 0 
0.0820239 0.204563 0.0661318 -0.925569 0.316083 -0.208359 0 
0.0818644 0.203613 0.0665932 -0.958155 0.276857 -0.0727228 0 
0.0819263 0.203723 0.0663211 -0.938336 0.320903 -0.128632 0 
0.0819414 0.203615 0.0660602 -0.924142 0.311845 -0.220712 0 
0.0823204 0.203847 0.0659094 -0.925004 0.305493 -0.225923 0 
0.0817743 0.20352 0.0670864 -0.952638 0.302484 0.0313781 0 
0.0821023 0.203932 0.0675481 -0.945932 0.320459 0.0501923 0 
0.0821043 0.203733 0.0672475 -0.950792 0.307646 0.036715 0 
0.0822962 0.203892 0.067576 -0.945932 0.320459 0.0501923 0 
0.0821848 0.204079 0.0671853 -0.945636 0.323674 0.0317328 0 
0.0818155 0.203594 0.066905 -0.953692 0.30058 -0.0111326 0 
0.0818774 0.203704 0.0666329 -0.964671 0.253463 -0.0718774 0 
0.0819035 0.203886 0.0667124 -0.964671 0.253463 -0.0718774 0 
0.0818808 0.204048 0.0671037 -0.950278 0.307405 0.0497461 0 
0.0821456 0.203806 0.0670661 -0.953472 0.30142 -0.00615143 0 
0.0821497 0.204209 0.0668993 -0.943402 0.324906 -0.066547 0 
0.0822075 0.203916 0.066794 -0.960293 0.27202 -0.0619952 0 
0.0824015 0.203876 0.0668219 -0.960293 0.27202 -0.0619952 0 
0.0822054 0.204115 0.0670946 -0.961777 0.273218 0.0183779 0 
0.0819103 0.204574 0.067654 -0.910588 0.397776 0.112264 0 
0.0823636 0.204147 0.0674741 -0.943635 0.325794 0.0584093 0 
0.0823766 0.204238 0.0675138 -0.941493 0.332825 0.0530966 0 
0.0821889 0.204481 0.0670185 -0.931149 0.364584 -0.00635163 0 
0.0822631 0.204624 0.0674238 -0.929325 0.367831 0.0324939 0 
0.0822446 0.204388 0.0672138 -0.941324 0.336641 0.0241365 0 
0.0821333 0.203774 0.0663887 -0.940597 0.327683 -0.0888858 0 
0.0823086 0.204299 0.0666411 -0.933986 0.334053 -0.126804 0 
0.0824242 0.203714 0.0664306 -0.940597 0.327683 -0.0888858 0 
0.0825212 0.203694 0.0664445 -0.940597 0.327683 -0.0888858 0 
0.0824654 0.203787 0.0662492 -0.935357 0.328124 -0.132066 0 
0.0821746 0.203847 0.0662073 -0.926836 0.344966 -0.148238 0 
0.0825274 0.203897 0.0659771 -0.924938 0.28931 -0.246555 0 
0.0820754 0.204867 0.0669284 -0.932938 0.35902 -0.027023 0 
0.0824282 0.204917 0.0666982 -0.94757 0.294533 -0.123944 0 
0.0825211 0.204495 0.0668789 -0.935685 0.342064 -0.0865143 0 
0.0825417 0.204531 0.0667883 -0.944193 0.310292 -0.110533 0 
0.0823127 0.204702 0.0664743 -0.938529 0.310111 -0.15164 0 
0.0824901 0.205027 0.0664261 -0.948972 0.24371 -0.200142 0 
0.0816646 0.203184 0.0716662 -0.997624 0.0665083 -0.0179467 0 
0.0819597 0.203901 0.069929 -0.916373 0.238113 -0.321813 0 
0.0818277 0.204051 0.069629 -0.926307 0.169055 -0.336712 0 
0.078065 0.201014 0.0634639 -0.98279 0.170764 0.0704552 0 
0.0780857 0.201051 0.0633732 -0.91779 0.382756 -0.105635 0 
0.0782556 0.20063 0.063021 -0.992918 0.117655 0.0164936 0 
0.077785 0.201365 0.0637624 -0.895144 -0.150384 0.419644 0 
0.0779721 0.201437 0.0632831 -0.960277 -0.142797 0.239742 0 
0.0786675 0.200931 0.0634569 -0.940595 0.337485 0.0372132 0 
0.0818788 0.204622 0.0657921 -0.921454 0.265942 -0.283192 0 
0.0823561 0.203775 0.0655579 -0.884306 0.0119681 -0.466754 0 
0.0826058 0.203642 0.0657811 -0.93183 0.2608 -0.252341 0 
0.0826099 0.204044 0.0656143 -0.928538 0.2736 -0.250918 0 
0.0825356 0.204703 0.0656434 -0.931312 0.232476 -0.28038 0 
0.0826903 0.20439 0.0655521 -0.935934 0.250422 -0.247624 0 
0.0827914 0.204773 0.0653993 -0.933986 0.334053 -0.126804 0 
0.0822219 0.204925 0.0659929 -0.933898 0.248571 -0.256997 0 
0.0827666 0.205134 0.0660912 -0.936768 0.216392 -0.275027 0 
0.0825747 0.204975 0.0657627 -0.937873 0.157914 -0.308962 0 
0.0826215 0.205194 0.0657515 -0.923484 0.241219 -0.298312 0 
0.0828285 0.205244 0.0658191 -0.904572 0.228692 -0.35979 0 
0.0828533 0.204883 0.0651272 -0.894051 0.430783 -0.122879 0 
0.0828773 0.205264 0.0655073 -0.872584 0.340781 -0.34995 0 
0.0829317 0.205428 0.0653656 -0.878982 0.347646 -0.326392 0 
0.0829392 0.205374 0.0652352 -0.876036 0.441711 -0.193526 0 
0.0831166 0.2057 0.065187 -0.915181 0.313735 -0.253012 0 
0.0831112 0.205555 0.0650168 -0.901143 0.410126 -0.140493 0 
0.0821437 0.204755 0.0641423 -0.150341 0.914691 0.37515 0 
0.0819559 0.204999 0.0636469 0.152476 0.63255 0.759362 0 
0.0823066 0.205248 0.0637173 -0.50626 0.466423 0.725362 0 
0.0818052 0.205714 0.0635714 0.257311 0.61723 0.743518 0 
0.0818169 0.206063 0.0632742 0.322677 0.627517 0.708592 0 
0.0823087 0.205049 0.0634167 -0.107448 0.625556 0.772745 0 
0.082145 0.205674 0.0633014 -0.339278 0.535448 0.773425 0 
0.0822199 0.205875 0.0630691 -0.258668 0.652224 0.712527 0 
0.0826244 0.205428 0.063201 -0.423341 0.595998 0.682326 0 
0.0824367 0.204496 0.0638835 -0.148419 0.850835 0.504035 0 
0.0824759 0.204769 0.0640027 -0.562406 0.777862 0.280411 0 
0.0825377 0.204879 0.0637306 -0.575446 0.632822 0.518071 0 
0.0828265 0.205018 0.0640731 -0.704945 0.660589 0.258216 0 
0.0830618 0.205051 0.0639196 -0.742942 0.616214 0.261376 0 
0.0832144 0.205738 0.0645633 -0.921208 0.388897 -0.0116282 0 
0.0833024 0.20603 0.0643707 -0.953201 0.297317 0.0548697 0 
0.0836057 0.205202 0.0646555 -0.871069 0.488514 -0.0509156 0 
0.0834344 0.20588 0.0646707 -0.965065 0.237101 -0.111502 0 
0.083418 0.205445 0.0641601 -0.831715 0.537302 0.139846 0 
0.0834702 0.205809 0.0643191 -0.914516 0.390359 0.106211 0 
0.0825584 0.204916 0.0636399 -0.504668 0.541554 0.672332 0 
0.0826203 0.205026 0.0633678 -0.340002 0.623066 0.704406 0 
0.0830432 0.204815 0.0637096 -0.695796 0.613551 0.373394 0 
0.0830693 0.204997 0.0637891 -0.720063 0.592705 0.360848 0 
0.0829373 0.205147 0.0634892 -0.555627 0.602914 0.572515 0 
0.0831443 0.205198 0.0635568 -0.613327 0.589673 0.525468 0 
0.0831835 0.205471 0.063676 -0.685586 0.599265 0.413344 0 
0.0829153 0.205368 0.0632429 -0.547928 0.649084 0.527697 0 
0.0830384 0.20553 0.0633363 -0.612503 0.639353 0.464831 0 
0.0833382 0.205959 0.0640191 -0.866268 0.438407 0.239542 0 
0.0832412 0.205979 0.0640052 -0.817773 0.491292 0.299798 0 
0.0832715 0.205762 0.0634835 -0.753136 0.53422 0.38392 0 
0.0833498 0.206307 0.0637219 -0.759639 0.504792 0.410041 0 
0.0834 0.206069 0.063747 -0.822849 0.442341 0.356726 0 
0.081702 0.206707 0.0628471 -0.0372614 0.851493 0.52304 0 
0.0816773 0.206267 0.0631047 0.445389 0.598857 0.665582 0 
0.0822819 0.205985 0.062797 -0.142792 0.735004 0.662857 0 
0.0824923 0.205579 0.062901 -0.301261 0.639575 0.707238 0 
0.0825934 0.205961 0.0627482 -0.215193 0.766336 0.605328 0 
0.082092 0.206428 0.0626023 -0.103695 0.908371 0.405103 0 
0.0825845 0.206273 0.0625416 -0.128577 0.897212 0.422467 0 
0.0821539 0.206538 0.0623302 -0.03282 0.920272 0.389901 0 
0.0824263 0.206242 0.0621621 -0.141851 0.929605 0.340167 0 
0.0823706 0.206335 0.0619668 -0.128632 0.938336 0.320903 0 
0.0824793 0.206664 0.0616835 -0.134439 0.969243 0.20614 0 
0.0830308 0.20676 0.0622889 -0.193251 0.91186 0.362167 0 
0.0828018 0.205754 0.0631528 -0.467283 0.648167 0.601271 0 
0.0829256 0.205975 0.0626086 -0.242426 0.816838 0.523456 0 
0.0829104 0.206083 0.0628695 -0.242751 0.772106 0.587302 0 
0.0831394 0.205913 0.0631834 -0.579999 0.610436 0.539416 0 
0.0833519 0.206108 0.0634212 -0.792794 0.490471 0.361823 0 
0.0834345 0.206255 0.0630585 -0.713963 0.578755 0.394081 0 
0.0832178 0.206458 0.0634219 -0.758554 0.52691 0.383355 0 
0.0832536 0.206386 0.0630703 -0.648785 0.628771 0.428632 0 
0.0832426 0.206096 0.06273 -0.628771 0.648785 0.428632 0 
0.0833024 0.206405 0.0627585 -0.566266 0.718151 0.404476 0 
0.0832434 0.206155 0.0620923 -0.397468 0.855252 0.332512 0 
0.083132 0.206342 0.0617016 -0.281646 0.934615 0.217189 0 
0.0834056 0.206589 0.062305 -0.26669 0.91828 0.292639 0 
0.0831125 0.206848 0.0625637 -0.202323 0.914043 0.351555 0 
0.0833045 0.206206 0.0624579 -0.529919 0.758191 0.379911 0 
0.0831972 0.206796 0.0619004 -0.103669 0.951392 0.290011 0 
0.083033 0.206135 0.0599416 -0.611233 0.677491 -0.409145 0 
0.0819931 0.206221 0.0608423 -0.891485 0.172499 -0.418926 0 
0.0819778 0.20713 0.0615377 -0.483054 0.873372 -0.0622849 0 
0.0824944 0.206556 0.0614226 -0.346832 0.933365 0.0923991 0 
0.0822819 0.20636 0.0611848 0.0755446 0.993356 0.08682 0 
0.0830969 0.206472 0.0614156 -0.359772 0.926106 0.11354 0 
0.0825378 0.20643 0.0609406 -0.637173 0.717019 -0.282656 0 
0.0826533 0.206646 0.0611645 -0.504968 0.856 -0.110776 0 
0.0826608 0.206592 0.061034 -0.571354 0.79312 -0.210985 0 
0.0829648 0.206622 0.0611156 -0.462458 0.885355 -0.0477464 0 
0.0831587 0.206582 0.0611435 -0.441734 0.893161 -0.0844695 0 
0.0829194 0.206947 0.0618982 -0.161559 0.934831 0.316213 0 
0.0829813 0.207057 0.0616262 -0.34099 0.934017 0.106475 0 
0.0828196 0.207482 0.0612103 -0.723357 0.664997 -0.185831 0 
0.0828733 0.206787 0.0612718 -0.394205 0.918949 0.0116323 0 
0.0830095 0.20704 0.061405 -0.394205 0.918949 0.0116323 0 
0.0832241 0.207036 0.0613422 -0.467762 0.883845 0.00397532 0 
0.08287 0.206443 0.060801 -0.683858 0.657991 -0.315254 0 
0.0829897 0.206261 0.0604236 -0.702497 0.603786 -0.376749 0 
0.0830268 0.206732 0.0608436 -0.738521 0.607157 -0.293166 0 
0.0830495 0.20657 0.0604522 -0.818609 0.379898 -0.430763 0 
0.0833238 0.206876 0.0604179 -0.853721 0.241964 -0.461101 0 
0.0833053 0.20664 0.060208 -0.818289 0.330798 -0.470081 0 
0.0829559 0.206934 0.060909 -0.728933 0.62366 -0.282322 0 
0.0830081 0.207297 0.061068 -0.859696 0.365795 -0.356535 0 
0.0832385 0.206869 0.061719 -0.273758 0.938004 0.212614 0 
0.0833067 0.206382 0.060545 -0.787854 0.451358 -0.419002 0 
0.0834518 0.206323 0.0608847 -0.745695 0.598792 -0.29221 0 
0.0833589 0.206746 0.060704 -0.848746 0.362858 -0.384661 0 
0.0833425 0.206311 0.0601935 -0.780973 0.440008 -0.443255 0 
0.0833829 0.207126 0.0610841 -0.884198 0.431138 -0.179763 0 
0.0834448 0.207237 0.060812 -0.890184 0.166457 -0.424104 0 
0.0837977 0.207287 0.0605818 -0.882662 0.0649219 -0.465504 0 
0.0827411 0.205812 0.0658085 -0.905004 0.268421 -0.330026 0 
0.0829454 0.206753 0.0635899 -0.247137 0.862705 0.441207 0 
0.084459 0.204942 0.0569163 -0.196032 0.742451 -0.640576 0 
0.084653 0.204902 0.0569442 -0.125206 0.578892 -0.805735 0 
0.084622 0.205435 0.0564914 -0.109841 0.804033 -0.584352 0 
0.0830819 0.206155 0.0596298 -0.689074 0.609756 -0.391632 0 
0.0833858 0.206986 0.0601459 -0.84869 0.20652 -0.486904 0 
0.0830281 0.207651 0.0600027 -0.830838 0.0875322 -0.549587 0 
0.0836789 0.205926 0.0594526 -0.652983 0.592553 -0.471692 0 
0.0836059 0.206327 0.0598188 -0.769561 0.526542 -0.361289 0 
0.0834271 0.206259 0.05953 -0.66459 0.661324 -0.347808 0 
0.0837648 0.206417 0.0595606 -0.787895 0.519403 -0.33082 0 
0.0841176 0.206467 0.0593304 -0.705185 0.535141 -0.465122 0 
0.0834663 0.206531 0.0596492 -0.796274 0.461678 -0.390898 0 
0.0837551 0.20667 0.0599917 -0.833823 0.343893 -0.431829 0 
0.0839979 0.206649 0.0597078 -0.817948 0.443121 -0.366885 0 
0.0838431 0.206962 0.0597991 -0.817415 0.377636 -0.434999 0 
0.0835707 0.207258 0.0599672 -0.852377 0.258621 -0.454499 0 
0.0839236 0.207308 0.059737 -0.804501 0.247419 -0.539965 0 
0.0836849 0.207731 0.0598541 -0.868154 0.00401304 -0.496279 0 
0.084198 0.206813 0.0592683 -0.694827 0.55153 -0.461552 0 
0.084099 0.207032 0.0595549 -0.777808 0.300625 -0.551941 0 
0.083546 0.20837 0.0574347 0.133473 0.909021 0.394799 0 
0.0846597 0.20559 0.0578858 -0.161636 0.771925 -0.614821 0 
0.081877 0.208248 0.0552416 0.672855 0.636662 0.376733 0 
0.0819326 0.208955 0.0558714 0.526883 0.66155 0.533616 0 
0.0825875 0.208434 0.0555889 0.546897 0.766301 0.337173 0 
0.0823521 0.209202 0.0561769 0.155686 0.523403 0.837741 0 
0.0828014 0.208747 0.0545515 0.514908 0.787601 0.33846 0 
0.082822 0.208784 0.0544608 0.482057 0.80661 0.342054 0 
0.0827525 0.208728 0.0548633 0.535129 0.698501 0.475114 0 
0.082606 0.209045 0.0541866 0.516295 0.855928 0.0287592 0 
0.0827627 0.210135 0.0546635 0.153468 0.558742 -0.815018 0 
0.0830949 0.210148 0.0545239 0.326576 0.767374 -0.551802 0 
0.0827415 0.208063 0.0561352 0.0978378 0.991039 0.0909316 0 
0.0827773 0.207991 0.0557836 0.20957 0.939594 0.270636 0 
0.083029 0.207659 0.0557062 -0.498507 0.855209 0.141804 0 
0.0830943 0.208113 0.0559049 0.120312 0.936812 0.328493 0 
0.0831301 0.208041 0.0555534 -0.506899 0.82737 0.241894 0 
0.0831562 0.208223 0.0556328 -0.0467323 0.956117 0.289235 0 
0.0834059 0.20809 0.0558561 -0.766894 0.630426 0.120152 0 
0.0827524 0.208353 0.0564755 0.0199811 0.998002 0.0599432 0 
0.0833735 0.208505 0.0566785 -0.904711 0.393042 0.164363 0 
0.0838019 0.20844 0.0571905 0.133473 0.909021 0.394799 0 
0.0830083 0.208423 0.0562314 0.332426 0.931068 0.15035 0 
0.0830661 0.20813 0.056126 -0.00110208 0.990769 0.135556 0 
0.0829175 0.208647 0.05575 0.532343 0.736711 0.416975 0 
0.0831693 0.208314 0.0556726 -0.227781 0.929515 0.290031 0 
0.0832476 0.208859 0.055911 0.779685 0.437861 0.447627 0 
0.0834614 0.208797 0.0564859 -0.86159 0.493365 0.119386 0 
0.0829685 0.208467 0.0551375 0.589462 0.643202 0.488699 0 
0.0832181 0.208333 0.0553608 -0.461681 0.865466 0.19447 0 
0.0833158 0.208372 0.0547371 0.911597 -0.398565 0.100676 0 
0.0830868 0.208542 0.0544231 0.376076 0.872435 0.312128 0 
0.0832161 0.208907 0.0540492 0.346916 0.933593 0.0897428 0 
0.0836336 0.208552 0.0542208 0.738161 -0.656312 0.15612 0 
0.0842415 0.208614 0.054384 0.641421 -0.763045 0.0796347 0 
0.0829402 0.208484 0.0553586 0.450863 0.779652 0.434587 0 
0.0831734 0.208717 0.0555058 0.728385 0.486143 0.482825 0 
0.0832146 0.20879 0.0553244 0.649805 0.613055 0.449351 0 
0.0834251 0.208384 0.0554284 -0.709796 0.701123 0.0679438 0 
0.0835221 0.208364 0.0554423 -0.709796 0.701123 0.0679438 0 
0.0832724 0.208498 0.0552191 0.405822 0.787392 0.464028 0 
0.0833095 0.208969 0.0556389 0.890752 0.270061 0.365552 0 
0.0833116 0.20877 0.0553383 0.834079 0.411521 0.367373 0 
0.0835447 0.209002 0.0554854 0.869601 0.277726 0.408242 0 
0.083064 0.208705 0.0548145 0.476088 0.721597 0.50263 0 
0.0836459 0.208584 0.0548981 0.94113 -0.2844 0.18273 0 
0.0833941 0.208917 0.0549756 0.845451 0.319185 0.428175 0 
0.0833941 0.208917 0.0549756 0.845451 0.319185 0.428175 0 
0.0836273 0.209149 0.0551227 0.91419 0.223149 0.338322 0 
0.0831053 0.208778 0.0546331 0.745528 0.556291 0.367054 0 
0.0831672 0.208888 0.054361 0.609118 0.731263 0.30697 0 
0.0836108 0.208714 0.0546121 0.963358 -0.0985107 0.249475 0 
0.0834354 0.20899 0.0547942 0.908254 0.221631 0.3549 0 
0.0834952 0.2093 0.0548227 0.881621 0.262834 0.391998 0 
0.0837119 0.209097 0.0544593 0.889978 0.178576 0.419582 0 
0.0837511 0.20937 0.0545785 0.847508 0.248908 0.468802 0 
0.0831878 0.209726 0.0547047 0.640165 0.656706 0.398655 0 
0.0835138 0.209535 0.0550326 0.880276 0.151772 0.449533 0 
0.0833728 0.209997 0.0545261 0.772297 -0.0323549 0.634437 0 
0.0840606 0.208744 0.0543958 0.727483 -0.673706 0.129961 0 
0.080773 0.210399 0.0559716 0.29713 0.727567 -0.618352 0 
0.080883 0.21047 0.0560253 0.098582 0.681246 -0.725387 0 
0.0808643 0.211035 0.0562498 0.0425028 0.494952 -0.86788 0 
0.0801319 0.21107 0.0556562 0.718786 0.532865 -0.446544 0 
0.080037 0.210891 0.0553417 0.704652 0.616366 -0.351509 0 
0.080328 0.210831 0.0553835 0.612419 0.685051 -0.394523 0 
0.0809132 0.211054 0.055938 0.143553 0.543135 -0.827282 0 
0.0808127 0.211531 0.0558877 0.254706 0.354822 -0.89957 0 
0.0808313 0.211767 0.0560976 0.532432 0.249917 -0.808738 0 
0.0856337 0.204991 0.0574241 0.113025 0.86557 -0.487867 0 
0.085807 0.204915 0.0575426 0.0703649 0.791246 -0.607436 0 
0.0850745 0.204949 0.0569491 -0.0484164 0.504913 -0.861811 0 
0.0856749 0.205065 0.0572426 0.113025 0.86557 -0.487867 0 
0.0851419 0.205204 0.0568471 0.104207 0.86078 -0.498196 0 
0.0859528 0.204914 0.0572448 0.0456148 0.855623 -0.515585 0 
0.085895 0.205206 0.05735 0.00686604 0.797834 -0.602838 0 
0.0862437 0.204854 0.0572866 -0.0851213 0.592964 -0.800717 0 
0.0862774 0.204981 0.0572356 -0.122023 0.475173 -0.87139 0 
0.0865553 0.20483 0.0572378 -0.241383 0.415299 -0.877075 0 
0.0868668 0.204807 0.0571889 -0.256328 0.435303 -0.863022 0 
0.0867513 0.204591 0.056965 -0.237899 0.498821 -0.833415 0 
0.086785 0.204719 0.056914 -0.256328 0.435303 -0.863022 0 
0.0869493 0.204954 0.0568261 -0.256328 0.435303 -0.863022 0 
0.0874081 0.204672 0.0568164 -0.00136187 0.570625 -0.82121 0 
0.087102 0.20484 0.0570354 -0.115157 0.546629 -0.829419 0 
0.0874473 0.204944 0.0569356 -0.0149662 0.534701 -0.844909 0 
0.0880161 0.204733 0.0569796 0.21827 0.859531 -0.46213 0 
0.0852849 0.205344 0.0574875 0.078665 0.825267 -0.559237 0 
0.0853626 0.20583 0.0583636 0.194736 0.866651 -0.45934 0 
0.0853262 0.205417 0.0573061 0.0790554 0.80924 -0.582135 0 
0.0865703 0.205523 0.0574113 -0.23845 0.358407 -0.9026 0 
0.0870441 0.205934 0.0575752 -0.370074 0.404719 -0.83621 0 
0.0873 0.206004 0.0573309 -0.149379 0.408302 -0.900542 0 
0.0871452 0.206316 0.0574223 0.133473 0.909021 0.394799 0 
0.0888063 0.204406 0.0574679 0.304041 0.712647 -0.632213 0 
0.0886557 0.204321 0.056958 0.308018 0.72086 -0.620875 0 
0.0891014 0.203948 0.0569085 0.50184 0.662965 -0.555548 0 
0.0893662 0.203706 0.0568708 0.498017 0.551676 -0.669054 0 
0.0892898 0.204564 0.0572006 0.491836 0.673127 -0.552266 0 
0.0894445 0.204251 0.0571093 0.527104 0.658459 -0.537208 0 
0.0907067 0.202932 0.0571931 -0.133473 -0.909021 -0.394799 0 
0.0898731 0.203385 0.0571869 0.324008 0.360516 -0.87467 0 
0.089935 0.203495 0.0569148 0.324008 0.360516 -0.87467 0 
0.0901998 0.203253 0.0568771 -0.304401 -0.652287 -0.694162 0 
0.090177 0.203416 0.0572685 0.277611 0.318739 -0.906277 0 
0.0882766 0.20489 0.0575431 0.302249 0.860718 -0.409647 0 
0.0883592 0.205037 0.0571804 0.322341 0.691657 -0.646302 0 
0.0870112 0.205064 0.056554 -0.263694 0.440506 -0.858149 0 
0.0874961 0.204964 0.0566237 -0.0149662 0.534701 -0.844909 0 
0.0877685 0.204668 0.0564557 0.094001 0.811301 -0.577022 0 
0.0885402 0.204105 0.0567341 0.371263 0.773329 -0.513932 0 
0.0888463 0.203936 0.056515 0.522117 0.698936 -0.488755 0 
0.0884473 0.204528 0.0565533 0.371263 0.773329 -0.513932 0 
0.0886825 0.204561 0.0563998 0.371263 0.773329 -0.513932 0 
0.0889735 0.204501 0.0564416 0.3397 0.713533 -0.61276 0 
0.0891763 0.204149 0.0566761 0.50184 0.662965 -0.555548 0 
0.0892603 0.204038 0.0566503 0.506207 0.573477 -0.644111 0 
0.0894748 0.204035 0.0565875 0.498017 0.551676 -0.669054 0 
0.0904983 0.203139 0.0567885 -0.133473 -0.909021 -0.394799 0 
0.0899969 0.203605 0.0566427 0.374992 0.347214 -0.859548 0 
0.0902204 0.20329 0.0567864 -0.304401 -0.652287 -0.694162 0 
0.0899184 0.204662 0.0572731 0.545805 0.555944 -0.626916 0 
0.0911736 0.203455 0.0568498 -0.133473 -0.909021 -0.394799 0 
0.0887677 0.204993 0.0571455 0.308018 0.72086 -0.620875 0 
0.0824617 0.209163 0.0532093 0.417323 0.90875 -0.00390021 0 
0.08282 0.209358 0.0531492 0.163997 0.92371 -0.346216 0 
0.0824844 0.209001 0.0528179 0.40137 0.873927 -0.274143 0 
0.0827175 0.209233 0.052965 0.190399 0.847052 -0.496237 0 
0.0830271 0.208608 0.0527824 0.43431 0.762091 -0.480199 0 
0.0830662 0.208881 0.0529016 0.174654 0.776073 -0.605975 0 
0.0822099 0.209496 0.0532866 0.502469 0.863918 0.0342281 0 
0.0834046 0.208722 0.0539069 -0.179338 0.982203 -0.0558205 0 
0.0834664 0.208833 0.0536348 -0.310799 0.940539 -0.137077 0 
0.0836824 0.208571 0.053909 0.77305 0.573859 0.27033 0 
0.0835634 0.208813 0.0536487 -0.249068 0.954983 -0.161162 0 
0.0832953 0.20871 0.0532155 -0.0330893 0.911941 -0.408984 0 
0.0834892 0.20867 0.0532435 -0.864786 -0.143889 -0.481083 0 
0.0833007 0.208855 0.0533857 -0.11496 0.987236 -0.11022 0 
0.0835284 0.208943 0.0533627 -0.183708 0.960831 -0.207497 0 
0.0836274 0.208724 0.053076 0.0124953 0.770546 -0.637262 0 
0.0836047 0.208886 0.0534673 -0.200771 0.946493 -0.252671 0 
0.0839162 0.208863 0.0534185 -0.233813 0.861337 -0.451033 0 
0.0833201 0.208349 0.0525237 0.554234 0.81872 -0.150074 0 
0.0835436 0.208034 0.0526674 -0.672448 0.166206 -0.721242 0 
0.0837767 0.208266 0.0528145 -0.864362 -0.239849 -0.441986 0 
0.0838159 0.208539 0.0529337 -0.16591 0.646896 -0.744311 0 
0.0839803 0.208774 0.0528458 -0.332784 0.602258 -0.725631 0 
0.0838812 0.208993 0.0531325 -0.237193 0.798394 -0.55345 0 
0.0837759 0.209008 0.0538865 -0.444978 0.87061 -0.209839 0 
0.0839327 0.209297 0.053929 -0.545818 0.786295 -0.289521 0 
0.0836603 0.209593 0.0540971 0.863837 0.0568496 0.500554 0 
0.0837738 0.209207 0.0541871 0.87499 0.127872 0.466949 0 
0.0836645 0.209195 0.0534959 -0.331938 0.894596 -0.299191 0 
0.0837037 0.209468 0.0536151 -0.319642 0.902953 -0.287236 0 
0.0837222 0.209703 0.053825 -0.293203 0.932919 -0.20903 0 
0.0839609 0.20928 0.0537079 -0.442151 0.838994 -0.317162 0 
0.0843137 0.20933 0.0534777 -0.243978 0.0713167 -0.967155 0 
0.0842855 0.209347 0.0536988 -0.572097 0.455342 -0.682179 0 
0.0835138 0.20991 0.0534204 -0.0819215 0.890028 -0.448485 0 
0.0816367 0.209945 0.0471638 -0.0185209 -0.994681 0.10132 0 
0.0818657 0.209775 0.0474777 0.116878 -0.984424 -0.131337 0 
0.0817337 0.209925 0.0471777 -0.0703465 -0.983659 0.165732 0 
0.0819406 0.209976 0.0472454 -0.388954 -0.763262 0.515893 0 
0.0822164 0.210024 0.0475481 -0.359851 -0.747384 0.558502 0 
0.082757 0.20983 0.0478132 0.18544 -0.921535 -0.341152 0 
0.0825073 0.209964 0.0475899 0.318988 -0.910353 -0.263638 0 
0.0836069 0.209437 0.0499422 -0.357781 -0.895196 -0.265738 0 
0.0836468 0.209768 0.0494239 -0.119541 -0.924727 -0.361372 0 
0.083675 0.209751 0.0492027 -0.0250388 -0.910622 -0.412481 0 
0.0837851 0.209822 0.0492564 -0.0250388 -0.910622 -0.412481 0 
0.0826008 0.210401 0.0475675 0.360738 -0.882978 -0.300363 0 
0.082706 0.21001 0.0484256 0.220847 -0.881905 -0.416497 0 
0.082997 0.20995 0.0484675 0.102962 -0.915674 -0.388509 0 
0.0830458 0.209969 0.0481556 0.156796 -0.92829 -0.337182 0 
0.0830361 0.210222 0.0485867 0.102769 -0.919441 -0.379561 0 
0.0832789 0.210202 0.0483028 0.0843971 -0.931048 -0.355004 0 
0.0834756 0.209646 0.0490046 0.0140925 -0.928826 -0.370249 0 
0.0835375 0.209756 0.0487326 -0.0114975 -0.931294 -0.364086 0 
0.0837369 0.209861 0.0489306 0.113364 -0.927399 -0.356482 0 
0.0838545 0.209878 0.0488539 0.0597128 -0.924886 -0.375527 0 
0.0835657 0.209739 0.0485114 0.0996566 -0.921482 -0.375419 0 
0.0838903 0.209806 0.0485023 0.155072 -0.903401 -0.399773 0 
0.0829158 0.210721 0.0479895 0.0994064 -0.921893 -0.374476 0 
0.0832479 0.210735 0.0478499 0.108264 -0.890012 -0.442897 0 
0.0833367 0.209909 0.0481975 0.0475453 -0.944481 -0.325107 0 
0.0837026 0.21005 0.048007 0.169604 -0.90788 -0.38339 0 
0.0836874 0.210158 0.0482679 0.209512 -0.892257 -0.399977 0 
0.0839784 0.210098 0.0483097 0.206465 -0.891752 -0.402679 0 
0.0837645 0.21016 0.0477349 0.211835 -0.88141 -0.422188 0 
0.0840555 0.2101 0.0477767 0.231372 -0.879215 -0.41647 0 
0.0844426 0.208785 0.0496479 -0.369784 -0.901805 -0.223624 0 
0.0838009 0.209397 0.0499701 -0.357781 -0.895196 -0.265738 0 
0.0838422 0.209471 0.0497888 -0.355159 -0.904705 -0.235311 0 
0.083904 0.209581 0.0495167 -0.227787 -0.894982 -0.383564 0 
0.0840347 0.209688 0.0494797 -0.214056 -0.866701 -0.450565 0 
0.084076 0.209762 0.0492983 -0.0865323 -0.905156 -0.416179 0 
0.0840836 0.209708 0.0491678 -0.118291 -0.911536 -0.393839 0 
0.0840485 0.209838 0.0488818 0.141641 -0.891337 -0.430646 0 
0.0840897 0.209911 0.0487004 0.184337 -0.895559 -0.404961 0 
0.0841516 0.210021 0.0484283 0.245205 -0.887196 -0.390842 0 
0.0843497 0.210384 0.0482894 0.309842 -0.871526 -0.380053 0 
0.0847156 0.210525 0.0480989 0.610025 -0.764462 -0.20849 0 
0.0847678 0.210888 0.0482579 0.658615 -0.734668 -0.162753 0 
0.0926516 0.209471 0.0365776 -0.133473 -0.909021 -0.394799 0 
0.0813954 0.209283 0.0457381 0.865518 -0.413678 -0.2824 0 
0.08122 0.209559 0.0459201 0.855276 -0.409852 -0.317055 0 
0.0811395 0.210013 0.0464167 0.0737977 -0.987483 0.139396 0 
0.0813685 0.209843 0.0467307 0.0195397 -0.985032 0.17126 0 
0.0816594 0.209783 0.0467725 -0.0561447 -0.964441 0.258266 0 
0.0818313 0.209964 0.0465541 0.0522104 -0.987357 0.14967 0 
0.0835623 0.210571 0.0468628 0.11118 -0.890844 -0.440496 0 
0.0841173 0.21021 0.0475046 0.279253 -0.862175 -0.422695 0 
0.0841792 0.21032 0.0472326 0.349902 -0.836312 -0.422079 0 
0.0838793 0.210692 0.0469842 0.233407 -0.899866 -0.36846 0 
0.0842672 0.210612 0.04704 0.38387 -0.829349 -0.405986 0 
0.0834564 0.210903 0.0466423 -0.0383661 -0.914172 -0.403506 0 
0.08338 0.210959 0.0465377 -0.118161 -0.910535 -0.396187 0 
0.083541 0.210851 0.0459789 0.0794353 -0.922257 -0.378327 0 
0.0834213 0.211033 0.0463563 0.0741728 -0.866282 -0.494019 0 
0.0835183 0.211013 0.0463702 0.0741728 -0.866282 -0.494019 0 
0.0837329 0.21101 0.0463074 0.224517 -0.829338 -0.511654 0 
0.0837473 0.210843 0.0466842 0.138848 -0.88605 -0.442309 0 
0.0840774 0.211055 0.0468452 0.359489 -0.821916 -0.441839 0 
0.0838092 0.210953 0.0464121 0.285703 -0.797126 -0.531944 0 
0.0840238 0.210949 0.0463493 0.441616 -0.671589 -0.594931 0 
0.0844942 0.210641 0.0476545 0.404719 -0.83621 -0.370074 0 
