0.0745392 0.215896 0.0426977 0.175872 0.714195 -0.677491 1 
0.0748652 0.215945 0.0432088 -0.251274 0.0132249 -0.967826 1 
0.0749176 0.216063 0.0427923 0.430834 0.877954 -0.208755 1 
0.0748676 0.215839 0.042435 0.384634 0.874168 -0.296457 1 
0.0747056 0.215398 0.0416421 0.424222 0.724644 -0.543071 1 
0.0751459 0.21556 0.0418151 0.389262 0.808959 -0.440522 1 
0.0752814 0.215321 0.0416931 0.35944 0.803548 -0.474461 1 
0.0751504 0.215306 0.0425606 0.343664 0.894121 -0.28713 1 
0.0750031 0.215601 0.042313 0.375131 0.876318 -0.302231 1 
0.0751386 0.215363 0.042191 0.334272 0.871551 -0.358694 1 
0.0753242 0.215348 0.0424262 0.332824 0.893999 -0.29999 1 
0.0755907 0.215296 0.0420851 0.348484 0.845425 -0.404741 1 
0.0756477 0.21516 0.0424141 0.240955 0.894341 -0.376954 1 
0.0751601 0.215397 0.041411 0.380451 0.781948 -0.493776 1 
0.0753456 0.215382 0.0416462 0.347967 0.811923 -0.468722 1 
0.0755313 0.215367 0.0418815 0.152061 0.922132 -0.355739 1 
0.0756525 0.215291 0.0421636 0.233158 0.886593 -0.399487 1 
0.0758715 0.215254 0.0419885 -0.132007 0.960645 -0.244409 1 
0.074679 0.214718 0.0407271 0.343898 0.464341 -0.816163 1 
0.0750787 0.214534 0.0410378 0.465147 0.468434 -0.751138 1 
0.0765261 0.21546 0.0405924 0.635056 0.746307 -0.199324 1 
0.0767785 0.215742 0.041304 0.153094 0.944307 -0.291285 1 
0.0773445 0.215232 0.0412077 0.675246 0.717925 -0.169193 1 
0.0774873 0.215191 0.0407098 0.303308 0.932289 -0.197081 1 
0.0777013 0.215022 0.0407853 0.0986127 0.690289 -0.716782 1 
0.0785448 0.217379 0.0449882 -0.620627 0.0497069 -0.782529 1 
0.0750007 0.215707 0.0430868 0.407666 0.897442 -0.16854 1 
0.0751935 0.215889 0.0429461 0.222476 0.814721 -0.535476 1 
0.0758951 0.21514 0.0427278 0.0814064 0.932837 -0.350982 1 
0.0766236 0.215799 0.0437253 0.830816 0.0205987 -0.556166 1 
0.076088 0.215322 0.0425872 -0.0107834 0.969306 -0.245621 1 
0.0762809 0.215504 0.0424466 -0.0470546 0.998603 -0.0240501 1 
0.0771665 0.216473 0.0444876 -0.620627 0.0497069 -0.782529 1 
0.0773727 0.214865 0.0426925 0.555428 0.825166 -0.102964 1 
0.0776225 0.214911 0.0428808 0.567899 0.740384 -0.359615 1 
0.0767883 0.216519 0.0427484 -0.496082 0.761315 -0.417495 1 
0.0766667 0.216039 0.0428139 -0.0353332 0.708077 -0.705251 1 
0.0769739 0.216333 0.0423352 0.304332 0.808924 -0.503015 1 
0.0770711 0.215815 0.0422255 0.431281 0.892454 -0.132374 1 
0.0773731 0.215593 0.0429934 0.655439 0.632208 -0.413175 1 
0.0773519 0.215944 0.0427773 0.678813 0.642827 -0.354945 1 
0.0773024 0.216791 0.0440181 -0.620627 0.0497069 -0.782529 1 
0.0773166 0.216628 0.0436139 -0.620627 0.0497069 -0.782529 1 
0.0774452 0.216749 0.0435202 -0.620627 0.0497069 -0.782529 1 
0.0772518 0.215497 0.0420628 0.565725 0.815525 -0.121961 1 
0.0770878 0.215718 0.0416961 0.494554 0.850989 -0.176732 1 
0.077209 0.21547 0.0413297 0.634645 0.758257 -0.149239 1 
0.0773421 0.215338 0.0419815 0.619379 0.782449 -0.0643696 1 
0.0773185 0.215623 0.0418907 0.692892 0.716231 -0.083147 1 
0.0774256 0.21571 0.0425769 0.724132 0.648734 -0.234047 1 
0.0773039 0.21523 0.0426424 0.581409 0.812284 -0.0464564 1 
0.0775012 0.214987 0.0425987 0.563392 0.822981 -0.0727418 1 
0.0775086 0.215183 0.0422229 0.714003 0.690252 -0.117269 1 
0.0777584 0.215229 0.0424113 0.635109 0.748906 -0.189149 1 
0.0774609 0.215026 0.0417404 0.763418 0.636917 -0.107379 1 
0.0774727 0.214797 0.0414615 0.74118 0.660972 -0.117341 1 
0.0774206 0.215236 0.0415304 0.783831 0.599578 -0.161599 1 
0.0774658 0.215157 0.0414898 0.481812 0.875899 -0.0256427 1 
0.07748 0.214994 0.0410856 0.387984 0.921622 -0.00902287 1 
0.0776013 0.214918 0.0413678 0.674173 0.736887 -0.049886 1 
0.07797 0.214995 0.042612 0.424506 0.775821 -0.466794 1 
0.0779725 0.21506 0.0424868 0.395496 0.854582 -0.33656 1 
0.0779724 0.214889 0.0418382 0.574448 0.818485 0.00959698 1 
0.0778724 0.214957 0.0430692 0.45517 0.685256 -0.568546 1 
0.0788149 0.215275 0.0434937 0.339808 0.710507 -0.616206 1 
0.0788621 0.214534 0.0430268 0.306967 0.836758 -0.453439 1 
0.0789052 0.215116 0.0434124 0.347808 0.66459 -0.661324 1 
0.0790908 0.215102 0.0436476 0.520038 0.644578 -0.560429 1 
0.0790549 0.214716 0.0428862 0.183204 0.940815 -0.285137 1 
0.0790078 0.215457 0.0433531 0.412798 0.697944 -0.585212 1 
0.0790721 0.215518 0.0433063 0.412798 0.697944 -0.585212 1 
0.0791289 0.215038 0.0423382 0.259947 0.965344 -0.0231878 1 
0.0793146 0.215023 0.0425735 0.121015 0.981569 -0.147908 1 
0.0792743 0.215406 0.0430121 0.473791 0.776627 -0.415178 1 
0.0792861 0.215349 0.0433818 0.725263 0.612193 -0.314981 1 
0.0792478 0.214897 0.0427456 0.216622 0.934968 -0.28091 1 
0.078354 0.216706 0.0453511 -0.620627 0.0497069 -0.782529 1 
0.0783682 0.216544 0.0449469 -0.620627 0.0497069 -0.782529 1 
0.0787584 0.216482 0.0447628 -0.620627 0.0497069 -0.782529 1 
0.0790868 0.216426 0.0445001 -0.620627 0.0497069 -0.782529 1 
0.0790367 0.216202 0.0441428 -0.714923 0.432935 -0.549047 1 
0.0791653 0.216323 0.0440491 -0.714923 0.432935 -0.549047 1 
0.078915 0.215722 0.0442083 0.889837 0.435635 -0.135689 1 
0.0797068 0.214815 0.0439085 0.555471 0.726893 -0.403829 1 
0.07999 0.214837 0.0436865 0.556832 0.765443 -0.322545 1 
0.0801187 0.214959 0.0435928 0.556832 0.765443 -0.322545 1 
0.0784408 0.21434 0.042199 0.219171 0.948832 -0.227338 1 
0.0780073 0.213648 0.0413492 0.521642 0.575663 -0.629684 1 
0.0782906 0.213671 0.0411273 -0.406381 -0.678408 -0.61206 1 
0.0784761 0.213656 0.0413625 -0.129736 -0.84401 -0.5204 1 
0.0786617 0.213641 0.0415977 -0.466804 -0.740619 -0.483299 1 
0.0787744 0.2148 0.0406898 0.0399663 0.009223 -0.999159 1 
0.0788412 0.215097 0.0411662 0.159982 0.978493 -0.130218 1 
0.0791431 0.214704 0.0412855 -0.0971016 0.879543 -0.465806 1 
0.0790288 0.214592 0.0416236 0.0419508 0.976854 -0.209754 1 
0.0792497 0.213892 0.0410223 0.223518 -0.341766 -0.912818 1 
0.0790211 0.213839 0.0423471 -0.0479521 0.875468 -0.480891 1 
0.0789475 0.214072 0.0425475 0.336368 0.798675 -0.498973 1 
0.0792356 0.214398 0.0427235 0.435986 0.832623 -0.341549 1 
0.0794138 0.214186 0.0433346 0.560402 0.684192 -0.466723 1 
0.0791782 0.213978 0.0427421 0.350354 0.834251 -0.425767 1 
0.0794496 0.214229 0.042799 0.669919 0.698426 -0.251813 1 
0.0790711 0.213891 0.0420558 -0.282419 0.916776 -0.282419 1 
0.0794431 0.214973 0.0418312 0.83012 0.557503 0.00954161 1 
0.0793906 0.214856 0.0422478 0.704039 0.70966 -0.0267001 1 
0.079557 0.214701 0.0424892 0.773368 0.622539 -0.119776 1 
0.0796546 0.214739 0.0420319 0.75249 0.658602 -0.00138072 1 
0.0794284 0.21458 0.0425829 0.770696 0.625169 -0.123252 1 
0.0796425 0.214411 0.0426584 0.737203 0.662436 -0.133085 1 
0.079778 0.214173 0.0425363 0.51718 0.828404 -0.21511 1 
0.0800254 0.214153 0.04285 0.463389 0.845185 -0.266333 1 
0.0799424 0.214508 0.0425555 0.713786 0.676945 -0.179598 1 
0.0800283 0.214774 0.0423772 0.885632 0.462481 -0.0420438 1 
0.0797206 0.213581 0.0419064 -0.215917 0.965807 -0.143514 1 
0.0799134 0.213763 0.0417658 0.778542 0.622544 -0.079443 1 
0.0804775 0.214086 0.0427442 0.589236 0.768364 -0.249836 1 
0.0800111 0.213801 0.0413086 0.894238 0.317984 -0.314999 1 
0.0802609 0.213846 0.041497 0.833237 0.471908 -0.288129 1 
0.0802537 0.21365 0.0418729 -0.647309 0.70192 -0.297152 1 
0.0795925 0.214531 0.0435981 0.551701 0.72627 -0.410071 1 
0.0804393 0.214149 0.0440536 0.419538 0.827993 -0.372043 1 
0.0800755 0.214376 0.0432073 0.501413 0.841712 -0.200264 1 
0.0808011 0.214242 0.0440291 0.363563 0.74506 -0.559203 1 
0.0807441 0.214378 0.0437002 0.285752 0.847987 -0.44639 1 
0.080806 0.214373 0.0437786 0.363563 0.74506 -0.559203 1 
0.0809342 0.213938 0.0440324 0.423458 0.679193 -0.599483 1 
0.0791623 0.214844 0.0412794 0.00666966 0.876393 -0.48155 1 
0.0792359 0.214611 0.0410789 0.414242 0.559474 -0.717909 1 
0.0791052 0.21498 0.0409504 0.330719 0.84931 -0.411457 1 
0.0793144 0.214509 0.0406279 0.286906 0.272489 -0.918387 1 
0.0794715 0.214648 0.0410229 0.558334 0.268944 -0.784813 1 
0.079552 0.214055 0.0407942 0.404044 -0.0689172 -0.91214 1 
0.0796001 0.21494 0.0415777 0.734884 0.670084 -0.104563 1 
0.0798952 0.214907 0.0417254 0.783681 0.608872 -0.122959 1 
0.0798475 0.21492 0.0418914 0.815118 0.578246 -0.0348341 1 
0.080357 0.215274 0.041767 0.240166 0.969286 -0.0529597 1 
0.0798898 0.213876 0.0410265 0.774242 0.318994 -0.546618 1 
0.080204 0.213982 0.041168 0.846548 0.309106 -0.43337 1 
0.0816915 0.214999 0.0445226 0.620627 -0.0497069 0.782529 1 
0.0606247 0.208933 0.0538695 0.219748 0.307647 0.925777 1 
0.0601083 0.209111 0.0546707 0.10792 -0.364742 0.924833 1 
0.0602487 0.209004 0.0542981 -0.0111181 -0.999619 0.0252684 1 
0.0604343 0.208989 0.0545333 0.0774939 0.262971 0.961686 1 
0.0606341 0.208811 0.0543644 0.175513 0.378138 0.908959 1 
0.0608933 0.208563 0.0543993 0.224007 0.312469 0.923138 1 
0.0608103 0.208918 0.0541047 0.207568 0.373041 0.904299 1 
0.0610577 0.208898 0.0544184 0.246108 0.28594 0.926104 1 
0.0614004 0.208851 0.0544001 0.259649 0.262487 0.929345 1 
0.0609889 0.209263 0.0543683 0.207568 0.373041 0.904299 1 
0.0612506 0.20908 0.0542778 0.252512 0.281045 0.925879 1 
0.0615932 0.209032 0.0542595 0.237547 0.243104 0.940464 1 
0.0615977 0.208608 0.0543565 0.262265 0.220635 0.939435 1 
0.0617857 0.208658 0.0544665 0.284968 0.217586 0.933515 1 
0.0617906 0.208789 0.0542159 0.284968 0.217586 0.933515 1 
0.0619904 0.208612 0.054047 0.284458 0.132213 0.949528 1 
0.0622496 0.208363 0.0540818 0.400511 0.253507 0.880525 1 
0.0619831 0.208415 0.0544229 0.342124 0.160589 0.92583 1 
0.0623114 0.208358 0.0541603 0.413313 0.378474 0.828209 1 
0.0614317 0.20949 0.0544161 0.249434 0.286493 0.925043 1 
0.0619216 0.208976 0.0539969 0.267741 0.196344 0.943273 1 
0.0619859 0.209037 0.05395 0.267741 0.196344 0.943273 1 
0.0620571 0.208738 0.0538748 0.311443 0.15778 0.937074 1 
0.0622544 0.208495 0.0538312 0.474623 0.396869 0.785639 1 
0.0624852 0.2084 0.0540258 0.232118 0.1167 0.965662 1 
0.0625755 0.208241 0.0539445 0.273063 0.169815 0.946889 1 
0.0628348 0.207993 0.0539792 0.352634 0.409055 0.841619 1 
0.0626329 0.208661 0.0539259 0.273063 0.169815 0.946889 1 
0.0627517 0.208349 0.0536848 0.298312 -0.241219 0.923484 1 
0.0638464 0.208503 0.0541064 0.0564319 -0.477607 0.876759 1 
0.0627756 0.208105 0.0514825 -0.330181 -0.929244 0.165787 1 
0.0628708 0.208249 0.0517991 -0.174639 -0.939198 0.295648 1 
0.062835 0.207863 0.0510377 0.620627 -0.0497069 0.782529 1 
0.0630964 0.207811 0.0538888 0.310464 0.0498275 0.949278 1 
0.0630393 0.207947 0.0535598 0.37821 0.0193623 0.925517 1 
0.0632893 0.207992 0.0537482 0.348485 0.0955307 0.932433 1 
0.0632444 0.208285 0.0521443 -0.331521 -0.924026 0.190448 1 
0.0637034 0.20803 0.0526586 -0.220109 -0.974073 -0.052291 1 
0.0637034 0.20803 0.0526586 -0.220109 -0.974073 -0.052291 1 
0.0639842 0.208159 0.0532105 -0.237615 -0.970963 -0.0277418 1 
0.0634702 0.207888 0.0519408 -0.306787 -0.934244 0.181851 1 
0.0637628 0.207788 0.0522138 -0.287502 -0.95623 0.0544608 1 
0.0636676 0.207644 0.0518973 -0.306787 -0.934244 0.181851 1 
0.0639626 0.207782 0.0526935 -0.22481 -0.973365 -0.0449619 1 
0.0642101 0.207762 0.0530071 -0.212462 -0.976851 -0.0249257 1 
0.0641433 0.207465 0.0525308 -0.504004 -0.861414 0.0628259 1 
0.0634748 0.207977 0.0539834 -0.228588 -0.940675 0.250754 1 
0.0638533 0.208144 0.054078 -0.199266 -0.855493 0.477938 1 
0.0640624 0.207673 0.0537556 0.029443 -0.78094 0.623911 1 
0.0638699 0.208047 0.0535486 -0.0630946 -0.848272 0.525788 1 
0.0640673 0.207804 0.053505 -0.00692521 -0.674516 0.738228 1 
0.0641052 0.207528 0.0538402 -0.00969441 -0.774168 0.632906 1 
0.064298 0.207709 0.0536996 -0.28691 -0.948804 -0.132112 1 
0.0645121 0.207541 0.053775 -0.196078 -0.977952 0.0718545 1 
0.0643956 0.207747 0.0532423 -0.264836 -0.961772 -0.0696936 1 
0.0646549 0.207499 0.0532771 -0.443065 -0.893031 0.078675 1 
0.0645955 0.20757 0.0530735 -0.436168 -0.899842 0.00654907 1 
0.0647668 0.207717 0.0537129 -0.464203 -0.882679 -0.0734411 1 
0.0650879 0.207464 0.0538261 -0.304814 -0.810206 0.500654 1 
0.0647947 0.206493 0.0519551 0.213234 0.869337 -0.445852 1 
0.0647874 0.206125 0.0516824 0.620627 -0.0497069 0.782529 1 
0.0631492 0.207969 0.0511792 -0.330181 -0.929244 0.165787 1 
0.063613 0.207846 0.051443 -0.323968 -0.920524 0.218357 1 
0.0642202 0.208581 0.0521584 -0.323504 -0.941223 0.0971843 1 
0.0638605 0.207826 0.0517567 -0.279163 -0.948074 0.152393 1 
0.0639817 0.207751 0.0520388 -0.311837 -0.946037 0.0881564 1 
0.063668 0.2082 0.0515497 -0.323968 -0.920524 0.218357 1 
0.0641889 0.20777 0.051494 -0.311559 -0.931882 0.185817 1 
0.0644005 0.207707 0.0523433 -0.463401 -0.884174 0.0591283 1 
0.0646479 0.207687 0.052657 -0.425963 -0.90228 0.0666843 1 
0.0641987 0.208375 0.0522899 -0.315874 -0.947621 0.0473171 1 
0.0647313 0.207887 0.0526039 -0.397643 -0.917539 0.00128687 1 
0.0645885 0.207929 0.0531017 -0.305995 -0.950996 -0.044439 1 
0.0647883 0.207751 0.0529329 -0.456129 -0.889912 0.00131449 1 
0.0649002 0.207798 0.05272 -0.425734 -0.904847 0.00130194 1 
0.0650834 0.207889 0.053729 -0.455389 -0.883991 -0.105741 1 
0.0652189 0.207651 0.053607 -0.311891 -0.775728 0.548608 1 
0.0652094 0.20743 0.0518151 0.319665 0.870284 -0.374727 1 
0.065345 0.207192 0.0516931 0.38632 0.803096 -0.453645 1 
0.0653164 0.207174 0.0512043 -0.357073 0.394495 0.846683 1 
0.0655305 0.207177 0.0519283 0.328106 0.871388 -0.364732 1 
0.0654735 0.207313 0.0515993 0.38632 0.803096 -0.453645 1 
0.0656445 0.206905 0.0525862 0.368984 0.929435 -0.00126799 1 
0.0655232 0.20698 0.0523041 0.332118 0.933483 -0.135307 1 
0.0655899 0.207106 0.052132 0.352375 0.918439 -0.179725 1 
0.0658064 0.207003 0.0520822 -0.402764 0.807132 0.431647 1 
0.0657682 0.206895 0.0527431 0.394539 0.918878 0.00128514 1 
0.0660514 0.206918 0.0525211 -0.321688 0.782614 0.532946 1 
0.0658252 0.206759 0.053072 0.447756 0.885563 0.123666 1 
0.0660108 0.206744 0.0533073 0.375096 0.926784 0.0193349 1 
0.0661059 0.206716 0.0529754 0.545103 0.834108 -0.0844123 1 
0.0663464 0.206884 0.0526688 -0.47369 0.554033 0.684591 1 
0.0663558 0.206762 0.0531637 -0.612634 0.164882 0.772977 1 
0.0659089 0.207344 0.0520229 0.309073 0.950112 0.0419728 1 
0.0661657 0.20703 0.052183 -0.218248 0.897894 0.382301 1 
0.0661112 0.207232 0.0517287 -0.232478 0.889931 0.392399 1 
0.0664298 0.207084 0.0526157 -0.47369 0.554033 0.684591 1 
0.0666606 0.20699 0.0528103 -0.460846 0.540704 0.703747 1 
0.0666586 0.207481 0.0525881 -0.256678 0.87811 0.403781 1 
0.0670362 0.206535 0.0533778 -0.727309 -0.0892673 0.68048 1 
0.0669198 0.206913 0.0534936 -0.323903 0.581735 0.746104 1 
0.067234 0.20702 0.0536351 -0.41411 0.499223 0.761111 1 
0.0669429 0.205729 0.052635 0.620627 -0.0497069 0.782529 1 
0.0668718 0.2062 0.0533586 -0.150077 0.545328 0.824678 1 
0.0669789 0.206115 0.0533964 0.572385 0.525108 0.629792 1 
0.0627837 0.203689 0.0598673 -0.133389 -0.88209 -0.451802 1 
0.0630409 0.203931 0.0596798 -0.197375 -0.87112 -0.449658 1 
0.0631695 0.204052 0.059586 -0.160209 -0.89053 -0.42578 1 
0.0633766 0.204071 0.0590413 -0.0413893 -0.956971 -0.287217 1 
0.0637143 0.203892 0.0592736 -0.317867 -0.831465 -0.455661 1 
0.063781 0.204019 0.0591015 -0.218916 -0.877154 -0.427408 1 
0.0639784 0.203775 0.0590579 -0.176002 -0.88874 -0.423279 1 
0.0642356 0.204018 0.0588704 -0.236081 -0.867636 -0.437577 1 
0.0646307 0.204087 0.0584356 -0.0458202 -0.930804 -0.362634 1 
0.0648923 0.203905 0.0583451 -0.227347 -0.899122 -0.374023 1 
0.0657683 0.200525 0.0573117 -0.620627 0.0497069 -0.782529 1 
0.0640005 0.201609 0.0618359 -0.620627 0.0497069 -0.782529 1 
0.063019 0.203341 0.0608074 -0.158984 -0.870767 -0.465284 1 
0.062883 0.203023 0.0612769 -0.417849 -0.752129 -0.509612 1 
0.063159 0.202849 0.0614309 -0.333227 -0.684334 -0.648573 1 
0.0631662 0.203046 0.061055 -0.213342 -0.808858 -0.547936 1 
0.0632949 0.203167 0.0609612 -0.257869 -0.80174 -0.539182 1 
0.0634019 0.203083 0.060999 -0.240938 -0.800536 -0.548717 1 
0.0633519 0.203031 0.0612902 -0.235897 -0.760808 -0.604585 1 
0.0635492 0.202788 0.0612466 -0.23716 -0.714622 -0.658081 1 
0.0631215 0.20351 0.0600996 -0.2206 -0.86289 -0.454705 1 
0.0633021 0.203364 0.0605854 -0.26298 -0.813838 -0.51818 1 
0.0631858 0.203571 0.0600527 -0.220067 -0.869789 -0.441631 1 
0.063307 0.203495 0.0603348 -0.205115 -0.860884 -0.465626 1 
0.0634759 0.203406 0.060451 -0.292206 -0.800802 -0.522812 1 
0.0635024 0.203742 0.0600689 -0.264385 -0.857342 -0.441661 1 
0.0636997 0.203499 0.0600253 -0.286389 -0.84059 -0.45977 1 
0.063364 0.203359 0.0606638 -0.274651 -0.798844 -0.535178 1 
0.0636733 0.203334 0.0610559 -0.225953 -0.813124 -0.536447 1 
0.0637445 0.203035 0.0609807 -0.187006 -0.804279 -0.56406 1 
0.0639992 0.203212 0.0609185 -0.118223 -0.82464 -0.553166 1 
0.0642255 0.203543 0.0610161 -0.0576715 -0.831314 -0.552803 1 
0.0637518 0.203232 0.0606049 -0.241278 -0.828338 -0.505609 1 
0.063821 0.203424 0.0603074 -0.269793 -0.818736 -0.506837 1 
0.0641682 0.203123 0.0610347 -0.0913198 -0.795787 -0.598652 1 
0.0644253 0.203365 0.0608472 -0.0787243 -0.823027 -0.562521 1 
0.0639748 0.202213 0.0608743 -0.196054 -0.711661 -0.674612 1 
0.0639777 0.202835 0.0604015 -0.302858 -0.797578 -0.521676 1 
0.0642157 0.202937 0.0602202 -0.245416 -0.825772 -0.507811 1 
0.0643345 0.202796 0.0606276 -0.138947 -0.846843 -0.513371 1 
0.0639414 0.202236 0.0612847 -0.176125 -0.663148 -0.727472 1 
0.0641222 0.20209 0.0617705 -0.0791562 -0.588634 -0.804515 1 
0.0644054 0.202113 0.0615485 0.0152596 -0.617321 -0.786564 1 
0.0643981 0.201916 0.0619243 0.261752 -0.702765 -0.661519 1 
0.0646365 0.202574 0.0613955 0.04114 -0.699379 -0.713566 1 
0.0645864 0.202351 0.0610382 -0.0325065 -0.716557 -0.696771 1 
0.0647651 0.202696 0.0613018 0.001381 -0.713977 -0.700167 1 
0.0646105 0.202622 0.0607815 -0.105563 -0.837276 -0.536493 1 
0.0649576 0.202321 0.0615087 0.376733 -0.672855 -0.636662 1 
0.065015 0.202741 0.0614901 0.0984185 -0.712432 -0.694805 1 
0.0633168 0.203757 0.0598337 -0.256313 -0.845678 -0.468116 1 
0.0634454 0.203878 0.05974 -0.233836 -0.86444 -0.445043 1 
0.0636761 0.203784 0.0599345 -0.266333 -0.845185 -0.463389 1 
0.0638283 0.20362 0.0599316 -0.197832 -0.864213 -0.462599 1 
0.0641518 0.203433 0.0599196 -0.158019 -0.879977 -0.447962 1 
0.0639593 0.203807 0.0597126 -0.165502 -0.868517 -0.467212 1 
0.0638999 0.203878 0.0595088 -0.187421 -0.844144 -0.502288 1 
0.0640687 0.203788 0.059625 -0.142546 -0.879754 -0.453556 1 
0.0639593 0.203807 0.0597126 -0.165502 -0.868517 -0.467212 1 
0.0640591 0.203526 0.0601261 -0.169405 -0.8647 -0.47286 1 
0.0643349 0.203352 0.06028 -0.147143 -0.866832 -0.476394 1 
0.0642398 0.20338 0.060612 -0.0892345 -0.859767 -0.502829 1 
0.0642283 0.203821 0.0592462 -0.189886 -0.897246 -0.398615 1 
0.0651635 0.203943 0.0600466 0.134606 -0.899738 -0.415155 1 
0.0652017 0.204223 0.0600342 0.169946 -0.884589 -0.434305 1 
0.0642209 0.203624 0.0596221 -0.145912 -0.876916 -0.457961 1 
0.0646157 0.203138 0.0595349 -0.229331 -0.845943 -0.481443 1 
0.0644704 0.203114 0.060158 -0.124131 -0.883188 -0.452295 1 
0.0644586 0.203342 0.0604368 -0.0975446 -0.872246 -0.479241 1 
0.0647464 0.20294 0.0603119 -0.119879 -0.853595 -0.506957 1 
0.0645563 0.20338 0.0599797 -0.12975 -0.885436 -0.446283 1 
0.0647276 0.203356 0.0599705 -0.0499226 -0.899956 -0.433112 1 
0.0646254 0.203572 0.0596822 -0.102951 -0.884251 -0.455523 1 
0.0646825 0.203436 0.0600112 -0.0589901 -0.887596 -0.456831 1 
0.0649392 0.203122 0.0601713 -0.0282523 -0.883893 -0.466835 1 
0.065301 0.203214 0.0601468 0.193121 -0.898811 -0.393502 1 
0.0644496 0.203849 0.0589459 -0.101376 -0.904052 -0.415225 1 
0.0646352 0.203834 0.0591811 -0.233908 -0.839317 -0.490748 1 
0.0642877 0.20375 0.05945 -0.210826 -0.838754 -0.502039 1 
0.0647638 0.203955 0.0590874 -0.187551 -0.869823 -0.456325 1 
0.0648659 0.20374 0.0593757 -0.0364091 -0.888651 -0.457136 1 
0.0650588 0.203921 0.0592351 0.0198025 -0.904312 -0.426413 1 
0.064735 0.203553 0.0595947 -0.143255 -0.875445 -0.461599 1 
0.0648965 0.203095 0.0594382 -0.110434 -0.86196 -0.494802 1 
0.0652057 0.20307 0.0598302 0.153596 -0.891429 -0.426336 1 
0.0656293 0.203158 0.0598842 0.213567 -0.943828 -0.252147 1 
0.0656436 0.202995 0.0594801 0.0478875 -0.940925 -0.335213 1 
0.0657721 0.203116 0.0593863 0.141682 -0.989507 -0.0283364 1 
0.0648416 0.203084 0.0606285 -0.0259951 -0.849628 -0.526742 1 
0.0650223 0.202938 0.0611143 0.0013637 -0.816854 -0.576843 1 
0.0652152 0.20312 0.0609737 0.315163 -0.809287 -0.495708 1 
0.0650344 0.203266 0.0604879 0.0534387 -0.881054 -0.469987 1 
0.0652701 0.203474 0.0610804 0.397047 -0.830477 -0.39072 1 
0.0655366 0.203423 0.0607393 0.376153 -0.906514 -0.191679 1 
0.0654866 0.203199 0.0603821 0.364966 -0.879856 -0.304391 1 
0.0653365 0.203044 0.0612558 0.243323 -0.862964 -0.442817 1 
0.065834 0.203283 0.0601133 0.280648 -0.95262 -0.117266 1 
0.0658011 0.203862 0.060176 0.265181 -0.952786 -0.147915 1 
0.0662842 0.20405 0.0610822 0.413804 -0.90597 -0.0893597 1 
0.0652517 0.204103 0.0590945 0.0704123 -0.931303 -0.357376 1 
0.0652851 0.20408 0.0586841 -0.105356 -0.942869 -0.316068 1 
0.0653872 0.203865 0.0589724 0.0154564 -0.973751 -0.22709 1 
0.0657514 0.204194 0.0594712 0.102789 -0.98315 -0.151161 1 
0.0657657 0.204032 0.0590671 -0.00902508 -0.999778 0.0190529 1 
0.0652802 0.203778 0.0582862 -0.283546 -0.906464 -0.312929 1 
0.0659341 0.203215 0.0588822 -0.0208604 -0.993614 0.110889 1 
0.0661721 0.203317 0.058701 -0.486486 -0.718937 0.496448 1 
0.0665603 0.203918 0.058943 -0.303435 -0.883131 0.357781 1 
0.0665506 0.203484 0.0587956 -0.56629 -0.542624 0.620383 1 
0.065994 0.204043 0.0600354 0.206524 -0.977062 -0.0519329 1 
0.0661153 0.203968 0.0603176 0.303376 -0.952576 0.0237208 1 
0.0661462 0.203879 0.0600325 0.182779 -0.982287 0.0412726 1 
0.0660631 0.204235 0.059738 0.0683246 -0.996672 0.0444652 1 
0.0663297 0.204183 0.0593969 -0.16937 -0.956205 0.238718 1 
0.0664176 0.203959 0.0594408 -0.16937 -0.956205 0.238718 1 
0.0663199 0.203921 0.0598981 0.1114 -0.988525 0.102019 1 
0.0666366 0.204093 0.0599143 -0.107828 -0.982567 0.151444 1 
0.0665055 0.204078 0.0607818 0.250127 -0.968195 -0.0059839 1 
0.066672 0.203923 0.0610233 0.123236 -0.977177 0.173029 1 
0.0666862 0.20376 0.0606191 0.267236 -0.960258 0.0805543 1 
0.0665841 0.203976 0.0603308 0.0505657 -0.997328 0.0527175 1 
0.066641 0.203668 0.0600113 0.366023 -0.919929 0.140564 1 
0.0670337 0.203672 0.0597017 -0.0586692 -0.964922 0.255898 1 
0.0669169 0.203494 0.0601652 0.169659 -0.967445 0.187791 1 
0.0672075 0.203885 0.0602158 -0.251464 -0.960252 0.121172 1 
0.066691 0.203548 0.0590715 -0.0173287 -0.886428 0.462542 1 
0.0668766 0.203533 0.0593068 0.140404 -0.959206 0.245378 1 
0.0672193 0.203657 0.059937 -0.145735 -0.984012 0.102376 1 
0.0665292 0.203964 0.0615211 0.620627 -0.0497069 0.782529 1 
0.0671909 0.204154 0.0613938 0.620627 -0.0497069 0.782529 1 
0.0661452 0.202253 0.0587821 -0.620627 0.0497069 -0.782529 1 
0.066065 0.20323 0.0580147 -0.901032 -0.367738 -0.23002 1 
0.0667259 0.202136 0.057934 -0.620627 0.0497069 -0.782529 1 
0.0778725 0.196965 0.0659009 -0.0728212 -0.897213 -0.435553 1 
0.0776182 0.197344 0.0656155 -0.067522 -0.99512 -0.0719497 1 
0.0781365 0.196848 0.0656852 -0.304219 -0.937434 0.169316 1 
0.0779466 0.197287 0.0653529 0.0745224 -0.945258 -0.317701 1 
0.0783938 0.19709 0.0654976 0.209798 -0.937837 -0.276488 1 
0.0786079 0.197264 0.0668702 0.119045 -0.984828 -0.12626 1 
0.0789172 0.197239 0.0672622 -0.0492438 -0.998496 0.024098 1 
0.0782318 0.196991 0.0660017 0.0679919 -0.878344 -0.473168 1 
0.0785602 0.197106 0.0663876 0.0932106 -0.949173 -0.300637 1 
0.078515 0.197014 0.0657798 0.173776 -0.805416 -0.566662 1 
0.0788886 0.19705 0.066125 -0.0862706 -0.980569 -0.176187 1 
0.0790644 0.196773 0.0668613 -0.208267 -0.974786 0.0801026 1 
0.07906 0.197198 0.0667644 -0.223082 -0.97244 0.0677873 1 
0.079298 0.1973 0.0665831 -0.214872 -0.971324 0.101782 1 
0.0790742 0.197035 0.0663602 -0.185057 -0.981862 0.0412547 1 
0.0779933 0.195818 0.0645851 -0.620627 0.0497069 -0.782529 1 
0.0795926 0.196539 0.0664298 -0.330556 -0.943541 0.0215305 1 
0.079519 0.197115 0.0679273 -0.125165 -0.988454 0.0853931 1 
0.079712 0.197297 0.0677867 0.0192822 -0.999628 0.0192822 1 
0.079976 0.197351 0.0682194 -0.0159295 -0.997185 -0.0732755 1 
0.0794356 0.196743 0.0673318 -0.198368 -0.974374 0.106046 1 
0.0794238 0.196971 0.0676107 -0.102562 -0.992931 0.0597337 1 
0.0794311 0.197168 0.0672349 -0.133461 -0.984726 0.111819 1 
0.0795382 0.197083 0.0672726 -0.212247 -0.969728 0.120739 1 
0.0797595 0.197111 0.0669722 -0.291148 -0.941789 0.168128 1 
0.0796618 0.197073 0.0674294 -0.267082 -0.957587 0.108136 1 
0.0799451 0.197096 0.0672074 -0.338135 -0.924611 0.175381 1 
0.0797901 0.19681 0.0683317 -0.415945 -0.883698 0.214634 1 
0.0800208 0.196716 0.0685263 -0.566314 -0.777696 0.272904 1 
0.0801189 0.19731 0.0677215 -0.396155 -0.900353 0.180071 1 
0.0802971 0.197098 0.0683326 -0.510938 -0.846655 0.148717 1 
0.080221 0.197094 0.0680098 -0.52582 -0.830163 0.185318 1 
0.0803044 0.197295 0.0679567 -0.417122 -0.888397 0.19173 1 
0.08049 0.19728 0.068192 -0.572592 -0.805815 0.150997 1 
0.0801306 0.197081 0.0674427 -0.382864 -0.90298 0.195044 1 
0.0801259 0.197293 0.0689902 -0.767738 -0.396094 0.503675 1 
0.0804661 0.19718 0.0690973 -0.688097 -0.714964 0.123887 1 
0.0803188 0.197475 0.0688497 -0.614586 -0.75773 0.219384 1 
0.0805185 0.197297 0.0686808 -0.750983 -0.634741 0.18201 1 
0.0804253 0.196663 0.0685864 -0.598449 -0.78537 0.15828 1 
0.0806109 0.196648 0.0688217 -0.683455 -0.716501 0.139695 1 
0.0807537 0.196607 0.0683238 -0.599103 -0.79833 0.0611911 1 
0.0809108 0.196745 0.0687188 -0.628734 -0.777165 0.0266057 1 
0.0809939 0.19639 0.0690133 -0.650798 -0.72571 0.223175 1 
0.0809605 0.196413 0.0694236 -0.65922 -0.709808 0.248196 1 
0.0809181 0.197114 0.0689915 -0.678758 -0.709541 0.189313 1 
0.0810252 0.197029 0.0690293 -0.657322 -0.719776 0.223271 1 
0.081196 0.196106 0.0680706 -0.591533 -0.805103 0.0435571 1 
0.0813792 0.196197 0.0690797 -0.632304 -0.761468 0.142681 1 
0.0813222 0.196334 0.0687507 -0.598418 -0.798367 0.0671257 1 
0.0816408 0.195843 0.0683407 -0.40481 -0.914378 -0.00646661 1 
0.078805 0.20025 0.0671596 -0.620627 0.0497069 -0.782529 1 
0.079043 0.200353 0.0669783 -0.620627 0.0497069 -0.782529 1 
0.078619 0.199709 0.0672719 -0.620627 0.0497069 -0.782529 1 
0.0788903 0.199789 0.0666803 -0.620627 0.0497069 -0.782529 1 
0.0790445 0.198963 0.0662511 -0.620627 0.0497069 -0.782529 1 
0.0792929 0.200398 0.0671667 -0.620627 0.0497069 -0.782529 1 
0.0790263 0.20045 0.0675077 -0.620627 0.0497069 -0.782529 1 
0.0792404 0.200281 0.0675832 -0.620627 0.0497069 -0.782529 1 
0.0792537 0.198835 0.0672257 -0.620627 0.0497069 -0.782529 1 
0.0792282 0.199782 0.0675611 -0.620627 0.0497069 -0.782529 1 
0.079747 0.200013 0.0679316 -0.620627 0.0497069 -0.782529 1 
0.0782611 0.19795 0.0651468 0.0199251 -0.442336 -0.896628 1 
0.0785753 0.198056 0.0652883 -0.334627 0.438314 -0.83421 1 
0.0781394 0.197469 0.0652123 -0.00936897 -0.998316 0.0572548 1 
0.0786318 0.197192 0.0653164 0.44361 -0.543298 -0.712767 1 
0.0783491 0.197897 0.0658393 0.484057 -0.253554 -0.837496 1 
0.0790815 0.197232 0.0659844 -0.207767 -0.970005 -0.12619 1 
0.0793126 0.197693 0.0658314 0.623434 -0.136049 -0.769948 1 
0.0793383 0.196918 0.0661444 -0.281316 -0.955437 0.0894507 1 
0.0795812 0.197323 0.0663611 -0.324151 -0.93719 0.128847 1 
0.0797741 0.197505 0.0662205 -0.40189 -0.910121 0.100818 1 
0.0794775 0.198757 0.0661515 -0.620627 0.0497069 -0.782529 1 
0.0796406 0.197081 0.0659163 -0.28003 -0.953153 0.114378 1 
0.0800329 0.196529 0.0659543 -0.426589 -0.904368 -0.0118132 1 
0.0802827 0.196575 0.0661427 -0.419214 -0.881387 0.217754 1 
0.0802735 0.19704 0.0669448 -0.346727 -0.905587 0.244318 1 
0.080516 0.196889 0.067509 -0.435271 -0.891809 0.12335 1 
0.0804261 0.197604 0.0672428 -0.393844 -0.876717 0.276143 1 
0.0806764 0.198377 0.0677321 -0.620627 0.0497069 -0.782529 1 
0.0800948 0.196695 0.0666813 -0.352272 -0.913032 0.205612 1 
0.0803304 0.196732 0.0666253 -0.374145 -0.894693 0.244007 1 
0.0806063 0.196558 0.0667792 -0.474605 -0.846963 0.239591 1 
0.0806205 0.196396 0.066375 -0.539999 -0.790203 0.289794 1 
0.0807183 0.196777 0.0672149 -0.421311 -0.890401 0.172289 1 
0.0807751 0.196469 0.0668953 -0.467943 -0.849004 0.245403 1 
0.0809083 0.196337 0.067547 -0.569256 -0.821016 0.0433586 1 
0.0812106 0.1965 0.0673189 -0.665847 -0.72955 0.156224 1 
0.0808728 0.196507 0.0664381 -0.491702 -0.762873 0.419825 1 
0.080975 0.196291 0.0667264 -0.46984 -0.853569 0.2251 1 
0.0811439 0.196545 0.0681396 -0.627059 -0.776291 0.0645713 1 
0.0814865 0.196326 0.0674728 -0.575823 -0.812503 0.0909195 1 
0.0817173 0.196232 0.0676674 -0.600304 -0.799006 0.0349828 1 
0.0818933 0.196641 0.0709978 -0.620627 0.0497069 -0.782529 1 
0.0818265 0.196343 0.0705214 -0.620627 0.0497069 -0.782529 1 
0.0820454 0.196305 0.0703464 -0.620627 0.0497069 -0.782529 1 
0.0817764 0.19612 0.0701642 -0.360649 -0.894943 0.262695 1 
0.0812815 0.19616 0.0695368 -0.659176 -0.703651 0.265259 1 
0.0816885 0.196173 0.0694717 -0.678598 -0.691252 0.248345 1 
0.0816812 0.195976 0.0698476 -0.352774 -0.911454 0.211665 1 
0.0820597 0.196143 0.0699422 -0.352774 -0.911454 0.211665 1 
0.0820478 0.196199 0.0695726 -0.603977 -0.765451 0.222027 1 
0.0778451 0.194658 0.0637355 -0.135792 0.780431 -0.610318 1 
0.0779594 0.194942 0.0640459 -0.262421 0.688657 -0.675934 1 
0.0646097 0.192176 0.0474927 0.620627 -0.0497069 0.782529 1 
0.0651262 0.192513 0.0486371 0.620627 -0.0497069 0.782529 1 
0.0656471 0.192083 0.0485814 -0.834162 0.187874 0.518533 1 
0.0644876 0.190968 0.0472572 0.620627 -0.0497069 0.782529 1 
0.0649471 0.19127 0.047424 0.620627 -0.0497069 0.782529 1 
0.0649324 0.190705 0.0475272 0.620627 -0.0497069 0.782529 1 
0.0652535 0.190452 0.0476405 0.620627 -0.0497069 0.782529 1 
0.0651066 0.191474 0.0476938 -0.635086 -0.326476 0.700056 1 
0.0651042 0.191409 0.0478191 -0.635086 -0.326476 0.700056 1 
0.0658155 0.191266 0.0483965 -0.591676 -0.387309 0.707044 1 
0.0656731 0.191863 0.0485469 -0.849805 0.268926 0.453332 1 
0.0659038 0.191769 0.0487415 -0.849538 0.353844 0.391255 1 
0.0655156 0.190997 0.0478509 -0.719567 -0.192604 0.667179 1 
0.0658106 0.190963 0.0479987 -0.487897 -0.31737 0.813162 1 
0.0648322 0.190258 0.0468127 0.620627 -0.0497069 0.782529 1 
0.065391 0.189723 0.0477407 0.620627 -0.0497069 0.782529 1 
0.0661257 0.192696 0.0493906 -0.117007 -0.63243 0.765729 1 
0.0664045 0.193487 0.0503686 -0.443953 -0.411666 0.795887 1 
0.066098 0.194133 0.0495037 -0.429122 -0.202026 0.880363 1 
0.0662527 0.194035 0.0493755 -0.567845 -0.353072 0.743567 1 
0.0667549 0.194192 0.049627 -0.45883 -0.468697 0.754849 1 
0.0666694 0.194482 0.0494577 -0.482055 -0.397654 0.780701 1 
0.067076 0.194282 0.0510372 -0.798493 0.216932 0.56156 1 
0.0670975 0.194316 0.0502572 -0.183342 -0.204446 0.961555 1 
0.0666043 0.193309 0.0501997 -0.302039 -0.510777 0.804909 1 
0.0662543 0.192817 0.0492968 -0.00692521 -0.674516 0.738228 1 
0.0663519 0.192855 0.0488396 0.0410522 -0.65825 0.751679 1 
0.06659 0.192957 0.0486583 0.206243 -0.671452 0.71177 1 
0.0667255 0.192719 0.0485363 0.186173 -0.727769 0.66007 1 
0.0667373 0.192662 0.048906 0.274413 -0.762963 0.585308 1 
0.0664398 0.192802 0.0495321 0.0097174 -0.653842 0.756569 1 
0.0670682 0.193015 0.049815 -0.0924009 -0.714274 0.69374 1 
0.066968 0.192568 0.0491005 0.254255 -0.746973 0.614318 1 
0.0670181 0.192791 0.0494578 0.195511 -0.76203 0.617321 1 
0.0668045 0.193688 0.0496833 -0.290701 -0.426054 0.856721 1 
0.0668757 0.193389 0.0496081 -0.168321 -0.522839 0.835648 1 
0.0673852 0.193742 0.0494837 -0.325615 -0.428441 0.84286 1 
0.0669754 0.192765 0.0487247 0.100571 -0.794367 0.599055 1 
0.0671422 0.193337 0.0492671 0.0381251 -0.634007 0.772387 1 
0.0673347 0.192963 0.049474 -0.0734938 -0.770965 0.632623 1 
0.0674059 0.192664 0.0493989 -0.26626 -0.773572 0.575059 1 
0.0675988 0.192846 0.0492582 -0.135925 -0.775222 0.616892 1 
0.067611 0.193345 0.0492803 -0.0181633 -0.750285 0.660865 1 
0.0675324 0.193276 0.0490828 0.104614 -0.726407 0.679256 1 
0.0673205 0.193126 0.0498782 0.108035 -0.702968 0.702968 1 
0.0673067 0.193845 0.0499347 -0.159121 -0.327928 0.931205 1 
0.0674898 0.193764 0.0502953 -0.10337 -0.392807 0.913793 1 
0.0673872 0.193423 0.0503545 -0.173479 -0.568709 0.804037 1 
0.0680892 0.193403 0.0504371 -0.733967 -0.20638 0.64707 1 
0.0684103 0.192978 0.0499018 -0.716098 -0.503429 0.483491 1 
0.0685031 0.193228 0.0509922 0.0968213 0.819368 -0.565032 1 
0.0673057 0.192218 0.0486843 -0.178297 -0.894384 0.410228 1 
0.0672394 0.192648 0.0485089 -0.106364 -0.913071 0.393684 1 
0.0674274 0.192698 0.0486188 -0.202313 -0.822942 0.530882 1 
0.0674392 0.19247 0.04834 -0.15407 -0.809239 0.566916 1 
0.0675678 0.192591 0.0482463 -0.15407 -0.809239 0.566916 1 
0.0674462 0.192282 0.0489602 -0.145007 -0.885833 0.440763 1 
0.0677485 0.192445 0.0487321 -0.351795 -0.813427 0.463224 1 
0.0685026 0.192157 0.0493942 0.620627 -0.0497069 0.782529 1 
0.068481 0.192123 0.0501742 0.620627 -0.0497069 0.782529 1 
0.064702 0.195443 0.0505607 0.620627 -0.0497069 0.782529 1 
0.0648493 0.194976 0.0501598 -0.345544 -0.810515 0.472933 1 
0.0654088 0.195553 0.0503927 -0.369551 -0.757009 0.53886 1 
0.0655134 0.195574 0.0512043 -0.371899 -0.793706 0.481375 1 
0.0656062 0.19531 0.0503491 -0.503946 -0.784095 0.362262 1 
0.065775 0.19522 0.0504653 -0.45718 -0.776067 0.434403 1 
0.0656116 0.19634 0.051048 0.620627 -0.0497069 0.782529 1 
0.0652993 0.1954 0.0498318 -0.321521 -0.892782 0.315539 1 
0.0659371 0.195833 0.0519067 0.620627 -0.0497069 0.782529 1 
0.0658944 0.19615 0.0524706 0.620627 -0.0497069 0.782529 1 
0.0664369 0.195925 0.0522834 0.620627 -0.0497069 0.782529 1 
0.06632 0.195575 0.0520983 0.620627 -0.0497069 0.782529 1 
0.0668413 0.195701 0.0516951 0.620627 -0.0497069 0.782529 1 
0.0665557 0.195784 0.0526908 0.620627 -0.0497069 0.782529 1 
0.0673216 0.195267 0.0530741 0.620627 -0.0497069 0.782529 1 
0.0632641 0.194093 0.0479109 -0.849278 -0.00405061 0.52793 1 
0.0633166 0.19421 0.0474944 -0.914393 -0.0222385 0.404217 1 
0.0634045 0.193986 0.0475383 -0.849278 -0.00405061 0.52793 1 
0.063778 0.194022 0.0478836 -0.813387 0.0521583 0.57938 1 
0.0639136 0.193784 0.0477615 -0.824619 -0.00681503 0.565648 1 
0.0640991 0.193769 0.0479967 -0.805199 0.0407518 0.591603 1 
0.0631811 0.194449 0.0476164 -0.914393 -0.0222385 0.404217 1 
0.0638476 0.194769 0.0472385 -0.914393 -0.0222385 0.404217 1 
0.063693 0.195039 0.0480152 -0.784556 0.0946125 0.612798 1 
0.0634521 0.193972 0.0473724 -0.914393 -0.0222385 0.404217 1 
0.0633617 0.19396 0.0468052 -0.445483 0.662386 0.60232 1 
0.0636046 0.194364 0.0470219 -0.914393 -0.0222385 0.404217 1 
0.0638236 0.194498 0.0474953 -0.849278 -0.00405061 0.52793 1 
0.0645732 0.194807 0.0487089 -0.582932 0.0730456 0.809231 1 
0.064373 0.194257 0.0485769 -0.708464 0.00974312 0.70568 1 
0.0645586 0.194242 0.0488121 -0.626968 -0.0825339 0.774661 1 
0.0647442 0.194227 0.0490474 -0.209971 -0.723234 0.65791 1 
0.0650535 0.194202 0.0494394 -0.395774 -0.763861 0.509784 1 
0.0648162 0.195212 0.0489256 0.0232268 -0.84846 0.52875 1 
0.0653656 0.194799 0.0493587 -0.34778 -0.765117 0.54189 1 
0.0657368 0.194769 0.0498291 -0.372043 -0.827993 0.419538 1 
0.0657486 0.194712 0.0501988 -0.513424 -0.808603 0.287329 1 
0.0661982 0.19458 0.0502182 -0.501698 -0.679558 0.535257 1 
0.0662051 0.194221 0.05019 -0.541481 -0.491188 0.682299 1 
0.0661432 0.194226 0.0501115 -0.597483 -0.567016 0.567016 1 
0.0663171 0.194267 0.0499771 -0.555563 -0.606223 0.569072 1 
0.0654559 0.19464 0.0492773 -0.34778 -0.765117 0.54189 1 
0.0656488 0.194822 0.0491367 -0.357576 -0.818452 0.449751 1 
0.0658417 0.195003 0.0489961 -0.414537 -0.775427 0.476311 1 
0.0660127 0.194595 0.049983 -0.571092 -0.674926 0.467257 1 
0.0665767 0.194747 0.0503129 -0.370313 -0.56281 0.738994 1 
0.0657794 0.194452 0.0492653 -0.40324 -0.759136 0.510989 1 
0.0661554 0.194553 0.0494851 -0.622323 -0.681749 0.384619 1 
0.0659438 0.194788 0.0492844 -0.443615 -0.761184 0.47308 1 
0.0663483 0.194735 0.0493445 -0.50052 -0.779126 0.377415 1 
0.0664053 0.194599 0.0496735 -0.427608 -0.526667 0.734693 1 
0.0665339 0.19472 0.0495797 -0.435362 -0.726707 0.531373 1 
0.0665909 0.194584 0.0499088 -0.481357 -0.585344 0.652432 1 
0.0668502 0.194851 0.0518891 0.54019 0.777424 -0.32219 1 
0.0674069 0.194634 0.0519463 0.560918 0.800653 -0.210536 1 
0.0682258 0.195134 0.0528625 0.620627 -0.0497069 0.782529 1 
0.0679185 0.194669 0.0526927 0.466924 0.81114 -0.352185 1 
0.0684918 0.194355 0.0522205 0.68808 0.675367 -0.265379 1 
0.0741662 0.195153 0.0667966 -0.620627 0.0497069 -0.782529 1 
0.0752252 0.19578 0.0696994 -0.620627 0.0497069 -0.782529 1 
0.0747181 0.19532 0.06905 -0.620627 0.0497069 -0.782529 1 
0.0748039 0.195587 0.0688716 -0.620627 0.0497069 -0.782529 1 
0.0750416 0.195133 0.0690379 -0.620627 0.0497069 -0.782529 1 
0.0751368 0.195105 0.068706 -0.620627 0.0497069 -0.782529 1 
0.0739477 0.195919 0.0672727 -0.620627 0.0497069 -0.782529 1 
0.0752325 0.195977 0.0693235 -0.620627 0.0497069 -0.782529 1 
0.0746183 0.195087 0.0666908 -0.620627 0.0497069 -0.782529 1 
0.074849 0.194992 0.0668854 -0.620627 0.0497069 -0.782529 1 
0.0751322 0.195015 0.0666635 -0.620627 0.0497069 -0.782529 1 
0.0749918 0.194951 0.0663875 -0.620627 0.0497069 -0.782529 1 
0.0754533 0.194762 0.0667767 0.398546 0.427356 -0.811497 1 
0.0759055 0.195039 0.0679679 0.142764 0.924498 -0.353444 1 
0.0763454 0.194645 0.0684885 0.279119 0.786895 0.550353 1 
0.0766286 0.194668 0.0682665 0.645937 0.68824 -0.33029 1 
0.0768211 0.194293 0.0684735 0.445968 0.8933 0.0559165 1 
0.0770734 0.194404 0.0685366 0.331938 0.894596 0.299191 1 
0.0764935 0.195462 0.068041 0.317693 0.810829 0.491555 1 
0.076574 0.194869 0.0678123 0.458882 0.786423 -0.41348 1 
0.0764812 0.194962 0.0680189 0.584958 0.728346 -0.356841 1 
0.076434 0.195361 0.0671888 0.490066 0.684085 -0.540243 1 
0.0768381 0.194752 0.0675965 0.458882 0.786423 -0.41348 1 
0.0769904 0.19476 0.0682421 0.468297 0.871352 0.146434 1 
0.0771425 0.194596 0.0682391 0.421124 0.905484 0.0524723 1 
0.075717 0.194089 0.0669084 0.540898 0.802774 -0.250964 1 
0.0758167 0.193808 0.067322 -0.620627 0.0497069 -0.782529 1 
0.0759098 0.194271 0.0667679 0.429296 0.565212 -0.704443 1 
0.0759668 0.194135 0.0670968 0.427421 0.666909 -0.610363 1 
0.0763001 0.194209 0.0665836 0.393707 0.347023 -0.851217 1 
0.0767497 0.194077 0.0666031 -0.620627 0.0497069 -0.782529 1 
0.0766712 0.194179 0.0670541 0.314961 0.828927 -0.462256 1 
0.0774017 0.194348 0.0682739 0.313167 0.944787 0.0964607 1 
0.0773114 0.194507 0.0683553 0.34458 0.893521 0.287896 1 
0.0777492 0.19426 0.0673566 0.320882 0.932086 -0.168081 1 
0.0777301 0.194291 0.0680113 0.329483 0.941192 0.0748228 1 
0.0775226 0.193716 0.0689036 0.0193535 0.927679 0.372878 1 
0.0773302 0.194091 0.0686967 0.258117 0.942749 0.211187 1 
0.0775157 0.194076 0.0689319 0.0947719 0.938376 0.332369 1 
0.0777013 0.194061 0.0691671 -0.060205 0.91913 0.389326 1 
0.0779271 0.193835 0.0696123 -0.374322 0.844182 0.383719 1 
0.0781319 0.19396 0.0698413 0.620627 -0.0497069 0.782529 1 
0.0775231 0.194272 0.068556 0.24897 0.938853 0.237843 1 
0.0775873 0.194333 0.0685092 0.24897 0.938853 0.237843 1 
0.0775088 0.194264 0.0683116 0.24897 0.938853 0.237843 1 
0.0777729 0.194318 0.0687444 0.161057 0.962415 0.218671 1 
0.0777802 0.194515 0.0683686 0.24897 0.938853 0.237843 1 
0.0781013 0.194261 0.0684818 0.100048 0.968815 0.22669 1 
0.0781273 0.194214 0.0690958 -0.114064 0.922132 0.369677 1 
0.0783296 0.194273 0.0694502 -0.374322 0.844182 0.383719 1 
0.0783463 0.194176 0.0689207 -0.147658 0.912667 0.381098 1 
0.0701252 0.201885 0.0676067 0.620627 -0.0497069 0.782529 1 
0.0701776 0.202002 0.0671902 0.656737 0.751583 -0.0617937 1 
0.0706843 0.201734 0.0675387 0.649997 0.756648 -0.0706205 1 
0.071155 0.20108 0.0671257 0.624305 0.78073 0.0265364 1 
0.0720202 0.199555 0.0676215 0.620627 -0.0497069 0.782529 1 
0.0722656 0.199854 0.0670644 0.978879 -0.0442229 -0.1996 1 
0.0722793 0.199135 0.0670079 0.845984 0.341198 -0.409749 1 
0.0724006 0.198717 0.0659929 0.629166 0.406717 -0.662368 1 
0.0726711 0.197684 0.0660965 -0.620627 0.0497069 -0.782529 1 
0.0733927 0.198702 0.0671223 0.375467 0.713223 -0.591893 1 
0.0734231 0.197715 0.0658877 -0.620627 0.0497069 -0.782529 1 
0.0704393 0.20182 0.0670997 0.656144 0.75132 -0.0706616 1 
0.0703204 0.201961 0.0666923 0.602723 0.797599 -0.0236635 1 
0.0704726 0.201797 0.0666894 0.64624 0.762981 -0.0152874 1 
0.0707604 0.201566 0.067213 0.64624 0.762981 -0.0152874 1 
0.0708104 0.20179 0.0675702 0.649997 0.756648 -0.0706205 1 
0.0706533 0.201479 0.0665267 0.624305 0.78073 0.0265364 1 
0.0707912 0.201307 0.0662794 0.65259 0.756892 -0.035237 1 
0.0706154 0.201755 0.0661915 0.658795 0.750255 -0.0557332 1 
0.0707961 0.201438 0.0660288 0.655314 0.754389 0.0382148 1 
0.07131 0.201366 0.0660015 0.684397 0.729001 0.012545 1 
0.0709174 0.201534 0.0669594 0.64624 0.762981 -0.0152874 1 
0.0715428 0.20061 0.0657697 0.573477 0.506207 -0.644111 1 
0.0714191 0.200963 0.0669099 0.68177 0.731555 -0.0041487 1 
0.0718309 0.200935 0.0659457 0.449949 0.597144 -0.664051 1 
0.0728564 0.200898 0.0666647 0.510263 -0.284177 -0.811711 1 
0.0718638 0.200357 0.0658829 0.61483 0.380766 -0.690653 1 
0.0720946 0.200262 0.0660775 0.61483 0.380766 -0.690653 1 
0.0722802 0.200247 0.0663128 0.715795 0.209614 -0.666108 1 
0.0724299 0.200018 0.0664351 0.877652 -0.0508187 -0.476597 1 
0.0719228 0.199558 0.0657857 0.785689 0.279813 -0.551722 1 
0.0718727 0.199335 0.0654284 0.585662 0.360533 -0.725959 1 
0.0721084 0.199544 0.0660209 0.785689 0.279813 -0.551722 1 
0.0724087 0.200368 0.066219 0.588741 0.412948 -0.69488 1 
0.0727225 0.199919 0.0667081 0.575006 -0.00682905 -0.818121 1 
0.072556 0.200074 0.0664666 0.877652 -0.0508187 -0.476597 1 
0.0730509 0.199862 0.0664455 0.692485 0.241344 -0.679866 1 
0.0727823 0.200404 0.0665642 0.681786 -0.230396 -0.694324 1 
0.072967 0.198762 0.065549 -0.620627 0.0497069 -0.782529 1 
0.0734427 0.198754 0.066831 0.406668 0.62577 -0.665607 1 
0.0737785 0.199066 0.0668411 0.344925 0.668598 -0.65879 1 
0.0734353 0.198214 0.0659099 -0.620627 0.0497069 -0.782529 1 
0.0732542 0.197804 0.0657716 -0.620627 0.0497069 -0.782529 1 
0.0737181 0.19751 0.0653869 -0.620627 0.0497069 -0.782529 1 
0.074071 0.198967 0.067114 -0.0618868 0.732567 -0.677876 1 
0.074264 0.199148 0.0669734 -0.0041536 0.668729 -0.743494 1 
0.0743754 0.198467 0.0664597 -0.0266647 0.762049 -0.64697 1 
0.0749537 0.198456 0.0663854 0.0382213 0.689399 -0.723373 1 
0.0744196 0.196933 0.065817 -0.620627 0.0497069 -0.782529 1 
0.0750431 0.196842 0.0657022 -0.620627 0.0497069 -0.782529 1 
0.0750725 0.198144 0.0661443 -0.0371226 0.510092 -0.859319 1 
0.0736215 0.19927 0.0677431 0.738352 -0.0410983 -0.673162 1 
0.074557 0.199776 0.0675474 0.0441488 0.713502 -0.699261 1 
0.0744284 0.199827 0.0682897 -0.159609 0.718999 -0.676436 1 
0.0746856 0.200069 0.0681022 -0.0527851 0.766097 -0.640554 1 
0.0750616 0.20017 0.0683221 -0.620627 0.0497069 -0.782529 1 
0.0747426 0.199762 0.0677826 -0.0181482 0.735699 -0.677066 1 
0.075147 0.199709 0.0678428 0.126376 0.759741 -0.637826 1 
0.074693 0.200609 0.0690234 -0.620627 0.0497069 -0.782529 1 
0.0751451 0.200543 0.0689175 -0.620627 0.0497069 -0.782529 1 
0.0756492 0.199866 0.0680942 0.145646 0.773274 -0.617118 1 
0.0740638 0.19877 0.0674899 -0.0675821 0.760658 -0.645625 1 
0.0746684 0.199096 0.0670336 -0.0238793 0.729022 -0.684073 1 
0.0752158 0.199173 0.0672443 0.0210382 0.7167 -0.697064 1 
0.0754014 0.199158 0.0674796 -0.00415807 0.724889 -0.688853 1 
0.0751275 0.19867 0.0668995 0.0470571 0.731524 -0.680189 1 
0.0755913 0.198375 0.0665148 0.169598 0.682976 -0.710479 1 
0.0758701 0.199166 0.0674929 0.169213 0.714963 -0.678376 1 
0.0756345 0.198958 0.0669004 0.139642 0.725239 -0.674187 1 
0.0758843 0.199003 0.0670888 -0.620627 0.0497069 -0.782529 1 
0.0753881 0.19686 0.0655586 -0.122904 0.504629 -0.854543 1 
0.0748973 0.195748 0.0647273 -0.620627 0.0497069 -0.782529 1 
0.0752758 0.195914 0.0648219 0.0703788 0.779912 -0.621919 1 
0.0754397 0.195522 0.0645401 0.369562 0.882423 -0.291124 1 
0.0756708 0.195984 0.0643872 0.0549978 0.910817 -0.40913 1 
0.0759134 0.195833 0.0649514 0.0441488 0.713502 -0.699261 1 
0.0749875 0.195074 0.0627004 -0.620627 0.0497069 -0.782529 1 
0.0753278 0.195133 0.063456 0.188017 0.934512 -0.302219 1 
0.0754682 0.195197 0.0637319 0.284989 0.910504 -0.299604 1 
0.0757705 0.19536 0.0635037 0.348846 0.895125 -0.277593 1 
0.0755849 0.195375 0.0632685 0.257724 0.920032 -0.295159 1 
0.0755349 0.195152 0.0629112 0.10302 0.955865 -0.275153 1 
0.0760036 0.19516 0.0629245 0.379047 0.858657 -0.34501 1 
0.0761249 0.195084 0.0632066 0.341259 0.878173 -0.335192 1 
0.0753945 0.19543 0.0639323 0.284989 0.910504 -0.299604 1 
0.0758894 0.19539 0.0645596 0.121006 0.88121 -0.456976 1 
0.0757872 0.195434 0.0636228 0.284989 0.910504 -0.299604 1 
0.0760965 0.195409 0.0640149 0.141357 0.916721 -0.373686 1 
0.0763556 0.19499 0.0634011 0.333691 0.890341 -0.309749 1 
0.0764176 0.195156 0.0641281 0.275162 0.825487 -0.492805 1 
0.0766744 0.194843 0.0642882 0.0647041 0.665734 -0.743379 1 
0.0767268 0.19496 0.0638716 0.222229 0.854146 -0.470158 1 
0.0772294 0.195844 0.0644241 -0.195511 0.617321 -0.76203 1 
0.0773217 0.195023 0.0639165 0.067399 0.778673 -0.623799 1 
0.075855 0.19753 0.0659981 -0.122698 0.492235 -0.861772 1 
0.0762736 0.197315 0.0656541 -0.14594 0.529218 -0.835841 1 
0.076388 0.197599 0.0659645 -0.0960383 0.531794 -0.84141 1 
0.0768259 0.197695 0.0662629 -0.00957548 0.573161 -0.819387 1 
0.0760258 0.196779 0.065688 -0.350909 0.598993 -0.719771 1 
0.0766061 0.196106 0.0651875 -0.269219 0.552607 -0.788763 1 
0.0766354 0.197407 0.0656297 -0.0363937 0.181969 -0.982631 1 
0.076547 0.196904 0.0652848 -0.209861 0.556056 -0.804214 1 
0.0767949 0.19744 0.0652509 -0.157309 0.343851 -0.925754 1 
0.077033 0.197714 0.0657181 -0.0624186 -0.373184 -0.925655 1 
0.077354 0.197461 0.0658313 -0.0799281 -0.710633 -0.699008 1 
0.0777295 0.196491 0.0644532 -0.620627 0.0497069 -0.782529 1 
0.0769644 0.194334 0.0633894 0.215353 0.856894 -0.468355 1 
0.0767361 0.194323 0.062421 0.477127 0.784429 -0.396258 1 
0.0770143 0.194043 0.0618012 0.416746 0.812735 -0.407166 1 
0.0773236 0.194018 0.0621932 0.3028 0.820541 -0.484794 1 
0.0768313 0.194467 0.0627376 0.28363 0.781172 -0.556169 1 
0.0769717 0.194531 0.0630136 0.25271 0.843899 -0.473257 1 
0.0773453 0.194567 0.0633588 0.0977856 0.871567 -0.480425 1 
0.0776094 0.19445 0.063143 0.0978442 0.787135 -0.608971 1 
0.077388 0.194422 0.0634434 0.11094 0.84862 -0.51724 1 
0.077581 0.194604 0.0633027 0.0630946 0.848272 -0.525788 1 
0.077843 0.195149 0.0635132 -0.148512 0.775564 -0.613551 1 
0.0778975 0.194775 0.063319 -0.0352547 0.768552 -0.638815 1 
0.0775662 0.193867 0.0627574 0.177074 0.797589 -0.576625 1 
0.0780973 0.194598 0.0631501 0.00136869 0.795211 -0.606331 1 
0.0781636 0.193996 0.062677 0.128878 0.798454 -0.5881 1 
0.0784423 0.194616 0.0630065 -0.300902 0.687086 -0.66134 1 
0.0776589 0.193602 0.0619023 0.409841 0.814899 -0.409841 1 
0.0778277 0.193341 0.0613699 -0.620627 0.0497069 -0.782529 1 
0.0782131 0.193149 0.0614363 -0.620627 0.0497069 -0.782529 1 
0.0782701 0.192841 0.0611167 -0.620627 0.0497069 -0.782529 1 
0.0776064 0.193485 0.0623188 0.391975 0.807948 -0.439972 1 
0.0779849 0.193652 0.0624134 0.211782 0.777566 -0.592063 1 
0.0778705 0.193368 0.062103 0.419906 0.815862 -0.397553 1 
0.0781989 0.193311 0.0618404 0.419906 0.815862 -0.397553 1 
0.0782229 0.193754 0.0622322 0.215299 0.763613 -0.608722 1 
0.0620368 0.20383 0.0575323 0.620627 -0.0497069 0.782529 1 
0.0624153 0.203997 0.0576269 0.620627 -0.0497069 0.782529 1 
0.0628532 0.204093 0.0579253 0.114426 -0.984064 0.136107 1 
0.0626891 0.204142 0.0569101 0.620627 -0.0497069 0.782529 1 
0.0628865 0.203899 0.0568664 0.0293183 -0.981576 0.18881 1 
0.0630435 0.203866 0.0566129 0.620627 -0.0497069 0.782529 1 
0.0628674 0.203931 0.0575211 0.0994063 -0.959206 0.264653 1 
0.0631433 0.203585 0.0570266 0.0293183 -0.981576 0.18881 1 
0.0635742 0.204041 0.0573531 0.15434 -0.927432 0.340661 1 
0.0633361 0.203767 0.0568859 0.0994063 -0.959206 0.264653 1 
0.0635718 0.203975 0.0574784 0.096955 -0.957915 0.270181 1 
0.0639002 0.20409 0.0578643 0.225195 -0.969976 -0.0918394 1 
0.0640646 0.204426 0.0578834 0.0494024 -0.995733 -0.077946 1 
