0.0959454 0.225216 0.0405969 -0.57516 0.768465 -0.28045 1 
0.0961936 0.226221 0.0404324 -0.799171 0.513185 -0.312995 1 
0.0963413 0.226097 0.0406826 -0.793345 0.540989 -0.279169 1 
0.0964522 0.226222 0.0402802 -0.676556 0.617006 -0.401964 1 
0.0968624 0.226198 0.0403856 -0.698284 0.619788 -0.358136 1 
0.096493 0.226072 0.0409402 -0.823925 0.496847 -0.272565 1 
0.0966544 0.226189 0.0406236 -0.631004 0.723658 -0.279559 1 
0.0965677 0.2253 0.0404717 -0.721807 0.556634 -0.411282 1 
0.0965883 0.225326 0.0401126 -0.710425 0.510774 -0.484154 1 
0.0969686 0.22601 0.0387908 -0.664577 0.519885 -0.536709 1 
0.0968037 0.225321 0.0387042 -0.704238 0.471157 -0.531092 1 
0.0971409 0.226011 0.0386893 -0.654186 0.52974 -0.53983 1 
0.0971645 0.22572 0.0385307 -0.664532 0.516485 -0.540038 1 
0.0968996 0.225463 0.0380793 -0.652711 0.46814 -0.595662 1 
0.0969846 0.225048 0.0382217 -0.658356 0.474083 -0.584647 1 
0.0967807 0.225138 0.038467 -0.682681 0.462354 -0.565841 1 
0.0970392 0.225139 0.0383149 -0.659141 0.46794 -0.588698 1 
0.0974109 0.225422 0.0383565 -0.659215 0.488121 -0.571991 1 
0.0975833 0.225423 0.038255 -0.621058 0.503242 -0.600861 1 
0.0975793 0.225323 0.0382477 -0.636448 0.485313 -0.599504 1 
0.0972978 0.22514 0.0381627 -0.644911 0.467351 -0.604709 1 
0.0960251 0.224274 0.0383618 -0.743886 0.327568 -0.582523 1 
0.096313 0.223352 0.0384519 -0.700966 0.287123 -0.652845 1 
0.0965957 0.223951 0.0383437 -0.749286 0.334994 -0.57127 1 
0.0965509 0.223327 0.0386587 -0.72499 0.329246 -0.604969 1 
0.0971713 0.224143 0.03814 -0.671588 0.412902 -0.615208 1 
0.0974419 0.224443 0.0380098 -0.634444 0.486351 -0.600786 1 
0.0974092 0.224118 0.0383468 -0.67788 0.48707 -0.550673 1 
0.0966657 0.223552 0.0382636 -0.648065 0.286429 -0.70567 1 
0.0970921 0.223927 0.0383985 -0.697884 0.387713 -0.602193 1 
0.0974011 0.223919 0.0383321 -0.671588 0.412902 -0.615208 1 
0.0972483 0.223529 0.0382676 -0.589059 0.309778 -0.746356 1 
0.0977402 0.225913 0.0383269 -0.58053 0.556835 -0.59407 1 
0.0975017 0.22505 0.0379173 -0.624226 0.482892 -0.614131 1 
0.0976085 0.225075 0.0375075 -0.567185 0.444101 -0.693596 1 
0.0976775 0.225622 0.038219 -0.596499 0.525528 -0.606638 1 
0.097708 0.225116 0.0382681 -0.619292 0.478315 -0.622649 1 
0.097704 0.225016 0.0382608 -0.63536 0.471072 -0.61189 1 
0.0981509 0.225416 0.0380365 -0.558114 0.521019 -0.645793 1 
0.0987783 0.226016 0.0377255 -0.502832 0.580191 -0.640733 1 
0.0975321 0.224543 0.0379664 -0.612865 0.514942 -0.599359 1 
0.0977907 0.224544 0.0378143 -0.5839 0.466786 -0.664208 1 
0.0979303 0.22422 0.0380498 -0.592613 0.485171 -0.642977 1 
0.0975286 0.223971 0.0375633 -0.547663 0.282512 -0.787561 1 
0.0972749 0.225644 0.0395064 -0.675503 0.531351 -0.511236 1 
0.0972541 0.226293 0.0388831 -0.59407 0.556835 -0.58053 1 
0.0973432 0.225977 0.0390328 -0.613916 0.54965 -0.566562 1 
0.0976373 0.225987 0.038744 -0.590706 0.556854 -0.583935 1 
0.0976253 0.225688 0.038722 -0.623593 0.539095 -0.566135 1 
0.097492 0.226268 0.03909 -0.589673 0.569397 -0.572776 1 
0.0976316 0.225944 0.0393255 -0.587462 0.573918 -0.570532 1 
0.0970077 0.225917 0.0400396 -0.702062 0.562646 -0.436507 1 
0.0969956 0.225618 0.0400176 -0.71538 0.526161 -0.459768 1 
0.0977448 0.226226 0.0395193 -0.599215 0.592464 -0.53845 1 
0.0979637 0.226119 0.0394964 -0.589592 0.582834 -0.559183 1 
0.097958 0.226076 0.0400779 -0.607773 0.644607 -0.463782 1 
0.0972437 0.223902 0.038656 -0.697037 0.483078 -0.529882 1 
0.0980998 0.225897 0.0383464 -0.576143 0.566005 -0.589659 1 
0.0981608 0.226244 0.0390432 -0.590814 0.570499 -0.570499 1 
0.0980797 0.225399 0.0383097 -0.575027 0.531184 -0.622244 1 
0.09824 0.2251 0.0381862 -0.569972 0.506081 -0.647313 1 
0.0986209 0.225998 0.0380494 -0.54623 0.569905 -0.613874 1 
0.0983125 0.226219 0.0393008 -0.60257 0.589068 -0.538431 1 
0.0985726 0.224802 0.0379613 -0.593404 0.532542 -0.603548 1 
0.0970644 0.222757 0.0379512 -0.330519 0.0531422 -0.942302 1 
0.0993275 0.225454 0.0368814 -0.455931 0.586197 -0.669701 1 
0.0991196 0.225444 0.0371195 -0.456211 0.569846 -0.683481 1 
0.0989622 0.225427 0.0374434 -0.461585 0.5046 -0.729602 1 
0.0995981 0.225753 0.0367513 -0.520711 0.62519 -0.581376 1 
0.0997498 0.225728 0.0370089 -0.506723 0.594263 -0.624566 1 
0.0971537 0.225849 0.0408788 -0.70244 0.664384 -0.255288 1 
0.0972578 0.225516 0.0412509 -0.753462 0.604981 -0.257472 1 
0.0980977 0.225752 0.0403134 -0.620638 0.637367 -0.456696 1 
0.0984464 0.225853 0.0401179 -0.589761 0.640168 -0.492308 1 
0.09773 0.224894 0.0412615 -0.679926 0.686266 -0.25834 1 
0.101733 0.23345 0.0441637 -0.160447 0.38195 -0.910149 1 
0.10225 0.233451 0.0438594 -0.174978 0.371295 -0.911879 1 
0.102324 0.233153 0.0437866 -0.14078 0.369374 -0.918555 1 
0.102423 0.232979 0.0433621 -0.0821542 0.370367 -0.925245 1 
0.101997 0.232605 0.0432273 -0.128896 0.372828 -0.918904 1 
0.102054 0.232853 0.0439167 -0.12942 0.377128 -0.917074 1 
0.102226 0.232854 0.0438153 -0.117072 0.370498 -0.921426 1 
0.101941 0.232571 0.043723 -0.14078 0.369374 -0.918555 1 
0.101929 0.232272 0.0437009 -0.12783 0.350501 -0.927798 1 
0.102458 0.232572 0.0434186 -0.0896592 0.349269 -0.932723 1 
0.102363 0.232373 0.0434546 -0.0949909 0.341164 -0.935192 1 
0.102214 0.232555 0.0437933 -0.128504 0.366166 -0.921634 1 
0.102081 0.234496 0.0447597 -0.246214 0.395435 -0.884879 1 
0.102337 0.234812 0.0444071 -0.246214 0.395435 -0.884879 1 
0.102509 0.234813 0.0443057 -0.259042 0.393803 -0.881939 1 
0.102759 0.234615 0.0441388 -0.264728 0.40995 -0.872846 1 
0.102438 0.234796 0.0445789 -0.248939 0.389061 -0.886939 1 
0.102274 0.234522 0.0442992 -0.234517 0.41974 -0.876824 1 
0.102066 0.23404 0.0441415 -0.200609 0.405611 -0.89176 1 
0.102325 0.234041 0.0439893 -0.199154 0.388133 -0.899828 1 
0.102709 0.234623 0.044053 -0.264728 0.40995 -0.872846 1 
0.102791 0.234523 0.0439949 -0.24763 0.409715 -0.87796 1 
0.102415 0.234141 0.0439459 -0.186332 0.39433 -0.89988 1 
0.102582 0.234099 0.044426 -0.205568 0.392182 -0.896624 1 
0.102739 0.234589 0.0444979 -0.276143 0.393844 -0.876717 1 
0.102593 0.23487 0.0448438 -0.257001 0.369903 -0.892817 1 
0.102754 0.234572 0.0447203 -0.276143 0.393844 -0.876717 1 
0.101858 0.233143 0.0441768 -0.162472 0.371566 -0.91408 1 
0.102284 0.233517 0.0443116 -0.213237 0.364099 -0.906621 1 
0.1025 0.233726 0.0440883 -0.181618 0.370386 -0.91095 1 
0.10248 0.233227 0.0440516 -0.167526 0.356169 -0.919282 1 
0.100132 0.231822 0.0426185 -0.399425 -0.0329559 0.916173 1 
0.0996653 0.230924 0.0428061 -0.209209 0.893891 -0.396472 1 
0.0999279 0.231024 0.0426612 -0.530746 -0.0204658 0.847284 1 
0.0996923 0.231206 0.0430506 -0.524778 0.815806 0.243039 1 
0.0998411 0.231497 0.0431077 -0.37908 0.925363 0.00127636 1 
0.100213 0.231307 0.0427535 -0.401497 -0.0918099 0.911247 1 
0.1001 0.231497 0.0429555 -0.397611 -0.0492027 0.916234 1 
0.0993441 0.230633 0.0428503 -0.0898035 0.850995 -0.517439 1 
0.0996601 0.230409 0.0429918 -0.658493 0.674752 0.333311 1 
0.099898 0.230384 0.0431986 -0.539651 0.799309 0.264351 1 
0.100362 0.231598 0.0428107 -0.3861 -0.0601195 0.920496 1 
0.100465 0.231524 0.0423936 -0.438124 0.89875 0.0172073 1 
0.100617 0.231499 0.0426512 -0.501579 0.8636 0.0511251 1 
0.100739 0.231508 0.0424639 -0.489717 0.869838 0.059654 1 
0.100777 0.231201 0.0425277 -0.485154 0.871041 0.0768977 1 
0.100952 0.230885 0.0426267 -0.517863 0.843545 0.142302 1 
0.0997654 0.231852 0.0437693 -0.473584 0.863073 0.175565 1 
0.0994821 0.231726 0.0442732 -0.442892 0.827468 0.345172 1 
0.0996194 0.231246 0.0439126 -0.4325 0.863483 0.2595 1 
0.0999187 0.23177 0.0434381 -0.411795 0.910215 0.0439782 1 
0.0998395 0.231554 0.0436966 -0.442829 0.892599 0.0846789 1 
0.100255 0.231572 0.0432205 -0.441897 0.895957 0.0445951 1 
0.100365 0.231755 0.0434069 -0.513637 0.830658 0.214904 1 
0.100011 0.232027 0.0439909 -0.539708 0.833565 0.117834 1 
0.100262 0.231828 0.043824 -0.525174 0.850864 -0.0149274 1 
0.0999928 0.231472 0.0433653 -0.390695 0.918733 0.0573375 1 
0.100198 0.231122 0.0439092 -0.462115 0.835542 0.297185 1 
0.0998739 0.231147 0.0437531 -0.411797 0.889541 0.197839 1 
0.0998843 0.231503 0.044364 -0.548361 0.780421 0.300406 1 
0.0998803 0.231403 0.0443566 -0.513885 0.809329 0.284444 1 
0.100295 0.231478 0.0444694 -0.497247 0.805445 0.322496 1 
0.10068 0.232003 0.0439442 0.166583 -0.380151 0.9098 1 
0.0991569 0.229975 0.0437117 -0.717909 0.559474 0.414242 1 
0.100379 0.230377 0.0430309 -0.494554 0.850989 0.176732 1 
0.100201 0.230334 0.0437138 -0.507027 0.749875 0.424984 1 
0.100264 0.230624 0.0438217 -0.475295 0.791085 0.38507 1 
0.0999859 0.229653 0.0435414 -0.709836 0.546923 0.443855 1 
0.101054 0.231757 0.0430011 -0.490129 0.289693 0.822102 1 
0.100768 0.231474 0.0429088 -0.539708 0.833565 0.117834 1 
0.100941 0.231474 0.0428073 -0.51424 0.857066 0.03154 1 
0.101019 0.231275 0.0427419 -0.535132 0.839282 0.0961229 1 
0.101042 0.231458 0.0429791 -0.529877 0.848073 0.00134829 1 
0.10103 0.231159 0.042957 -0.54642 0.823352 0.153355 1 
0.100974 0.231124 0.0434527 -0.552803 0.831314 0.0576715 1 
0.100637 0.23085 0.0432745 -0.484099 0.861432 0.153566 1 
0.101194 0.231433 0.0432367 -0.556256 0.830983 0.00680019 1 
0.101182 0.231134 0.0432146 -0.542465 0.840077 -0.00135278 1 
0.101527 0.232023 0.0432144 -0.0947628 0.402398 -0.910547 1 
0.101773 0.231725 0.0430402 -0.108805 0.450765 -0.885987 1 
0.101276 0.230861 0.0427828 -0.554365 0.817352 0.156896 1 
0.101503 0.231425 0.0431703 -0.560028 0.563411 0.607402 1 
0.101581 0.231226 0.0431049 -0.558559 0.528184 0.639558 1 
0.101425 0.231151 0.04284 -0.439473 0.868447 -0.229486 1 
0.101483 0.230927 0.0431336 -0.491413 0.863912 -0.110317 1 
0.10202 0.231427 0.042866 -0.194459 0.595627 -0.779368 1 
0.101396 0.231399 0.0435801 0.255221 -0.565243 0.784451 1 
0.101269 0.230875 0.0439532 -0.552274 0.824748 -0.121588 1 
0.101887 0.232007 0.043234 -0.126038 0.375344 -0.918276 1 
0.101977 0.232107 0.0431906 -0.0944641 0.325968 -0.94065 1 
0.101941 0.232098 0.0433272 -0.112186 0.33926 -0.933979 1 
0.102383 0.231983 0.0432887 -0.0877906 0.307922 -0.947352 1 
0.101961 0.231708 0.0431612 -0.10937 0.394562 -0.912337 1 
0.101874 0.231708 0.0432119 -0.0953939 0.413374 -0.905551 1 
0.102219 0.231709 0.043009 -0.0951415 0.344386 -0.933995 1 
0.101842 0.230911 0.0431532 -0.353072 0.743567 -0.567845 1 
0.102199 0.231211 0.0429723 -0.149288 0.524724 -0.83808 1 
0.10225 0.231202 0.0430582 -0.117022 0.435661 -0.892471 1 
0.10208 0.230886 0.04336 -0.158411 0.454887 -0.876347 1 
0.102502 0.231161 0.0434875 -0.0712701 0.304518 -0.949837 1 
0.101249 0.230579 0.0425383 -0.51593 0.846243 0.133002 1 
0.101527 0.230662 0.0426159 -0.500853 0.865355 0.0175501 1 
0.101601 0.230363 0.0425432 -0.514928 0.854472 0.0687506 1 
0.101416 0.230537 0.0430184 -0.504937 0.863105 0.00942548 1 
0.101506 0.230636 0.042975 -0.486026 0.873769 -0.0175023 1 
0.101115 0.23143 0.0446802 0.165076 -0.225824 0.96008 1 
0.101001 0.230732 0.0446795 -0.0337124 0.462533 0.885961 1 
0.102312 0.22993 0.0439457 -0.351983 0.636844 0.685958 1 
0.102319 0.232424 0.0427873 -0.0368637 0.319062 -0.947017 1 
0.102587 0.233253 0.0436418 -0.146538 0.364251 -0.9197 1 
0.102747 0.232955 0.0435183 -0.125784 0.366295 -0.921958 1 
0.102747 0.232955 0.0435183 -0.125784 0.366295 -0.921958 1 
0.102622 0.232374 0.0433025 -0.0640982 0.333572 -0.940543 1 
0.102618 0.232274 0.0432951 -0.0808962 0.338173 -0.937601 1 
0.102723 0.232357 0.0434742 -0.0922537 0.343611 -0.93457 1 
0.102731 0.232556 0.0434889 -0.0812042 0.35011 -0.933182 1 
0.103088 0.232856 0.043308 -0.131555 0.366969 -0.920884 1 
0.102889 0.232574 0.043165 -0.0990559 0.3623 -0.926783 1 
0.102955 0.234325 0.0438787 -0.20134 0.380952 -0.902407 1 
0.103033 0.234126 0.0438133 -0.188981 0.38229 -0.904511 1 
0.102947 0.234598 0.0442598 -0.264728 0.40995 -0.872846 1 
0.103185 0.234101 0.0440709 -0.184096 0.366765 -0.911917 1 
0.103074 0.233975 0.0444733 -0.200944 0.371529 -0.906415 1 
0.10265 0.233544 0.0437497 -0.165394 0.368955 -0.914613 1 
0.102822 0.233544 0.0436482 -0.165394 0.368955 -0.914613 1 
0.102907 0.233129 0.0437906 -0.180768 0.360113 -0.915228 1 
0.103424 0.23313 0.0434862 -0.173613 0.354284 -0.91888 1 
0.103252 0.23313 0.0435877 -0.161464 0.358029 -0.919644 1 
0.103407 0.233205 0.0438526 -0.1767 0.349159 -0.920253 1 
0.102872 0.232648 0.0435314 -0.125784 0.366295 -0.921958 1 
0.103303 0.232649 0.0432777 -0.122059 0.357949 -0.925729 1 
0.103479 0.233222 0.0435794 -0.167791 0.359552 -0.917915 1 
0.103823 0.233223 0.0433765 -0.168491 0.363883 -0.916079 1 
0.104004 0.233423 0.0432898 -0.189585 0.352087 -0.916566 1 
0.103498 0.232832 0.0434134 -0.161209 0.354659 -0.920993 1 
0.103984 0.232924 0.043253 -0.15434 0.340661 -0.927432 1 
0.103249 0.232771 0.0443696 -0.211323 0.34933 -0.912859 1 
0.104257 0.233381 0.0437191 -0.192946 0.358737 -0.913279 1 
0.104336 0.233125 0.0430648 -0.178137 0.329624 -0.927154 1 
0.10445 0.233407 0.0432586 -0.175256 0.332285 -0.926753 1 
0.104622 0.233407 0.0431571 -0.184346 0.333512 -0.924546 1 
0.10461 0.233109 0.0431351 -0.172733 0.308156 -0.935523 1 
0.104907 0.232802 0.0430467 -0.131878 0.283738 -0.94979 1 
0.10502 0.233084 0.0432405 -0.185553 0.253272 -0.949433 1 
0.102458 0.2321 0.0430228 -0.0684075 0.300735 -0.951251 1 
0.102375 0.231784 0.043274 -0.0766731 0.302794 -0.949967 1 
0.102543 0.231684 0.0431652 -0.0795857 0.306601 -0.948505 1 
0.102606 0.231975 0.0432731 -0.0738479 0.304461 -0.949658 1 
0.102586 0.231477 0.0432363 -0.0789142 0.291077 -0.953439 1 
0.102864 0.231976 0.0431209 -0.044293 0.299927 -0.952933 1 
0.10304 0.23166 0.0432199 -0.0518466 0.284524 -0.957266 1 
0.102519 0.231087 0.0431211 -0.0159597 0.283592 -0.958812 1 
0.102409 0.231377 0.0433305 -0.082452 0.312794 -0.946235 1 
0.102574 0.231178 0.0432143 -0.0234099 0.279687 -0.959806 1 
0.102558 0.230779 0.0431849 -0.00852582 0.27648 -0.960982 1 
0.102914 0.231079 0.0430041 0.0436453 0.180479 -0.98261 1 
0.102941 0.231361 0.0432485 -0.0304896 0.252453 -0.967129 1 
0.103236 0.232259 0.0431625 -0.0715078 0.310734 -0.947803 1 
0.103224 0.23196 0.0431405 -0.0659523 0.311657 -0.947903 1 
0.10207 0.23053 0.0427491 -0.185255 0.629254 -0.754798 1 
0.102394 0.230505 0.0429053 0.0141059 0.368035 -0.929705 1 
0.102608 0.229883 0.0430681 -0.518964 0.820794 -0.238692 1 
0.103016 0.231951 0.0433785 -0.0906882 0.306237 -0.947626 1 
0.10309 0.231652 0.0433057 -0.0846927 0.300985 -0.949861 1 
0.103376 0.231935 0.0433981 -0.102116 0.308999 -0.945564 1 
0.103897 0.232036 0.043101 -0.121529 0.297813 -0.946857 1 
0.103786 0.23191 0.0435035 -0.132345 0.29009 -0.947804 1 
0.104135 0.232011 0.0433079 -0.124258 0.295279 -0.947296 1 
0.103557 0.231876 0.0441006 -0.179931 0.287065 -0.94086 1 
0.104541 0.231887 0.043406 -0.104154 0.248169 -0.963101 1 
0.0939482 0.226397 0.046081 -0.227195 0.452885 0.862136 1 
0.0942584 0.226805 0.0458216 -0.525473 0.666495 0.528831 1 
0.0949523 0.227109 0.044045 -0.700511 0.675437 -0.230369 1 
0.0949937 0.226486 0.0443093 -0.823973 0.517093 -0.231695 1 
0.0951133 0.227024 0.0451066 -0.678723 0.728564 -0.0923532 1 
0.0951248 0.226435 0.0449259 -0.76213 0.646613 -0.0324011 1 
0.0944365 0.226174 0.046121 0.00115829 0.205018 0.978758 1 
0.0952714 0.227256 0.0459677 -0.372735 0.532247 0.76012 1 
0.0950548 0.226159 0.0459884 -0.216576 0.227473 0.949395 1 
0.0950312 0.226449 0.046147 -0.206287 0.247271 0.946733 1 
0.0952064 0.226134 0.0462459 -0.221159 0.194352 0.955676 1 
0.0955236 0.226325 0.0461943 -0.172295 0.214383 0.961434 1 
0.0956281 0.227556 0.0457868 -0.194736 0.45934 0.866651 1 
0.0959401 0.227232 0.045921 -0.159062 0.36739 0.916364 1 
0.0958062 0.226924 0.0460862 -0.183898 0.324279 0.927914 1 
0.0957701 0.226027 0.0460201 -0.172732 0.214926 0.961234 1 
0.0958011 0.226409 0.046272 -0.170546 0.253804 0.952102 1 
0.09617 0.227008 0.0461131 -0.0943093 0.322777 0.941765 1 
0.0964164 0.22671 0.0459389 -0.174802 0.331424 0.927148 1 
0.0960556 0.22631 0.0461124 -0.157488 0.273248 0.948964 1 
0.0963181 0.22641 0.0459676 -0.172132 0.301575 0.937775 1 
0.0967445 0.228146 0.0467009 0.485613 -0.515651 0.705892 1 
0.094171 0.225703 0.0444845 -0.614946 -0.493642 -0.614946 1 
0.0950683 0.225715 0.0438407 -0.936316 -0.0892364 -0.339631 1 
0.0953798 0.225864 0.0443706 -0.110572 -0.759264 -0.64132 1 
0.0938212 0.225873 0.046454 0.0841889 0.107254 0.990661 1 
0.0942671 0.225858 0.0464229 0.127589 0.106126 0.986133 1 
0.0942194 0.22555 0.0465374 0.110699 0.0650497 0.991723 1 
0.0946296 0.225526 0.0466428 0.0982904 0.0643972 0.993072 1 
0.094552 0.225252 0.0463125 0.139162 0.091585 0.986025 1 
0.0944417 0.224654 0.0463191 0.150465 0.00334366 0.98861 1 
0.0947123 0.224954 0.046189 0.137346 0.101517 0.985307 1 
0.0944296 0.224355 0.0462971 0.166031 0.0217558 0.98588 1 
0.0933329 0.224061 0.0467979 0.358151 -0.0871904 0.929584 1 
0.0942498 0.223683 0.045988 0.215923 -0.0752647 0.973505 1 
0.0946215 0.223966 0.0460296 0.174307 -0.0409446 0.98384 1 
0.0939832 0.223482 0.0461255 0.297276 -0.19958 0.933699 1 
0.0952208 0.225229 0.0462657 -0.0885087 0.17338 0.98087 1 
0.0953926 0.224341 0.0459615 0.158945 0.0600459 0.98546 1 
0.0956638 0.225529 0.0460341 -0.178829 0.243369 0.953306 1 
0.0957459 0.225429 0.045976 -0.179607 0.283807 0.94191 1 
0.0958355 0.224641 0.0457299 0.0114071 -0.0508136 0.998643 1 
0.095874 0.224334 0.0457938 0.145307 -0.265285 0.953158 1 
0.0960234 0.225513 0.0460536 -0.142956 0.209927 0.967209 1 
0.0960114 0.225214 0.0460316 0.0931871 -0.128575 0.987312 1 
0.0964842 0.22548 0.0462449 -0.0494112 0.136743 0.989374 1 
0.0965583 0.225181 0.0461722 -0.0293749 0.0903005 0.995481 1 
0.0963084 0.224907 0.0459433 0.43467 -0.607872 0.664495 1 
0.0962458 0.224617 0.0458354 0.374667 -0.520641 0.767175 1 
0.0964836 0.224592 0.0460422 0.133056 -0.226067 0.964982 1 
0.094868 0.223667 0.0458554 0.200577 -0.0222863 0.979424 1 
0.0954598 0.224258 0.045681 0.127535 0.134823 0.982628 1 
0.0958619 0.224035 0.0457717 0.0689254 -0.0937838 0.993204 1 
0.0956982 0.223761 0.0454921 0.208731 0.174599 0.962261 1 
0.0960376 0.226631 0.0431264 -0.594724 0.769551 -0.232582 1 
0.0970413 0.227141 0.0424685 -0.709074 0.678178 -0.193103 1 
0.0966403 0.227106 0.0431671 -0.738858 0.635761 -0.223376 1 
0.0963932 0.226516 0.0431386 -0.690037 0.68375 -0.237348 1 
0.0963594 0.227136 0.0442672 -0.694534 0.712229 -0.101747 1 
0.0960446 0.227101 0.044915 -0.661315 0.750045 0.00970484 1 
0.0967834 0.227354 0.0438058 -0.724087 0.686659 -0.0647792 1 
0.0967817 0.227411 0.0443946 -0.533712 0.842331 -0.0750312 1 
0.0969385 0.227215 0.0428857 -0.704976 0.683379 -0.189742 1 
0.0968075 0.226591 0.0432513 -0.725785 0.674905 -0.133185 1 
0.0967954 0.226292 0.0432293 -0.639009 0.765945 -0.0706804 1 
0.0966902 0.226209 0.0430502 -0.641178 0.717546 -0.272063 1 
0.0976072 0.227191 0.0428389 -0.773562 0.605064 -0.188412 1 
0.0968709 0.228456 0.0451428 -0.485961 0.868496 0.0977589 1 
0.0967519 0.228131 0.0455305 0.393495 -0.709609 0.58448 1 
0.0970024 0.227933 0.0453637 -0.426711 0.881476 0.202282 1 
0.0972626 0.227876 0.0446226 -0.365946 0.928735 -0.0594496 1 
0.0975316 0.228233 0.0450813 -0.315485 0.94893 -0.0012372 1 
0.0969278 0.228704 0.0458322 0.360694 -0.589188 0.72302 1 
0.0967112 0.227607 0.0458528 -0.575254 0.752503 0.32066 1 
0.0968956 0.227907 0.0457734 -0.44142 0.773707 0.454451 1 
0.0970352 0.227583 0.046009 0.03067 0.141991 0.989393 1 
0.097184 0.227874 0.0460662 0.0556553 0.11699 0.991572 1 
0.0974328 0.228407 0.0455058 0.170145 -0.125435 0.977403 1 
0.0973851 0.228099 0.0456204 0.0877667 0.0270885 0.995773 1 
0.0979257 0.22781 0.0451574 0.0153132 -0.0296056 0.999444 1 
0.0965118 0.227325 0.0457098 -0.434006 0.586989 0.683435 1 
0.0967497 0.2273 0.0459167 -0.577876 0.734147 0.356493 1 
0.0969456 0.22701 0.0456566 -0.405161 0.913906 0.0249128 1 
0.0970737 0.227275 0.0460728 0.00968455 0.0957694 0.995356 1 
0.0971478 0.226977 0.046 0.0180527 0.0732729 0.997149 1 
0.0974173 0.226861 0.046063 0.0381786 0.0818113 0.995916 1 
0.096987 0.226387 0.0459208 0.00110208 0.135556 0.990769 1 
0.0972576 0.226687 0.0457907 0.226712 -0.407489 0.884621 1 
0.0974093 0.226662 0.0460483 0.0362729 0.0956285 0.994756 1 
0.0975488 0.227012 0.0453015 -0.278715 0.798352 0.533809 1 
0.0975385 0.225982 0.045673 0.0185931 0.10609 0.994183 1 
0.0975506 0.22628 0.045695 0.0305069 0.0494422 0.998311 1 
0.0979022 0.226065 0.0456998 0.0367043 0.110113 0.993241 1 
0.0978982 0.225966 0.0456925 0.0362729 0.0956285 0.994756 1 
0.096991 0.227847 0.0465267 -0.0102301 0.169365 0.9855 1 
0.0974806 0.226004 0.0467574 0.087785 0.0566713 0.994526 1 
0.0978867 0.226555 0.0458732 0.0533902 0.117004 0.991695 1 
0.0981045 0.226032 0.0460433 0.0562257 0.127368 0.990261 1 
0.0948775 0.225833 0.0423342 -0.392695 0.899865 -0.189827 1 
0.0957549 0.226033 0.0432345 -0.565803 0.810637 -0.150781 1 
0.0959009 0.225965 0.0440736 -0.808654 0.58645 0.0464097 1 
0.0961025 0.225718 0.043232 -0.609408 0.759032 -0.229112 1 
0.0963731 0.226017 0.0431018 -0.621173 0.754392 -0.212221 1 
0.0963489 0.22542 0.0430578 -0.639342 0.721838 -0.264938 1 
0.0964152 0.224933 0.0455335 -0.472263 0.702554 0.532339 1 
0.0965526 0.225813 0.0457713 -0.619971 0.782446 -0.058434 1 
0.0975696 0.225689 0.0469071 0.0837085 -0.0636185 0.994457 1 
0.0980378 0.225641 0.0459281 0.071174 0.0937689 0.993047 1 
0.0983056 0.225583 0.0465798 0.0898301 0.0807334 0.99268 1 
0.0983003 0.225742 0.0457832 0.0619276 0.146056 0.987336 1 
0.0992288 0.229531 0.0456059 0.149097 0.352538 0.923844 1 
0.0992874 0.228361 0.0451079 0.117924 0.337508 0.933907 1 
0.0989967 0.227563 0.0452013 0.0324414 0.222283 0.974442 1 
0.0989221 0.228334 0.0456699 0.0927818 0.196697 0.976064 1 
0.0988479 0.228633 0.0457426 0.121038 0.212772 0.969576 1 
0.0989766 0.228426 0.0457631 0.10607 0.159714 0.981448 1 
0.0990979 0.228907 0.0459716 0.13466 0.241864 0.960921 1 
0.0990898 0.228708 0.0459569 0.126943 0.187273 0.974071 1 
0.0990823 0.228036 0.0455464 0.0751192 0.163354 0.983703 1 
0.0992311 0.228327 0.0456036 0.117321 0.200581 0.972627 1 
0.0996086 0.228652 0.0450637 0.0391046 0.446332 0.894013 1 
0.0997522 0.228428 0.0453065 0.0439559 0.282573 0.958238 1 
0.099615 0.228909 0.0456672 0.17713 0.289725 0.940577 1 
0.0996034 0.228137 0.0452494 0.0606851 0.236548 0.969723 1 
0.0994781 0.227556 0.0450336 0.0251964 0.229167 0.973061 1 
0.099716 0.227531 0.0452404 0.00805672 0.189908 0.981769 1 
0.0993053 0.225993 0.0459146 0.0635342 0.242925 0.967962 1 
0.0994414 0.227132 0.0453632 0.051425 0.194937 0.979467 1 
0.0998011 0.227116 0.0453828 0.0287181 0.159672 0.986752 1 
0.0998637 0.227406 0.0454907 0.0387547 0.179681 0.982961 1 
0.0997028 0.226817 0.0454115 0.0365305 0.187366 0.981611 1 
0.0998396 0.226808 0.0454466 0.0154564 0.22709 0.973751 1 
0.0991507 0.226334 0.0454566 0.0604298 0.233086 0.970577 1 
0.0991386 0.226035 0.0454346 0.0660549 0.240539 0.968389 1 
0.0995224 0.226617 0.0454982 0.0725 0.212585 0.974449 1 
0.0998425 0.226493 0.045647 0.0595769 0.207911 0.976332 1 
0.0995609 0.226309 0.045562 0.0648155 0.214013 0.974678 1 
0.0994541 0.226284 0.0459718 0.0648155 0.214013 0.974678 1 
0.100275 0.229833 0.0450192 -0.872988 0.425225 0.238907 1 
0.100427 0.229808 0.0452768 0.664767 0.244748 0.705821 1 
0.0999924 0.229234 0.0451273 -0.931023 0.312208 0.189005 1 
0.100316 0.22921 0.0452834 0.359096 0.377751 0.853437 1 
0.100522 0.229535 0.044845 0.684583 0.258903 0.681407 1 
0.100227 0.228637 0.044931 -0.942196 0.213822 0.257966 1 
0.100159 0.227831 0.0450089 -0.0304896 0.252453 0.967129 1 
0.0998459 0.227739 0.0450678 0.0084204 0.258627 0.965941 1 
0.0999976 0.227714 0.0453254 0.027212 0.204682 0.97845 1 
0.100397 0.227807 0.0452157 0.0223677 0.206018 0.978292 1 
0.100667 0.228106 0.0450856 0.206731 0.305174 0.929586 1 
0.100462 0.227781 0.045524 -0.0100973 0.151459 0.988412 1 
0.100235 0.227689 0.0455323 0.0101542 0.159082 0.987213 1 
0.100819 0.228081 0.0453432 0.0748799 0.204999 0.975894 1 
0.100203 0.226892 0.0454735 0.0316615 0.188796 0.981506 1 
0.100242 0.226585 0.0455373 0.038974 0.187784 0.981437 1 
0.100355 0.226867 0.0457311 0.0391201 0.19323 0.980373 1 
0.100393 0.22656 0.0457949 0.0537578 0.187555 0.980782 1 
0.100507 0.226842 0.0459887 0.0643639 0.200378 0.977602 1 
0.100753 0.226544 0.0458145 -0.0201492 0.21927 0.975456 1 
0.100238 0.226485 0.04553 0.0464559 0.191779 0.980338 1 
0.100511 0.226469 0.0456003 0.0422589 0.220953 0.974368 1 
0.100527 0.225979 0.0454269 -0.0237773 0.304099 0.952344 1 
0.100741 0.226245 0.0457924 0.0262124 0.295826 0.954882 1 
0.100729 0.225946 0.0457704 -0.0239688 0.319163 0.947397 1 
0.101591 0.226837 0.0454658 -0.10991 0.254733 0.960745 1 
0.0991415 0.225719 0.045635 0.0490026 0.280194 0.958692 1 
0.101065 0.22622 0.0459486 -0.0803569 0.266581 0.960457 1 
0.100881 0.225921 0.046028 -0.0317328 0.323674 0.945636 1 
0.101291 0.225896 0.0461334 -0.0710951 0.30377 0.950089 1 
0.101418 0.226421 0.0457604 -0.0868142 0.283766 0.954956 1 
0.101668 0.226222 0.0455935 -0.0710951 0.30377 0.950089 1 
0.101963 0.22712 0.0455074 -0.0966749 0.261667 0.960304 1 
0.101067 0.225489 0.0463421 -0.0651212 0.284746 0.956389 1 
0.101207 0.224692 0.0461818 -0.081131 -0.0633489 0.994688 1 
0.0718735 0.231282 -0.00263311 0.275118 0.0259079 -0.961061 0 
0.072128 0.231183 -0.00279264 0.315627 0.0937636 -0.944239 0 
0.0722056 0.231456 -0.00246228 0.398615 0.189886 -0.897246 0 
0.0722562 0.231448 -0.00237641 0.437124 0.111038 -0.892521 0 
0.0724079 0.231423 -0.00211881 0.555716 0.596254 -0.579363 0 
0.0726664 0.231424 -0.002271 0.551551 0.625766 -0.551551 0 
0.0722837 0.231257 -0.0025277 0.437124 0.111038 -0.892521 0 
0.072444 0.230959 -0.00265118 0.437124 0.111038 -0.892521 0 
0.0723343 0.231249 -0.00244182 0.437124 0.111038 -0.892521 0 
0.072486 0.231224 -0.00218423 0.439203 0.829607 -0.344751 0 
0.072694 0.231233 -0.00242229 0.432962 0.832862 -0.344796 0 
0.0728473 0.231151 -0.00275354 0.519728 0.466593 -0.715663 0 
0.072991 0.230926 -0.00251062 0.439203 0.829607 -0.344751 0 
0.0729008 0.230827 -0.00246724 0.439203 0.829607 -0.344751 0 
0.0727836 0.231806 -0.00206988 0.543169 0.654157 -0.526352 0 
0.0728577 0.231507 -0.00214265 0.543169 0.654157 -0.526352 0 
0.0728577 0.231507 -0.00214265 0.543169 0.654157 -0.526352 0 
0.0731749 0.231699 -0.00219426 0.545423 0.676324 -0.495076 0 
0.0730261 0.231408 -0.00225143 0.54514 0.669264 -0.504884 0 
0.0732525 0.231972 -0.0018639 0.543619 0.690814 -0.476712 0 
0.0733065 0.231175 -0.0019734 0.562144 0.704753 -0.432801 0 
0.0736742 0.231358 -0.00193916 0.568495 0.691864 -0.445127 0 
0.0731042 0.231209 -0.00231685 0.540922 0.678245 -0.49738 0 
0.0730019 0.23081 -0.00229552 0.439203 0.829607 -0.344751 0 
0.0732823 0.230577 -0.00201747 0.49676 0.797052 -0.343419 0 
0.0732783 0.230478 -0.00202482 0.330403 0.933628 -0.138468 0 
0.0735409 0.230578 -0.00216967 0.330403 0.933628 -0.138468 0 
0.0737937 0.230536 -0.00174034 0.573217 0.721039 -0.389262 0 
0.0738316 0.231376 -0.00226307 0.562144 0.704753 -0.432801 0 
0.074097 0.231161 -0.00220747 0.562144 0.704753 -0.432801 0 
0.0736678 0.231102 -0.0025427 0.410426 0.865099 -0.288366 0 
0.0738195 0.231077 -0.00228511 0.562144 0.704753 -0.432801 0 
0.0739005 0.230562 -0.00215012 0.49676 0.797052 -0.343419 0 
0.0742487 0.231135 -0.00194988 0.591446 0.690849 -0.415835 0 
0.0744866 0.231111 -0.00174302 0.620981 0.670659 -0.405708 0 
0.0746383 0.231085 -0.00148543 0.639612 0.659445 -0.395006 0 
0.0744987 0.231409 -0.00172098 0.620981 0.670659 -0.405708 0 
0.0739712 0.231052 -0.00202752 0.563832 0.715951 -0.411713 0 
0.0741149 0.230828 -0.00178462 0.603192 0.689126 -0.401577 0 
0.0745251 0.230803 -0.0016792 0.623841 0.670174 -0.402105 0 
0.0742039 0.230512 -0.00163493 0.603192 0.689126 -0.401577 0 
0.0754763 0.233223 0.00172342 0.829144 0.0577163 -0.556047 0 
0.0740145 0.232419 -0.000172794 0.82737 0.241894 -0.506899 0 
0.073849 0.232202 0.00013642 0.863816 0.182246 -0.46969 0 
0.0741581 0.232194 7.01174e-005 0.860738 0.166262 -0.481131 0 
0.074411 0.232152 0.000499427 0.896137 0.072734 -0.437776 0 
0.0744247 0.231034 -0.000665873 0.773535 0.431551 -0.464121 0 
0.0744873 0.231324 -0.000557974 0.786209 0.38584 -0.482703 0 
0.0742689 0.230959 -0.000930816 0.639612 0.659445 -0.395006 0 
0.0742046 0.230726 -0.000449866 0.718949 0.570882 -0.396492 0 
0.0744511 0.230427 -0.000624083 0.7203 0.568658 -0.397236 0 
0.0743299 0.231307 -0.000234045 0.802236 0.308552 -0.511089 0 
0.0744695 0.230983 1.51247e-006 0.891183 0.138312 -0.432045 0 
0.0744902 0.231008 -0.000357553 0.812489 0.34185 -0.472229 0 
0.0747045 0.231274 7.94977e-006 0.89287 0.0729154 -0.444371 0 
0.0742276 0.230908 -0.000212722 0.777088 0.428458 -0.46104 0 
0.074516 0.230875 8.00267e-005 0.917578 0.0743252 -0.390545 0 
0.0746172 0.230858 0.000251755 0.906581 0.0722538 -0.4158 0 
0.0742374 0.230376 0.000195466 0.915032 0.232 -0.329988 0 
0.0745315 0.23106 -0.00107565 0.656706 0.640165 -0.398655 0 
0.0744263 0.230977 -0.00125472 0.639612 0.659445 -0.395006 0 
0.0745786 0.230479 -0.00139291 0.656706 0.640165 -0.398655 0 
0.0750557 0.232892 0.00100709 0.822657 0.0637169 -0.564957 0 
0.0749408 0.232667 0.00140217 0.826064 0.0578951 -0.560594 0 
0.0753085 0.23285 0.00143643 0.828419 0.0844158 -0.55371 0 
0.0756446 0.233124 0.0016146 0.825267 0.078665 -0.559237 0 
0.0757107 0.232626 0.00152714 0.827188 0.0695236 -0.557607 0 
0.0759336 0.232619 0.00151155 0.827188 0.0695236 -0.557607 0 
0.0749573 0.231232 0.000437282 0.896642 0.0641433 -0.438085 0 
0.075097 0.230908 0.000672832 0.881325 0.0969879 -0.46245 0 
0.0747689 0.230833 0.000509344 0.902556 0.0499172 -0.427669 0 
0.0744902 0.230334 0.000624791 0.899874 0.220945 -0.376045 0 
0.0749125 0.230608 0.000752255 0.878562 0.118186 -0.462776 0 
0.0753349 0.230883 0.000879705 0.861743 0.107182 -0.495895 0 
0.0750723 0.230782 0.00102454 0.856054 0.104677 -0.506176 0 
0.074308 0.230179 -0.00126278 0.656706 0.640165 -0.398655 0 
0.0758302 0.233165 0.00232448 0.855063 0.101691 -0.508455 0 
0.0765854 0.233153 0.00479013 0.719439 0.544127 -0.431663 0 
0.0769778 0.233462 0.00447269 0.710683 0.554962 -0.432373 0 
0.0768985 0.233245 0.00473116 0.711394 0.558834 -0.426173 0 
0.077153 0.233146 0.00457166 0.706067 0.559869 -0.433608 0 
0.0772363 0.233463 0.0043205 0.719439 0.544127 -0.431663 0 
0.0772639 0.233272 0.00416922 0.753384 0.50718 -0.418547 0 
0.0755884 0.23309 0.00211025 0.838605 0.0460465 -0.542791 0 
0.075921 0.232792 0.00188529 0.83943 0.045939 -0.541523 0 
0.0761296 0.231654 0.0022338 0.82813 0.0262679 -0.559921 0 
0.0760227 0.231628 0.00264359 0.843683 0.081096 -0.530681 0 
0.076106 0.231945 0.00239243 0.837148 0.0901544 -0.539495 0 
0.0763399 0.23182 0.00259196 0.846611 0.104928 -0.521766 0 
0.0761744 0.231603 0.00290118 0.846611 0.104928 -0.521766 0 
0.0762371 0.231894 0.00300909 0.853774 0.151358 -0.498157 0 
0.0755884 0.231055 0.00249407 0.832337 0.0289869 -0.553511 0 
0.0759986 0.23103 0.00259951 0.829628 0.0150841 -0.558113 0 
0.0762692 0.23133 0.00246936 0.834146 0.0403844 -0.550063 0 
0.076372 0.231256 0.00205222 0.82813 0.0262679 -0.559921 0 
0.0766634 0.230907 0.00254539 0.833609 0.0290312 -0.551592 0 
0.0763888 0.231869 0.0032667 0.848374 0.187031 -0.495259 0 
0.0763262 0.231578 0.00315878 0.853774 0.151358 -0.498157 0 
0.0764899 0.231852 0.00343842 0.84586 0.203549 -0.493041 0 
0.0764778 0.231553 0.00341637 0.856325 0.176608 -0.4853 0 
0.0766416 0.231827 0.00369601 0.842434 0.250122 -0.477226 0 
0.0766296 0.231528 0.00367397 0.838651 0.230667 -0.493414 0 
0.0770478 0.231703 0.00379407 0.813897 0.297537 -0.499043 0 
0.0773512 0.231653 0.00430927 0.67337 0.545749 -0.49873 0 
0.0770358 0.231404 0.00377203 0.798986 0.282088 -0.531081 0 
0.0775834 0.23226 0.0041153 0.722736 0.503423 -0.473517 0 
0.07745 0.231479 0.00388478 0.745076 0.373353 -0.552693 0 
0.0766792 0.233151 0.00613222 0.574268 0.765161 -0.291111 0 
0.0767763 0.233034 0.00629661 0.555516 0.775176 -0.300838 0 
0.076928 0.233009 0.00655422 0.525866 0.779953 -0.33932 0 
0.0770291 0.232993 0.00672594 0.493075 0.806995 -0.325017 0 
0.0775469 0.233208 0.00760664 0.201667 0.916797 -0.344693 0 
0.0776509 0.232875 0.00797878 0.161369 0.921907 -0.352205 0 
0.0769641 0.23322 0.00503948 0.667856 0.61123 -0.424696 0 
0.0770147 0.233212 0.00512535 0.667434 0.614172 -0.421099 0 
0.0771664 0.233186 0.00538295 0.638409 0.651675 -0.409577 0 
0.0772306 0.23342 0.00490202 0.670874 0.600957 -0.434487 0 
0.0773047 0.233121 0.00482925 0.666569 0.599745 -0.442709 0 
0.0771979 0.233095 0.00523902 0.645917 0.629226 -0.43228 0 
0.0772485 0.233087 0.00532489 0.637439 0.647425 -0.417747 0 
0.0768515 0.233151 0.00603078 0.564885 0.752641 -0.338284 0 
0.0771606 0.233144 0.00596446 0.584245 0.730713 -0.353151 0 
0.0772675 0.23317 0.00555468 0.625741 0.678574 -0.38469 0 
0.0773686 0.233153 0.00572641 0.607142 0.695992 -0.383372 0 
0.0771359 0.233019 0.00631617 0.525866 0.779953 -0.33932 0 
0.0771865 0.23301 0.00640204 0.522379 0.77955 -0.345574 0 
0.0773945 0.233019 0.00616398 0.525866 0.779953 -0.33932 0 
0.0774451 0.233011 0.00624985 0.508481 0.787584 -0.348077 0 
0.0774002 0.233062 0.00558247 0.602804 0.695289 -0.39141 0 
0.0775013 0.233045 0.00575421 0.607142 0.695992 -0.383372 0 
0.077653 0.23302 0.00601181 0.522272 0.77128 -0.363812 0 
0.0773382 0.232985 0.00665963 0.448209 0.828794 -0.334977 0 
0.0777542 0.233003 0.00618354 0.508481 0.787584 -0.348077 0 
0.0775968 0.232986 0.00650744 0.419897 0.844477 -0.332484 0 
0.0774394 0.232968 0.00683136 0.471714 0.811603 -0.344653 0 
0.0775911 0.232943 0.00708895 0.351373 0.855989 -0.379236 0 
0.0776979 0.232969 0.00667918 0.270307 0.917888 -0.290544 0 
0.078007 0.232962 0.00661286 0.128308 0.962956 -0.237175 0 
0.077799 0.232952 0.00685091 0.129113 0.961173 -0.24388 0 
0.0781081 0.232945 0.0067846 0.106172 0.965777 -0.236647 0 
0.0778553 0.232987 0.00635526 0.419897 0.844477 -0.332484 0 
0.0781138 0.232987 0.00620309 0.368719 0.870545 -0.32588 0 
0.0782575 0.232763 0.006446 0.184993 0.944148 -0.272693 0 
0.0779272 0.233218 0.00726715 0.220917 0.911101 -0.34798 0 
0.078068 0.233309 0.00730962 0.207689 0.915263 -0.345193 0 
0.0782363 0.23321 0.00720082 0.207689 0.915263 -0.345193 0 
0.0781777 0.233019 0.00710026 0.214142 0.915492 -0.340615 0 
0.0779065 0.233192 0.0076262 0.173336 0.920231 -0.3509 0 
0.0782702 0.233276 0.00765308 0.140564 0.919929 -0.366023 0 
0.0785247 0.233177 0.00749356 0.160926 0.907165 -0.388785 0 
0.0782598 0.23292 0.00704218 0.212712 0.920802 -0.32692 0 
0.0787833 0.233178 0.00734137 0.160926 0.907165 -0.388785 0 
0.078365 0.233003 0.00722126 0.198723 0.916415 -0.347408 0 
0.0786195 0.232904 0.00706174 0.198723 0.916415 -0.347408 0 
0.0787752 0.232978 0.00732669 0.160687 0.908666 -0.385365 0 
0.0777443 0.232175 0.00517686 0.645917 0.629226 -0.43228 0 
0.077515 0.231926 0.00458891 0.679835 0.566251 -0.46603 0 
0.0775029 0.231627 0.00456686 0.678253 0.564374 -0.47059 0 
0.0779316 0.232158 0.00529787 0.622453 0.652491 -0.432213 0 
0.0783223 0.232524 0.00556926 0.565502 0.732693 -0.37864 0 
0.0781339 0.232125 0.00564133 0.584613 0.713064 -0.386998 0 
0.0782172 0.232441 0.00539019 0.606663 0.686009 -0.401687 0 
0.0781885 0.232216 0.00573454 0.571006 0.722396 -0.389995 0 
0.0777828 0.231868 0.00524069 0.649443 0.616052 -0.445762 0 
0.0781517 0.232466 0.00508185 0.62787 0.647856 -0.431349 0 
0.0783482 0.23239 0.00600683 0.493585 0.789415 -0.364964 0 
0.0782684 0.232646 0.00666111 0.155142 0.948392 -0.276558 0 
0.0784999 0.232365 0.00626443 0.291895 0.907954 -0.300695 0 
0.0783161 0.231593 0.00594805 0.541164 0.75568 -0.368902 0 
0.0786516 0.23234 0.00652201 0.114869 0.951957 -0.283871 0 
0.0798875 0.236 0.0133717 -0.755092 -0.599958 0.264361 0 
0.0801546 0.235727 0.0128384 -0.620924 -0.68351 0.383754 0 
0.0800955 0.236009 0.0131336 -0.719011 -0.639298 0.272618 0 
0.080146 0.236001 0.0132195 -0.718383 -0.63874 0.275566 0 
0.0806005 0.235712 0.0128072 -0.580267 -0.693327 0.427303 0 
0.0800513 0.236274 0.0136513 -0.60999 -0.593092 0.525504 0 
0.080165 0.236083 0.0134493 -0.697062 -0.625234 0.35098 0 
0.0800582 0.236058 0.0138591 -0.649216 -0.588824 0.48146 0 
0.0801403 0.235958 0.013801 -0.565618 -0.609516 0.555487 0 
0.0807884 0.236583 0.0131309 -0.525604 -0.676736 0.515528 0 
0.0808269 0.236276 0.0131948 -0.500045 -0.697388 0.513425 0 
0.0802977 0.235976 0.0134771 -0.541853 -0.669347 0.508301 0 
0.0802351 0.235685 0.0133692 -0.578691 -0.685424 0.44194 0 
0.0777015 0.232867 0.00806464 0.159062 0.916364 -0.36739 0 
0.0777917 0.232967 0.00802126 0.156154 0.91582 -0.369986 0 
0.0783288 0.233467 0.00775365 0.131688 0.921818 -0.364569 0 
0.0788086 0.233516 0.00817472 0.0213449 0.947964 -0.317662 0 
0.0787334 0.2334 0.00844057 0.0137041 0.950569 -0.310212 0 
0.0785793 0.233268 0.00758676 0.131891 0.920461 -0.367907 0 
0.0786805 0.233251 0.00775849 0.12331 0.918594 -0.375473 0 
0.0789839 0.233201 0.00827368 0.0137041 0.950569 -0.310212 0 
0.0788908 0.233417 0.00811666 0.0213449 0.947964 -0.317662 0 
0.0788378 0.233269 0.0074346 0.134963 0.919694 -0.368712 0 
0.0789896 0.233244 0.00769219 0.158703 0.899318 -0.407481 0 
0.0789229 0.232853 0.00757693 0.203949 0.890628 -0.406432 0 
0.0789775 0.232945 0.00767016 0.201734 0.884977 -0.419665 0 
0.0791413 0.233219 0.0079498 0.0882004 0.921355 -0.378583 0 
0.0793096 0.233119 0.00784098 0.100244 0.91593 -0.388618 0 
0.0787018 0.233491 0.00858451 -0.0111243 0.95298 -0.302828 0 
0.0788535 0.233465 0.0088421 -0.0594328 0.959777 -0.274402 0 
0.0792132 0.233449 0.00886166 -0.0381997 0.964851 -0.260005 0 
0.0788851 0.233374 0.00869817 -0.0389215 0.955461 -0.292539 0 
0.0789357 0.233366 0.00878403 -0.0594328 0.959777 -0.274402 0 
0.079509 0.233402 0.00798403 -0.0237592 0.951617 -0.306368 0 
0.0795785 0.233476 0.00829969 -0.0362314 0.958257 -0.283604 0 
0.0798451 0.233676 0.0081622 -0.0389215 0.955461 -0.292539 0 
0.0794688 0.233766 0.00850905 -0.0539397 0.962133 -0.26719 0 
0.0795659 0.23365 0.00867344 -0.0433539 0.964935 -0.258885 0 
0.0796372 0.233667 0.00840025 -0.0632669 0.968852 -0.239422 0 
0.0798957 0.233668 0.00824808 -0.0514568 0.960108 -0.274854 0 
0.0797889 0.233642 0.00865786 -0.146975 0.982668 -0.112964 0 
0.0792504 0.233401 0.00813621 -0.0161293 0.954113 -0.299013 0 
0.0791436 0.233375 0.00854599 -0.0389215 0.955461 -0.292539 0 
0.0799738 0.233469 0.00818264 -0.0334272 0.961962 -0.271132 0 
0.0800589 0.233053 0.008325 -0.0258903 0.960407 -0.277396 0 
0.0796855 0.234188 0.00947075 -0.732641 -0.357346 0.579259 0 
0.0806278 0.234149 0.00949427 -0.783136 -0.325106 0.530098 0 
0.0794356 0.233914 0.00924185 -0.149708 0.982229 -0.113194 0 
0.0798292 0.233964 0.00971366 -0.716106 -0.450266 0.533341 0 
0.0800308 0.233717 0.00887206 -0.526796 0.818607 0.228841 0 
0.0801399 0.233899 0.00905851 -0.759718 -0.299089 0.577386 0 
0.0802916 0.233874 0.00931609 -0.78627 -0.235102 0.571408 0 
0.0798401 0.233847 0.00992876 -0.652858 -0.579013 0.488385 0 
0.0798194 0.233822 0.0102878 -0.711016 -0.52785 0.464575 0 
0.0798194 0.233822 0.0102878 -0.711016 -0.52785 0.464575 0 
0.0800015 0.233964 0.00961221 -0.7159 -0.446815 0.53651 0 
0.0800837 0.233865 0.00955414 -0.748281 -0.376586 0.546131 0 
0.0800986 0.233848 0.00977659 -0.713271 -0.483827 0.507104 0 
0.0801848 0.233848 0.00972587 -0.754329 -0.410708 0.512158 0 
0.0803422 0.233866 0.00940196 -0.788844 -0.251493 0.560782 0 
0.0801285 0.233814 0.0102215 -0.721216 -0.515628 0.462573 0 
0.0803365 0.233823 0.00998347 -0.739172 -0.477899 0.474592 0 
0.0808834 0.234465 0.00914168 -0.71727 -0.425724 0.551619 0 
0.0809162 0.234115 0.009787 -0.739172 -0.477899 0.474592 0 
0.0810214 0.234198 0.00996608 -0.768825 -0.455419 0.448889 0 
0.0803985 0.2339 0.00890631 -0.775003 -0.24894 0.580861 0 
0.0802853 0.233618 0.00871253 -0.621872 0.715557 0.318205 0 
0.0806295 0.232056 0.00928925 -0.822657 0.0637169 0.564957 0 
0.0804246 0.235139 0.0125055 -0.604809 -0.671455 0.428198 0 
0.0803114 0.234857 0.0123118 -0.657732 -0.624429 0.421281 0 
0.0805763 0.235114 0.0127632 -0.61467 -0.664643 0.424772 0 
0.0803884 0.234242 0.0124394 -0.704883 -0.582725 0.404441 0 
0.0803619 0.234162 0.0108168 -0.740667 -0.513023 0.433843 0 
0.080459 0.234046 0.0109812 -0.770817 -0.493779 0.40252 0 
0.080471 0.234345 0.0110032 -0.758264 -0.520185 0.392993 0 
0.0809817 0.23409 0.0100953 -0.759622 -0.480711 0.438054 0 
0.0808767 0.234693 0.0114971 -0.723998 -0.559078 0.404053 0 
0.0806968 0.234021 0.0111881 -0.753796 -0.518337 0.403878 0 
0.0804717 0.234558 0.0121883 -0.688542 -0.588994 0.42308 0 
0.0805073 0.234567 0.0120517 -0.693926 -0.587933 0.415693 0 
0.0809382 0.234568 0.0117981 -0.7126 -0.580942 0.393329 0 
0.0809479 0.234711 0.0112239 -0.733972 -0.556637 0.389153 0 
0.0810996 0.234685 0.0114815 -0.728442 -0.554142 0.402863 0 
0.080713 0.234419 0.0112174 -0.739647 -0.549406 0.388684 0 
0.0809318 0.234312 0.0111945 -0.73925 -0.552388 0.385197 0 
0.0808692 0.234021 0.0110866 -0.759866 -0.501675 0.413432 0 
0.0811111 0.234096 0.0113008 -0.753796 -0.518337 0.403878 0 
0.0811277 0.234022 0.0109344 -0.768015 -0.48429 0.419066 0 
0.0813696 0.234097 0.0111486 -0.752088 -0.522693 0.401441 0 
0.0811312 0.234594 0.0113376 -0.741404 -0.534271 0.406046 0 
0.0810749 0.23456 0.0118332 -0.708408 -0.582909 0.397963 0 
0.0813335 0.234561 0.011681 -0.723384 -0.555309 0.410302 0 
0.0813461 0.234387 0.0113073 -0.752913 -0.513425 0.411724 0 
0.0814978 0.234362 0.0115649 -0.735123 -0.537774 0.412787 0 
0.0814283 0.234288 0.0112492 -0.758887 -0.496637 0.42124 0 
0.0815885 0.233989 0.0111257 -0.763281 -0.501771 0.406974 0 
0.0815679 0.233964 0.0114848 -0.756609 -0.494012 0.428362 0 
0.0807152 0.23389 0.0102328 -0.744225 -0.4901 0.453796 0 
0.0808669 0.233865 0.0104904 -0.762091 -0.480199 0.43431 0 
0.080964 0.233748 0.0106548 -0.783559 -0.472082 0.403947 0 
0.0810421 0.233549 0.0105894 -0.783559 -0.472082 0.403947 0 
0.0809197 0.232652 0.010574 -0.809416 -0.40551 0.424743 0 
0.0812524 0.233715 0.0109475 -0.771761 -0.478068 0.419329 0 
0.0815299 0.233799 0.0110251 -0.773962 -0.480671 0.412236 0 
0.0815259 0.233699 0.0110178 -0.773075 -0.476866 0.418275 0 
0.0812444 0.233516 0.0109328 -0.771761 -0.478068 0.419329 0 
0.0812473 0.2332 0.0111332 -0.771761 -0.478068 0.419329 0 
0.0814041 0.23369 0.0112051 -0.771605 -0.481233 0.415981 0 
0.0809071 0.232826 0.0109477 -0.792403 -0.450265 0.411533 0 
0.0810628 0.2329 0.0112127 -0.783724 -0.468937 0.407277 0 
0.0810507 0.232601 0.0111906 -0.782062 -0.447125 0.434118 0 
0.0810795 0.232826 0.0108463 -0.792403 -0.450265 0.411533 0 
0.0810893 0.232294 0.0112545 -0.795962 -0.414934 0.440766 0 
0.0816747 0.23399 0.011075 -0.763281 -0.501771 0.406974 0 
0.0805458 0.23426 0.0121155 -0.699638 -0.583859 0.411844 0 
0.0806975 0.234235 0.0123731 -0.682324 -0.582227 0.442092 0 
0.0809888 0.23456 0.0118839 -0.698335 -0.582222 0.416347 0 
0.081164 0.234244 0.0119829 -0.700373 -0.563958 0.437525 0 
0.081156 0.234045 0.0119682 -0.704118 -0.568265 0.425784 0 
0.0809561 0.234235 0.0122209 -0.682324 -0.582227 0.442092 0 
0.0811078 0.23421 0.0124785 -0.653713 -0.583132 0.482303 0 
0.0812295 0.234219 0.0122912 -0.668903 -0.575022 0.471082 0 
0.0812801 0.234211 0.0123771 -0.649443 -0.585674 0.484985 0 
0.0814346 0.234544 0.0118528 -0.696104 -0.549204 0.4624 0 
0.0814225 0.234245 0.0118307 -0.717294 -0.538384 0.442303 0 
0.0812146 0.234236 0.0120688 -0.700373 -0.563958 0.437525 0 
0.0816811 0.234246 0.0116785 -0.745353 -0.498547 0.442605 0 
0.0815662 0.234021 0.0120736 -0.69692 -0.533136 0.479655 0 
0.0813663 0.234211 0.0123264 -0.663796 -0.562966 0.492386 0 
0.0816277 0.233896 0.0123746 -0.693136 -0.526115 0.492711 0 
0.0811147 0.233994 0.0126863 -0.640733 -0.580191 0.502832 0 
0.081522 0.234286 0.0125913 -0.628032 -0.587623 0.510171 0 
0.0813606 0.234168 0.0129079 -0.605912 -0.585658 0.538401 0 
0.0816231 0.234269 0.012763 -0.612356 -0.585365 0.531383 0 
0.0817829 0.234443 0.0130353 -0.598826 -0.6022 0.527979 0 
0.0815669 0.234235 0.0132587 -0.596799 -0.60018 0.532555 0 
0.0814674 0.234194 0.0124981 -0.654312 -0.573574 0.492837 0 
0.0817645 0.233888 0.0124097 -0.698501 -0.475114 0.535129 0 
0.0816192 0.234169 0.0127557 -0.615667 -0.581932 0.531329 0 
0.0818696 0.233971 0.0125888 -0.675298 -0.501027 0.541244 0 
0.0819368 0.233888 0.0123083 -0.699606 -0.472526 0.535975 0 
0.082038 0.233871 0.01248 -0.6878 -0.476941 0.547228 0 
0.0819432 0.234145 0.0129118 -0.622527 -0.558419 0.548296 0 
0.0819937 0.234136 0.0129977 -0.61928 -0.561908 0.548409 0 
0.0820294 0.234145 0.0128611 -0.639616 -0.531607 0.555234 0 
0.0822758 0.233847 0.0126869 -0.695048 -0.426318 0.57893 0 
0.0814616 0.233465 0.0114988 -0.764098 -0.489219 0.420499 0 
0.0815598 0.233765 0.0114701 -0.76619 -0.468862 0.439456 0 
0.0816133 0.23344 0.0117564 -0.758789 -0.467073 0.453962 0 
0.081661 0.233748 0.0116418 -0.76619 -0.468862 0.439456 0 
0.0815501 0.233622 0.0120442 -0.739172 -0.474592 0.477899 0 
0.0818782 0.233697 0.0122077 -0.749197 -0.414764 0.516405 0 
0.081765 0.233415 0.0120139 -0.749456 -0.449674 0.485911 0 
0.081761 0.233315 0.0120066 -0.756031 -0.444435 0.480515 0 
0.0817024 0.233125 0.011906 -0.754621 -0.481708 0.445539 0 
0.0815346 0.232751 0.011619 -0.774702 -0.432202 0.46156 0 
0.0816863 0.232726 0.0118767 -0.768801 -0.445611 0.458669 0 
0.081838 0.232701 0.0121342 -0.773666 -0.438139 0.457684 0 
0.0819368 0.232527 0.0117098 -0.795887 -0.411666 0.443953 0 
0.0819167 0.23339 0.0122715 -0.748806 -0.432826 0.501947 0 
0.082104 0.233373 0.0123926 -0.738612 -0.406319 0.53792 0 
0.0820879 0.232975 0.0123632 -0.751894 -0.414443 0.51273 0 
0.0817507 0.233646 0.0129765 -0.672649 -0.481422 0.561939 0 
0.0821626 0.233564 0.0124931 -0.72048 -0.410525 0.558908 0 
0.0822638 0.233548 0.0126648 -0.703624 -0.40893 0.581111 0 
0.0821506 0.233265 0.0124711 -0.723384 -0.410302 0.555309 0 
0.0822396 0.23295 0.0126208 -0.764717 -0.354065 0.538373 0 
0.0823022 0.23324 0.0127287 -0.696589 -0.411997 0.587385 0 
0.0819897 0.232676 0.0123918 -0.773781 -0.408882 0.483817 0 
0.0821264 0.232668 0.012427 -0.779888 -0.403726 0.47831 0 
0.0824505 0.232643 0.0125831 -0.792794 -0.361823 0.490471 0 
0.0827726 0.236556 0.0165017 0.833703 0.284111 -0.473519 0 
0.0832056 0.235341 0.0136826 -0.678459 -0.474083 0.561194 0 
0.0835762 0.235209 0.0139173 -0.735995 -0.381931 0.558963 0 
0.0824543 0.235949 0.0167464 0.761347 0.460083 -0.456808 0 
0.0826536 0.236231 0.0168895 0.703931 0.365913 -0.608761 0 
0.0828358 0.235699 0.0171962 0.693322 0.506209 -0.512891 0 
0.0833552 0.236532 0.0165057 0.691454 0.354718 -0.629338 0 
0.0831707 0.236233 0.0165851 0.723348 0.428712 -0.54127 0 
0.0832253 0.236324 0.0166783 0.712182 0.36837 -0.597578 0 
0.083373 0.236199 0.0169286 0.702101 0.423252 -0.572636 0 
0.0846606 0.235013 0.0173357 -0.72607 -0.444904 0.524292 0 
0.0847071 0.234905 0.0174143 -0.715033 -0.452909 0.532542 0 
0.0852225 0.234964 0.0176988 -0.73379 -0.398906 0.549932 0 
0.0852691 0.234856 0.0177773 -0.763075 -0.333946 0.55335 0 
0.0854714 0.234822 0.0181207 -0.797266 -0.237781 0.554822 0 
0.0852944 0.235195 0.0186106 -0.779849 -0.252627 0.572726 0 
0.0850089 0.234912 0.0185183 -0.742193 -0.35242 0.570043 0 
0.0852634 0.234813 0.0183588 -0.798978 -0.234263 0.553855 0 
0.0853685 0.234896 0.0185379 -0.79312 -0.210985 0.571354 0 
0.0854358 0.234814 0.0182573 -0.798179 -0.230929 0.556401 0 
0.0857299 0.234823 0.0179685 -0.796673 -0.24071 0.55441 0 
0.0857805 0.234815 0.0180544 -0.798179 -0.230929 0.556401 0 
0.0818197 0.234193 0.013688 -0.616516 -0.589491 0.521927 0 
0.082812 0.235292 0.0132108 -0.62896 -0.554767 0.544649 0 
0.0821811 0.23412 0.0131187 -0.652123 -0.520687 0.551018 0 
0.0824161 0.234411 0.0131252 -0.657267 -0.52615 0.539598 0 
0.0824396 0.23412 0.0129665 -0.683214 -0.452692 0.572964 0 
0.0825862 0.234941 0.0140083 -0.644811 -0.533695 0.547164 0 
0.0827229 0.234933 0.0140435 -0.662965 -0.50184 0.555548 0 
0.0828746 0.234908 0.0143011 -0.678337 -0.500797 0.537645 0 
0.0826081 0.234708 0.0144385 -0.681274 -0.497146 0.537319 0 
0.0831332 0.234908 0.0141489 -0.732298 -0.363702 0.575726 0 
0.0825637 0.232925 0.0127769 -0.730157 -0.34963 0.587052 0 
0.0827608 0.234412 0.0129222 -0.686364 -0.472606 0.552765 0 
0.0826901 0.233922 0.0127996 -0.693673 -0.430842 0.577229 0 
0.0827125 0.233216 0.0128341 -0.729201 -0.336179 0.596028 0 
0.0827004 0.232917 0.012812 -0.728578 -0.332647 0.598765 0 
0.0829677 0.234692 0.0144581 -0.693051 -0.489311 0.529391 0 
