0.0937992 0.241865 0.0226838 -0.195644 0.740984 0.642391 2 
0.0939964 0.241449 0.0225962 -0.195644 0.740984 0.642391 2 
0.0939294 0.2417 0.0223908 0.153003 0.722599 0.674122 2 
0.0940697 0.241701 0.0222481 0.153003 0.722599 0.674122 2 
0.0936622 0.242117 0.0225497 0.153003 0.722599 0.674122 2 
0.0938024 0.242117 0.022407 0.153003 0.722599 0.674122 2 
0.0940907 0.241922 0.0222693 0.153003 0.722599 0.674122 2 
0.0941628 0.242283 0.0222008 0.230324 0.669037 0.706641 2 
0.0942681 0.241741 0.0239857 -0.195644 0.740984 0.642391 2 
0.0941901 0.241937 0.0239094 -0.195644 0.740984 0.642391 2 
0.0948342 0.241777 0.0225792 -0.308006 0.653101 0.691803 2 
0.0939869 0.240693 0.0234265 -0.195053 0.763317 0.615875 2 
0.0939504 0.24085 0.0246529 0.102373 0.94263 0.317755 2 
0.0937966 0.241023 0.0239412 -0.209403 0.730582 0.649923 2 
0.0939336 0.240772 0.0240754 -0.0442652 0.902743 0.427897 2 
0.0941107 0.240603 0.0242491 0.0167814 0.925561 0.378228 2 
0.0938766 0.241189 0.0240203 -0.209403 0.730582 0.649923 2 
0.0943988 0.240986 0.0246733 0.2047 0.956605 0.207376 2 
0.09384 0.241346 0.0252467 0.671925 0.591894 -0.445171 2 
0.094302 0.240742 0.0240167 -0.0442652 0.902743 0.427897 2 
0.0943651 0.241407 0.0240803 -0.209403 0.730582 0.649923 2 
0.0945421 0.241238 0.0242539 -0.0442652 0.902743 0.427897 2 
0.0945352 0.241903 0.0243888 -0.0467468 0.786196 0.616207 2 
0.0950895 0.241979 0.0249337 0.632243 0.773684 -0.041018 2 
0.0932465 0.249532 0.0322532 0.263284 0.933463 -0.243573 2 
0.0932364 0.249945 0.0326648 0.280553 0.886669 -0.36757 2 
0.0934146 0.249667 0.0325589 0.325561 0.909526 -0.258405 2 
0.0931462 0.250192 0.0329973 0.382279 0.892969 -0.237633 2 
0.0932396 0.250197 0.032388 0.292088 0.91943 -0.263311 2 
0.0934867 0.250028 0.0324904 0.278874 0.930051 -0.239237 2 
0.0933171 0.250592 0.0314836 0.254671 0.956665 -0.141191 2 
0.0934779 0.249754 0.0320604 0.253804 0.952102 -0.170546 2 
0.0935037 0.249529 0.0325059 0.297162 0.914678 -0.273969 2 
0.0936 0.250363 0.0321818 0.221814 0.962069 -0.158814 2 
0.0947363 0.250083 0.0316154 0.105429 0.976151 -0.189773 2 
0.0940521 0.249016 0.0302395 -0.727762 0.673964 -0.127022 2 
0.094394 0.25038 0.0293166 -0.907735 0.312355 0.280093 2 
0.094572 0.250681 0.0297727 -0.908854 0.415057 0.0413722 2 
0.0946342 0.250877 0.0295538 -0.925206 0.302717 0.228814 2 
0.0941785 0.249768 0.0298045 -0.866867 0.497872 0.0257754 2 
0.0943346 0.249377 0.029957 -0.839505 0.542724 0.0261057 2 
0.0943276 0.250042 0.0300919 -0.747379 0.644292 -0.16221 2 
0.0939619 0.249264 0.030572 -0.644585 0.723386 -0.247433 2 
0.0943493 0.249095 0.0305317 -0.709693 0.682102 -0.176274 2 
0.0943814 0.249373 0.0304237 -0.716768 0.673792 -0.179576 2 
0.0946555 0.248871 0.030692 -0.717851 0.671736 -0.182921 2 
0.0945585 0.249205 0.0305974 -0.714192 0.670813 -0.19985 2 
0.0945548 0.249543 0.0298934 -0.865732 0.497276 0.056792 2 
0.0946559 0.24993 0.0299937 -0.857876 0.513641 -0.0149078 2 
0.094785 0.249874 0.0299803 -0.896467 0.442221 0.0280563 2 
0.0949221 0.249622 0.0301144 -0.855541 0.517649 -0.00946095 2 
0.0950291 0.249453 0.0303594 -0.806583 0.583578 -0.0941255 2 
0.0948855 0.249779 0.0313408 0.0877422 0.97505 -0.203908 2 
0.0948319 0.24987 0.0304469 -0.75228 0.629208 -0.195377 2 
0.095099 0.250032 0.0308501 -0.278831 0.952781 -0.120254 2 
0.094511 0.250377 0.029712 -0.903324 0.423731 0.0667615 2 
0.094629 0.250264 0.0298278 -0.901712 0.4316 0.025232 2 
0.0948651 0.250039 0.0300593 -0.901373 0.433025 0.0039247 2 
0.0949551 0.25037 0.0302888 -0.837351 0.523159 -0.158578 2 
0.0951492 0.249701 0.030478 -0.39653 0.905338 -0.152074 2 
0.0943718 0.249196 0.031816 -0.0145987 0.989344 -0.144864 2 
0.0943415 0.249857 0.0324888 0.170741 0.95959 -0.223684 2 
0.0945619 0.249444 0.0318633 0.171478 0.96827 -0.181792 2 
0.094623 0.249749 0.031924 0.113826 0.9744 -0.193879 2 
0.0944928 0.249914 0.032217 0.111301 0.974198 -0.19634 2 
0.0948624 0.249197 0.0313168 0.13722 0.968233 -0.209036 2 
0.0949158 0.249119 0.0306679 -0.671827 0.723389 -0.159237 2 
0.0932073 0.250497 0.033058 0.530743 0.681427 0.503954 2 
0.0933965 0.250276 0.0328229 0.199367 0.913644 -0.35427 2 
0.0935166 0.250524 0.0329415 0.199367 0.913644 -0.35427 2 
0.0935598 0.250858 0.0327043 0.199367 0.913644 -0.35427 2 
0.0936109 0.250997 0.0326146 0.199367 0.913644 -0.35427 2 
0.0935831 0.250862 0.0321663 0.698105 0.704085 0.130054 2 
0.0936279 0.250498 0.0326301 0.18743 0.945357 -0.266779 2 
0.0938382 0.250498 0.0324162 0.114384 0.965194 -0.235194 2 
0.0937511 0.250997 0.0324719 0.127405 0.957505 -0.25875 2 
0.0940173 0.25069 0.0325927 0.160446 0.939366 -0.303065 2 
0.0943578 0.250526 0.0320857 0.0592672 0.994124 -0.0905782 2 
0.0947395 0.250335 0.0313386 -0.289234 0.953306 -0.0869 2 
0.094732 0.24994 0.0321718 0.110651 0.975967 -0.187734 2 
0.0946529 0.250244 0.0323751 0.0970177 0.978774 -0.180527 2 
0.096081 0.25001 0.0329369 0.183342 -0.204446 -0.961555 2 
0.0962511 0.250506 0.0332454 0.264043 -0.141973 -0.954005 2 
0.0956183 0.249566 0.0333225 0.158163 -0.248541 -0.955621 2 
0.0964921 0.249256 0.0333394 0.205657 -0.433506 -0.87737 2 
0.096315 0.249424 0.0331657 0.144817 -0.501739 -0.852811 2 
0.0962791 0.250063 0.0331318 0.257958 -0.159052 -0.952974 2 
0.0963381 0.250006 0.0331897 0.259126 -0.183152 -0.948319 2 
0.0964582 0.250254 0.0333083 0.201417 -0.165032 -0.965503 2 
0.0964982 0.250337 0.0333478 0.210373 -0.145841 -0.966682 2 
0.0967192 0.249335 0.0337029 -0.0827194 -0.628377 -0.773499 2 
0.0968103 0.249556 0.0336528 -0.0179464 -0.589472 -0.80759 2 
0.0966631 0.250221 0.0339302 0.292705 -0.283967 -0.913064 2 
0.0967554 0.250334 0.0336005 0.166014 -0.210459 -0.963404 2 
0.0966652 0.250581 0.0339331 0.167185 -0.169737 -0.971205 2 
0.0968755 0.250582 0.0337191 0.171617 -0.208299 -0.962891 2 
0.0972173 0.248081 0.0340496 -0.875556 -0.47745 -0.073775 2 
0.0971582 0.248715 0.0345537 -0.782806 -0.612439 -0.110151 2 
0.0971903 0.248993 0.0344456 -0.815779 -0.576258 -0.049313 2 
0.0971434 0.248997 0.0339789 -0.824921 -0.553354 -0.115343 2 
0.0972873 0.248659 0.0345402 -0.812655 -0.575088 -0.0941579 2 
0.0971825 0.25026 0.0320571 0.200404 -0.197749 -0.959549 2 
0.0966054 0.24959 0.0330308 0.271196 -0.321037 -0.907407 2 
0.0969928 0.249422 0.0329905 0.142546 -0.453556 -0.879754 2 
0.097251 0.24931 0.0329636 -0.314601 -0.534981 -0.784106 2 
0.0972078 0.248975 0.0332009 -0.611237 -0.607869 -0.506838 2 
0.0974002 0.249006 0.032689 -0.485559 -0.572926 -0.660293 2 
0.0974403 0.249088 0.0327285 -0.484903 -0.558729 -0.672824 2 
0.0975203 0.249254 0.0328076 -0.35919 -0.510598 -0.781199 2 
0.0977675 0.249085 0.0329099 -0.583995 -0.560297 -0.587381 2 
0.0978977 0.24892 0.0326169 -0.563411 -0.560028 -0.607402 2 
0.0978387 0.248977 0.032559 -0.394422 -0.538443 -0.744655 2 
0.0963983 0.249841 0.032968 0.2323 -0.210565 -0.949578 2 
0.0966554 0.249838 0.0332207 0.271196 -0.321037 -0.907407 2 
0.0969837 0.249726 0.0331225 0.0714848 -0.395189 -0.915814 2 
0.0968155 0.250169 0.0333788 0.218969 -0.249266 -0.943355 2 
0.0970258 0.250169 0.0331649 0.0930517 -0.297503 -0.950175 2 
0.0971529 0.249752 0.0331486 -0.0299249 -0.378615 -0.92507 2 
0.0972662 0.250087 0.03284 -0.125416 -0.270633 -0.954478 2 
0.0970206 0.249557 0.0334388 0.0455016 -0.500517 -0.86453 2 
0.0971977 0.249388 0.0336125 0.336581 -0.424249 -0.84067 2 
0.0974412 0.249558 0.0330109 -0.317041 -0.484237 -0.815475 2 
0.0975076 0.249896 0.0322357 -0.347839 -0.26791 -0.898461 2 
0.0975667 0.24984 0.0322936 -0.289797 -0.286885 -0.91308 2 
0.0973632 0.249753 0.0329347 -0.154108 -0.380322 -0.911924 2 
0.0976167 0.250088 0.0324835 -0.266417 -0.246683 -0.931756 2 
0.0974534 0.249505 0.0326021 -0.345778 -0.417749 -0.840192 2 
0.0977706 0.249337 0.0326332 -0.274086 -0.472295 -0.837743 2 
0.0978408 0.249337 0.0325618 -0.306572 -0.479511 -0.822243 2 
0.0978839 0.249672 0.0323246 -0.218648 -0.357656 -0.907896 2 
0.0980178 0.249168 0.0327355 -0.373274 -0.539535 -0.754698 2 
0.0979276 0.249416 0.0330681 -0.547928 -0.527697 -0.649084 2 
0.098258 0.249664 0.0329727 -0.0618742 -0.457869 -0.886864 2 
0.097563 0.250178 0.0315897 -0.985991 0.165665 -0.0194228 2 
0.097583 0.250509 0.0318904 -0.416028 -0.107138 -0.903018 2 
0.0976363 0.25043 0.0312415 -0.0410221 -0.176981 -0.983359 2 
0.0979836 0.250179 0.0311617 -0.352412 -0.110214 -0.929333 2 
0.098106 0.24856 0.0324001 -0.724317 -0.472381 -0.502216 2 
0.0981512 0.249255 0.0321657 -0.354925 -0.433798 -0.828159 2 
0.098049 0.248977 0.0323451 -0.463681 -0.516863 -0.71962 2 
0.0982193 0.248895 0.0320916 -0.635142 -0.527319 -0.564383 2 
0.0982224 0.249147 0.0318148 -0.330096 -0.436478 -0.836973 2 
0.0981745 0.249259 0.0316277 -0.361264 -0.373668 -0.854319 2 
0.0984585 0.248922 0.0320464 -0.640892 -0.506322 -0.576971 2 
0.0980252 0.249563 0.0319024 -0.299191 -0.331938 -0.894596 2 
0.0970321 0.250673 0.0326113 0.109566 -0.173582 -0.978706 2 
0.0968287 0.250586 0.0332524 0.0870724 -0.19254 -0.977418 2 
0.0968956 0.250334 0.0334579 0.110311 -0.260853 -0.959055 2 
0.0970727 0.250165 0.0336316 0.446082 -0.268263 -0.853842 2 
0.097117 0.250391 0.0331147 -0.0919583 -0.230526 -0.968711 2 
0.097294 0.250222 0.0332884 -0.0637911 -0.324163 -0.943848 2 
0.0974263 0.250418 0.0329982 -0.1251 -0.269953 -0.954712 2 
0.0973572 0.250887 0.0333519 -0.338846 -0.178562 -0.923742 2 
0.0972904 0.25056 0.0325845 -0.210025 -0.183606 -0.960301 2 
0.0975265 0.250335 0.032816 -0.237015 -0.262259 -0.935438 2 
0.0976977 0.250723 0.0328449 -0.359359 -0.177549 -0.916153 2 
0.0978747 0.250554 0.0330186 -0.0488351 -0.274228 -0.960424 2 
0.0979206 0.250081 0.0332029 0.193555 -0.365603 -0.910424 2 
0.0979317 0.250137 0.0330737 0.0864549 -0.336509 -0.937703 2 
0.098426 0.2498 0.0332784 0.332039 -0.393814 -0.857124 2 
0.0984012 0.250495 0.0331153 0.119413 -0.309937 -0.943228 2 
0.0985461 0.250048 0.033397 0.442892 -0.345172 -0.827468 2 
0.0979901 0.251249 0.0327129 -0.63592 0.00969813 -0.771694 2 
0.0986045 0.25116 0.0330361 -0.878511 0.297877 0.373481 2 
0.097486 0.250843 0.0317958 -0.474432 -0.0451189 -0.879135 2 
0.0979602 0.250753 0.0322617 -0.506294 -0.0775659 -0.858866 2 
0.0980314 0.250645 0.0319108 -0.486094 -0.0949512 -0.868733 2 
0.0985056 0.250555 0.0323767 -0.980778 0.173793 0.0887197 2 
0.0987049 0.250499 0.032292 -0.985049 0.163196 0.0551815 2 
0.0990053 0.250252 0.0317455 -0.902039 0.0333102 -0.430367 2 
0.0990354 0.25017 0.0316347 -0.800459 -0.00964408 -0.599311 2 
0.0988082 0.250669 0.031833 -0.716726 0.0125253 -0.697242 2 
0.0986746 0.25116 0.0329648 -0.899882 0.303914 0.312809 2 
0.0987316 0.250743 0.0330199 -0.947803 0.0715078 -0.310734 2 
0.0990267 0.250462 0.0333093 0.832292 -0.227544 -0.505484 2 
0.099005 0.251408 0.0328695 -0.962187 0.256839 -0.0907241 2 
0.0976079 0.248164 0.0337325 -0.891965 -0.451947 -0.0119282 2 
0.0973238 0.248502 0.0333139 -0.802143 -0.540473 -0.253882 2 
0.0973406 0.248581 0.0338914 -0.853146 -0.519125 -0.0514949 2 
0.097699 0.248386 0.0336823 -0.884171 -0.458199 -0.0910794 2 
0.0978514 0.248334 0.0331309 -0.847563 -0.471887 -0.242815 2 
0.0979547 0.248504 0.032672 -0.762686 -0.494848 -0.416456 2 
0.0980616 0.248335 0.032917 -0.831989 -0.469848 -0.295021 2 
0.0976542 0.248751 0.0332185 -0.749367 -0.52636 -0.401739 2 
0.0978645 0.248751 0.0330045 -0.764898 -0.5213 -0.378389 2 
0.0981928 0.248639 0.0329063 -0.824044 -0.47873 -0.302934 2 
0.0981818 0.248583 0.0330356 -0.83416 -0.466194 -0.294685 2 
0.0985069 0.248219 0.0332142 -0.864066 -0.45232 -0.2209 2 
0.098627 0.248467 0.0333328 -0.876824 -0.41974 -0.234517 2 
0.0985627 0.248489 0.0341108 -0.908619 -0.40213 -0.112708 2 
0.0983129 0.248887 0.0330249 -0.80852 -0.47363 -0.349242 2 
0.098393 0.249052 0.033104 -0.78318 -0.47834 -0.397265 2 
0.098372 0.248831 0.0330828 -0.812818 -0.469239 -0.345169 2 
0.0981515 0.249243 0.0337084 -0.797802 -0.490832 -0.350137 2 
0.0983686 0.249157 0.0339216 -0.846564 -0.459388 -0.268872 2 
0.0985531 0.249383 0.0332621 -0.78318 -0.47834 -0.397265 2 
0.0986438 0.248545 0.0339103 -0.896916 -0.429568 -0.104943 2 
0.0985368 0.248714 0.0336653 -0.860115 -0.444469 -0.250298 2 
0.0986228 0.248324 0.0338891 -0.893101 -0.422897 -0.15339 2 
0.0987639 0.248793 0.0340289 -0.912058 -0.394441 -0.112104 2 
0.0989331 0.24882 0.034055 -0.917775 -0.384344 -0.0998473 2 
0.0984232 0.248392 0.0324312 -0.785548 -0.451893 -0.422738 2 
0.0986324 0.248501 0.0324968 -0.810916 -0.443045 -0.382266 2 
0.0984487 0.249322 0.0340006 -0.845465 -0.457383 -0.275662 2 
0.0982716 0.249491 0.033827 -0.839231 -0.446863 -0.309846 2 
0.0985319 0.24974 0.033803 0.208832 -0.386996 -0.898122 2 
0.0986031 0.249631 0.033452 0.416439 -0.35358 -0.837592 2 
0.0989193 0.249571 0.0337626 0.201734 -0.419665 -0.884977 2 
0.0986889 0.249818 0.0342378 -0.965469 -0.12213 0.230118 2 
0.0987232 0.249879 0.0335706 0.44067 -0.373854 -0.816115 2 
0.0987438 0.249041 0.0342901 -0.930042 -0.365513 -0.037722 2 
0.0988639 0.249289 0.0344087 -0.953472 -0.30142 -0.00615143 2 
0.0990611 0.248873 0.0343211 -0.954175 -0.298102 0.026193 2 
0.098963 0.249316 0.0345061 -0.961787 -0.27358 0.0109432 2 
0.0989134 0.250127 0.0336179 0.597478 -0.310817 -0.739197 2 
0.0994214 0.249617 0.0346769 -0.970062 0.0968803 0.222699 2 
0.09914 0.249147 0.0346798 -0.982952 -0.170792 0.0680781 2 
0.0993562 0.250241 0.0329316 0.780261 -0.266392 -0.565886 2 
0.0990118 0.251322 0.0332966 -0.902627 0.299891 0.308755 2 
0.0789131 0.230099 0.0165796 0.755223 0.629608 0.182295 1 
0.0791024 0.229877 0.0163445 0.63071 0.753476 0.185684 1 
0.079673 0.231127 0.0121407 0.315418 0.93806 0.143372 1 
0.0790894 0.230532 0.0142299 0.569844 0.775051 0.273083 1 
0.0789112 0.230809 0.0143358 0.575974 0.771648 0.26984 1 
0.0789649 0.230719 0.0152296 0.622082 0.739217 0.258014 1 
0.079142 0.23055 0.0154033 0.658254 0.705838 0.261715 1 
0.0793127 0.229878 0.0161305 0.635843 0.749222 0.18539 1 
0.0796743 0.229935 0.0156447 0.594614 0.7618 0.257088 1 
0.0796975 0.229939 0.0151067 0.582553 0.768844 0.263649 1 
0.0798203 0.22938 0.0156468 0.575774 0.776588 0.255725 1 
0.0793684 0.230653 0.0126815 0.411705 0.891785 0.187668 1 
0.0798996 0.230147 0.0132025 0.426033 0.871637 0.242372 1 
0.0802401 0.229983 0.0126956 0.413463 0.887253 0.204524 1 
0.0792992 0.231122 0.0130352 0.365603 0.910424 0.193555 1 
0.0795068 0.230281 0.0140787 0.446082 0.853842 0.268263 1 
0.0796655 0.230733 0.0129738 0.409893 0.891263 0.194006 1 
0.0796286 0.230902 0.0126575 0.411705 0.891785 0.187668 1 
0.0800929 0.230647 0.012973 0.432025 0.883087 0.183061 1 
0.0801599 0.230395 0.0131785 0.427566 0.880283 0.205646 1 
0.0796561 0.229977 0.0138041 0.467448 0.84079 0.273064 1 
0.0800982 0.22961 0.014378 0.453678 0.843873 0.286452 1 
0.0801246 0.229866 0.0135633 0.432839 0.86416 0.256666 1 
0.080786 0.229194 0.0137913 0.42381 0.861389 0.27999 1 
0.0796839 0.230112 0.0142524 0.450131 0.849565 0.274995 1 
0.0797761 0.230225 0.0139227 0.446881 0.852299 0.271814 1 
0.0800344 0.230113 0.0138958 0.445714 0.853136 0.271104 1 
0.0808722 0.230441 0.0138788 0.442883 0.853585 0.274312 1 
0.0801216 0.23018 0.0159447 0.556034 0.790978 0.255306 1 
0.0798554 0.230993 0.0114784 0.314733 0.938749 0.140335 1 
0.0799657 0.230498 0.0108846 0.388539 0.92064 0.0381954 1 
0.0798165 0.230801 0.0111593 0.396408 0.914054 0.0858203 1 
0.080274 0.230633 0.0110477 0.370367 0.925245 0.0821542 1 
0.0802461 0.230498 0.0105993 0.388539 0.92064 0.0381954 1 
0.0799271 0.230294 0.0121081 0.433769 0.8779 0.20282 1 
0.0802296 0.230408 0.0115645 0.438131 0.880657 0.180234 1 
0.0797521 0.230823 0.0119373 0.381568 0.907474 0.175778 1 
0.0799192 0.230489 0.0119606 0.398607 0.895041 0.200034 1 
0.0801062 0.230486 0.0122846 0.433769 0.8779 0.20282 1 
0.0803866 0.230486 0.0119993 0.424618 0.880306 0.211569 1 
0.0805004 0.230231 0.0126715 0.413463 0.887253 0.204524 1 
0.0804836 0.230152 0.012094 0.40912 0.890092 0.200894 1 
0.0806037 0.2304 0.0122126 0.40912 0.890092 0.200894 1 
0.0807887 0.230036 0.0125338 0.417731 0.886762 0.197873 1 
0.0803497 0.230656 0.0116831 0.432909 0.881961 0.186371 1 
0.0802632 0.230565 0.0127195 0.413463 0.887253 0.204524 1 
0.0804734 0.230565 0.0125056 0.417731 0.886762 0.197873 1 
0.0803032 0.230647 0.0127591 0.413463 0.887253 0.204524 1 
0.0806605 0.230562 0.0128296 0.413463 0.887253 0.204524 1 
0.0808419 0.230536 0.0124469 0.417731 0.886762 0.197873 1 
0.0809488 0.230367 0.0126919 0.417731 0.886762 0.197873 1 
0.080824 0.230566 0.012149 0.40912 0.890092 0.200894 1 
0.0805173 0.229731 0.012687 0.413463 0.887253 0.204524 1 
0.0815671 0.229361 0.0131571 0.376938 0.884529 0.27482 1 
0.0816261 0.229305 0.013215 0.376938 0.884529 0.27482 1 
0.0818934 0.228889 0.0130562 0.367259 0.88592 0.283314 1 
0.0809715 0.22989 0.0134142 0.420928 0.870522 0.254971 1 
0.0812181 0.230311 0.0125358 0.40912 0.890092 0.200894 1 
0.0818104 0.230109 0.0131175 0.406352 0.874639 0.264356 1 
0.0812482 0.230229 0.012425 0.40912 0.890092 0.200894 1 
0.0814352 0.230225 0.012749 0.40912 0.890092 0.200894 1 
0.0816055 0.230143 0.0124956 0.40912 0.890092 0.200894 1 
0.0815322 0.229891 0.0128436 0.40912 0.890092 0.200894 1 
0.0818273 0.22961 0.0131331 0.376938 0.884529 0.27482 1 
0.0806735 0.230413 0.0105986 0.381787 0.923845 0.0273635 1 
0.0811278 0.229993 0.0107637 0.493998 0.86761 0.0567337 1 
0.0796115 0.229258 0.0171239 0.601161 0.763553 0.23578 1 
0.0808609 0.228242 0.0184899 -0.214562 -0.932574 -0.29029 1 
0.0820267 0.227399 0.0190729 0.03282 -0.920272 -0.389901 1 
0.0800576 0.229046 0.0155988 0.57878 0.776413 0.249393 1 
0.0797681 0.229349 0.0160161 0.600167 0.765408 0.232272 1 
0.0806336 0.228175 0.0165836 -0.373564 -0.902659 -0.213673 1 
0.0810467 0.227781 0.0169889 -0.0432928 -0.927516 -0.371269 1 
0.081131 0.228089 0.0165116 -0.198857 -0.901388 -0.38465 1 
0.0808163 0.228028 0.017464 -0.242717 -0.920602 -0.30591 1 
0.0810598 0.228198 0.0168625 -0.318149 -0.907532 -0.274166 1 
0.0809274 0.22858 0.0177147 -0.277381 -0.91347 -0.297713 1 
0.0812511 0.228337 0.0166302 -0.193684 -0.895605 -0.400474 1 
0.0815435 0.228864 0.0164981 -0.231182 -0.908735 -0.3475 1 
0.0793246 0.229332 0.0185247 0.590753 -0.560284 0.580597 1 
0.0816228 0.227476 0.0200784 -0.173878 -0.878157 -0.445654 1 
0.0819697 0.227815 0.0190179 0.0621418 -0.929482 -0.363595 1 
0.0822438 0.227313 0.0192862 -0.245517 -0.872112 -0.423253 1 
0.0818198 0.227638 0.0205528 -0.0374755 -0.936887 -0.347617 1 
0.0818676 0.228609 0.0169563 -0.0198048 -0.901778 -0.431745 1 
0.0824398 0.228654 0.0177992 0.136971 -0.905141 -0.402442 1 
0.0829506 0.228408 0.0170387 0.171047 -0.901231 -0.398152 1 
0.0825705 0.227899 0.0184869 0.114459 -0.917051 -0.38199 1 
0.0824751 0.227535 0.0190934 0.159644 -0.713077 -0.682668 1 
0.0828455 0.227866 0.0190376 0.182223 -0.757988 -0.626297 1 
0.0831248 0.227975 0.0190318 0.4076 -0.181317 -0.894979 1 
0.082814 0.228069 0.0178853 0.149971 -0.8984 -0.412778 1 
0.0829662 0.228595 0.0178959 0.189695 -0.877893 -0.439682 1 
0.0823606 0.229464 0.0136569 0.370148 0.818138 0.440047 1 
0.0823106 0.229216 0.013467 0.354699 0.815966 0.456496 1 
0.0828219 0.240253 0.0311004 0.273989 0.83435 0.47832 1 
0.082982 0.240584 0.0312585 0.229418 0.81759 0.528123 1 
0.0829045 0.240189 0.032163 0.181059 0.896605 0.404124 1 
0.082689 0.239576 0.0326509 0.212222 0.910965 0.353703 1 
0.0829282 0.239603 0.0326057 0.212222 0.910965 0.353703 1 
0.0832566 0.239491 0.0325075 0.181978 0.907027 0.379719 1 
0.083515 0.24045 0.0302397 0.346229 0.841289 0.415161 1 
0.0846242 0.239433 0.0317484 0.242381 0.868658 0.432071 1 
0.0847275 0.239603 0.0312894 0.245489 0.888225 0.388319 1 
0.0848087 0.239659 0.0310889 0.263882 0.911196 0.316367 1 
0.0846667 0.239792 0.0284257 0.666675 0.72742 0.162493 1 
0.0845164 0.240205 0.02898 0.617644 0.752118 0.229857 1 
0.0837935 0.239007 0.0337353 0.185531 0.957022 0.222905 1 
0.0841551 0.239064 0.0332495 0.236524 0.909821 0.341001 1 
0.0840112 0.239402 0.0326882 0.251283 0.900798 0.354147 1 
0.0845578 0.239095 0.0325236 0.255921 0.894983 0.36539 1 
0.0834689 0.239852 0.0322964 0.228387 0.894394 0.384575 1 
0.0837483 0.241033 0.0300497 0.498112 0.77394 0.391026 1 
0.083956 0.240191 0.0310932 0.261947 0.870634 0.41639 1 
0.084036 0.240357 0.0311723 0.261947 0.870634 0.41639 1 
0.0841941 0.240327 0.0313276 0.248939 0.886939 0.389061 1 
0.0843433 0.240023 0.0310529 0.276042 0.901935 0.332136 1 
0.0846005 0.24002 0.0313057 0.247539 0.890846 0.380944 1 
0.0850041 0.24052 0.0308622 0.320665 0.893386 0.314699 1 
0.0854464 0.239574 0.0308742 0.34367 0.901212 0.264021 1 
0.0851705 0.241354 0.0304668 0.348961 0.843454 0.408426 1 
0.0840138 0.239172 0.0336717 0.172212 0.925466 0.337424 1 
0.0843842 0.239504 0.0336158 0.195779 0.916018 0.350116 1 
0.0850184 0.239179 0.0321352 0.255921 0.894983 0.36539 1 
0.0850652 0.239175 0.0326019 0.255921 0.894983 0.36539 1 
0.0851853 0.239423 0.0327205 0.255921 0.894983 0.36539 1 
0.0852722 0.239501 0.0332267 0.255921 0.894983 0.36539 1 
0.0857625 0.239515 0.0311848 0.287712 0.881213 0.37508 1 
0.0861499 0.239346 0.0311445 0.339588 0.805126 0.486264 1 
0.0861167 0.239177 0.0315321 0.339588 0.805126 0.486264 1 
0.0794186 0.244918 0.0258027 0.65791 0.723234 0.209971 1 
0.0789523 0.244307 0.02983 0.590753 -0.560284 0.580597 1 
0.0792664 0.243887 0.0301377 0.590753 -0.560284 0.580597 1 
0.0793414 0.244511 0.0282498 0.567491 0.788268 0.23788 1 
0.0794061 0.244477 0.0290144 0.612149 0.742529 0.27189 1 
0.0796096 0.244564 0.0283733 0.567491 0.788268 0.23788 1 
0.0795211 0.245184 0.027166 0.621287 0.768711 0.151937 1 
0.0795591 0.244906 0.0272027 0.621287 0.768711 0.151937 1 
0.0795449 0.244598 0.0276087 0.567491 0.788268 0.23788 1 
0.0799064 0.244655 0.0271229 0.621287 0.768711 0.151937 1 
0.0797694 0.244907 0.0269888 0.621287 0.768711 0.151937 1 
0.0797015 0.244689 0.0265009 0.621287 0.768711 0.151937 1 
0.0798616 0.24502 0.026659 0.621287 0.768711 0.151937 1 
0.0799555 0.244434 0.0270304 0.599246 0.785477 0.154692 1 
0.0802069 0.244408 0.0265764 0.587236 0.794496 0.154694 1 
0.080384 0.24424 0.0267501 0.526855 0.835548 0.15583 1 
0.0804261 0.244683 0.0267924 0.587236 0.794496 0.154694 1 
0.0798015 0.245185 0.0268807 0.621287 0.768711 0.151937 1 
0.0800003 0.244069 0.0274943 0.569295 0.796399 0.204087 1 
0.0803006 0.2444 0.0275098 0.569295 0.796399 0.204087 1 
0.080638 0.243984 0.0272796 0.516931 0.838709 0.171317 1 
0.0804229 0.244431 0.0270692 0.526855 0.835548 0.15583 1 
0.0808352 0.243568 0.027192 0.513021 0.839081 0.180978 1 
0.0806815 0.244307 0.028585 0.511411 0.81919 0.259591 1 
0.0825949 0.242895 0.0268169 0.52704 0.824734 0.205044 1 
0.082522 0.242631 0.0287077 0.449931 0.805392 0.385884 1 
0.0820108 0.24289 0.0279254 0.442483 0.819942 0.363185 1 
0.0824683 0.242722 0.0278138 0.524862 0.806878 0.271048 1 
0.0823846 0.242895 0.0270308 0.500992 0.836002 0.223848 1 
0.0826417 0.242891 0.0272836 0.531506 0.81043 0.246383 1 
0.0826818 0.242974 0.0273231 0.533581 0.811971 0.236632 1 
0.0830623 0.242892 0.0268557 0.595979 0.779829 0.19151 1 
0.0828019 0.243222 0.0274417 0.521732 0.815884 0.249255 1 
0.0826908 0.24267 0.0271911 0.576982 0.782269 0.234836 1 
0.0828109 0.242918 0.0273097 0.550786 0.792441 0.262055 1 
0.083165 0.24258 0.027657 0.586681 0.787829 0.187433 1 
0.083068 0.242914 0.0275624 0.537392 0.81604 0.212813 1 
0.0832193 0.242971 0.0272906 0.586681 0.787829 0.187433 1 
0.0835366 0.242803 0.0273216 0.625173 0.757273 0.188934 1 
0.0828494 0.24205 0.0283271 0.596206 0.720347 0.354456 1 
0.0833204 0.241708 0.0290698 0.492375 0.763918 0.417129 1 
0.0834938 0.241878 0.0285395 0.632574 0.72499 0.272469 1 
0.0836278 0.241375 0.0289505 0.633039 0.710357 0.30766 1 
0.083173 0.242385 0.0278046 0.592299 0.772631 0.228525 1 
0.0833901 0.242299 0.0280178 0.638634 0.715462 0.283304 1 
0.0834722 0.242825 0.0280996 0.587388 0.761546 0.273903 1 
0.0835286 0.242998 0.027174 0.615715 0.760771 0.205238 1 
0.0982736 0.245987 0.0350831 -0.891083 -0.304017 -0.336964 1 
0.0983035 0.246482 0.0355342 -0.928068 -0.36455 -0.0761149 1 
0.0988657 0.245219 0.0335602 -0.788076 -0.396466 -0.470904 1 
0.0986016 0.245887 0.0334423 -0.798807 -0.360184 -0.481846 1 
0.0986349 0.246056 0.0330546 -0.799227 -0.38112 -0.464741 1 
0.0985515 0.246217 0.0338143 -0.820884 -0.360427 -0.442992 1 
0.0986148 0.246304 0.0333159 -0.805549 -0.389162 -0.446815 1 
0.0987549 0.246304 0.0331732 -0.799624 -0.387745 -0.458537 1 
0.0986548 0.246386 0.0333554 -0.815048 -0.374826 -0.441817 1 
0.0990089 0.246049 0.0337027 -0.81794 -0.350999 -0.455823 1 
0.0993452 0.245741 0.0337521 -0.809401 -0.375166 -0.451796 1 
0.099186 0.24588 0.0338764 -0.828621 -0.345653 -0.440353 1 
0.0978066 0.247049 0.0343461 -0.912818 -0.341766 -0.223518 1 
0.0984471 0.246156 0.0345529 -0.87514 -0.312006 -0.369842 1 
0.0984982 0.246295 0.0344632 -0.868371 -0.317024 -0.381348 1 
0.0991447 0.246484 0.0346784 -0.870269 -0.245847 -0.426839 1 
0.0986716 0.246465 0.0339329 -0.836939 -0.362726 -0.409833 1 
0.0989119 0.246383 0.0336081 -0.836111 -0.366881 -0.40782 1 
0.0985334 0.246825 0.0340784 -0.874929 -0.336277 -0.34845 1 
0.099148 0.246158 0.0338397 -0.837498 -0.336565 -0.43049 1 
0.0991779 0.246653 0.0342908 -0.86176 -0.283172 -0.420931 1 
0.0992491 0.246545 0.0339399 -0.858633 -0.325263 -0.396174 1 
0.0986249 0.245891 0.0329043 -0.789415 -0.364964 -0.493585 1 
0.0993115 0.246162 0.033159 -0.798807 -0.360184 -0.481846 1 
0.0995365 0.245881 0.0335198 -0.797644 -0.361106 -0.48308 1 
0.0995697 0.24605 0.0331322 -0.793821 -0.347998 -0.498744 1 
0.100137 0.245387 0.0324268 -0.704944 -0.394571 -0.589379 1 
0.0994247 0.246497 0.0328505 -0.804262 -0.386881 -0.451093 1 
0.0994795 0.246298 0.0334647 -0.820018 -0.336539 -0.462939 1 
0.0998269 0.246047 0.0333849 -0.798692 -0.347327 -0.49138 1 
0.0998669 0.246129 0.0334244 -0.798692 -0.347327 -0.49138 1 
0.099498 0.246749 0.0325024 -0.812735 -0.407166 -0.416746 1 
0.0996382 0.246749 0.0323598 -0.798268 -0.414454 -0.437031 1 
0.0997863 0.246554 0.0323647 -0.787854 -0.419002 -0.451358 1 
0.100015 0.246994 0.0327311 -0.86027 -0.381484 -0.338239 1 
0.0997531 0.246385 0.0327523 -0.794695 -0.385258 -0.46908 1 
0.100107 0.246047 0.0330996 -0.783835 -0.349265 -0.513436 1 
0.100417 0.246074 0.0329831 -0.766015 -0.364384 -0.529571 1 
0.100344 0.246882 0.0326329 -0.80125 -0.396611 -0.447994 1 
0.0998596 0.246806 0.0320166 -0.759802 -0.444722 -0.474261 1 
0.100056 0.246498 0.0322086 -0.771899 -0.398137 -0.49564 1 
0.100474 0.246717 0.0323399 -0.775575 -0.417867 -0.473149 1 
0.100434 0.246634 0.0323003 -0.777758 -0.410799 -0.475748 1 
0.100531 0.2463 0.0323949 -0.770057 -0.392355 -0.503061 1 
0.0975715 0.247743 0.0343969 -0.93095 -0.348259 -0.109763 1 
0.0975213 0.248074 0.034769 -0.933935 -0.34605 -0.0895188 1 
0.0981658 0.247902 0.0349814 -0.94827 -0.295754 -0.115384 1 
0.0982337 0.24812 0.0354693 -0.955135 -0.253729 -0.152769 1 
0.098406 0.248398 0.0352186 -0.949893 -0.293795 -0.106715 1 
0.0982568 0.248702 0.0354933 -0.957978 -0.264584 -0.110787 1 
0.0985571 0.249033 0.0355087 -0.989296 -0.143589 -0.0260043 1 
0.0983604 0.247715 0.0339103 -0.895865 -0.38855 -0.215535 1 
0.0979498 0.247879 0.0344886 -0.931545 -0.34577 -0.112545 1 
0.0983225 0.247993 0.0338736 -0.892268 -0.411928 -0.184858 1 
0.0984606 0.247633 0.0337282 -0.879173 -0.401263 -0.256989 1 
0.0985707 0.247715 0.0336964 -0.883572 -0.396187 -0.249673 1 
0.098741 0.247633 0.0334429 -0.885524 -0.394393 -0.245565 1 
0.0985027 0.248076 0.0337705 -0.889642 -0.434076 -0.141827 1 
0.098654 0.248133 0.0334987 -0.882437 -0.434633 -0.18 1 
0.0984704 0.248376 0.0344405 -0.915674 -0.388509 -0.102962 1 
0.0983272 0.247546 0.034298 -0.899297 -0.357658 -0.251685 1 
0.0984695 0.247907 0.0341581 -0.900379 -0.38712 -0.198634 1 
0.0988252 0.24687 0.0352066 -0.946917 -0.211792 -0.241853 1 
0.0988306 0.246904 0.0343706 -0.869284 -0.319298 -0.377352 1 
0.0988584 0.247039 0.0348189 -0.897366 -0.274401 -0.345597 1 
0.0987146 0.247377 0.0342577 -0.892886 -0.341354 -0.293654 1 
0.0989138 0.247321 0.0341729 -0.898792 -0.327237 -0.2917 1 
0.099004 0.247074 0.0338404 -0.890181 -0.339615 -0.303709 1 
0.0990909 0.247153 0.0343466 -0.877383 -0.292461 -0.380351 1 
0.0986264 0.247985 0.034593 -0.928182 -0.346172 -0.136538 1 
0.0984392 0.248567 0.034831 -0.914502 -0.391929 -0.100389 1 
0.0988997 0.248085 0.0323379 -0.859115 -0.410346 -0.305839 1 
0.0986962 0.247998 0.032979 -0.865594 -0.432039 -0.25316 1 
0.0988665 0.247915 0.0327255 -0.866658 -0.415813 -0.275686 1 
0.0986857 0.248423 0.031848 -0.821456 -0.433767 -0.370211 1 
0.099696 0.24738 0.0332592 -0.918149 -0.341272 -0.201336 1 
0.0986405 0.248872 0.034749 -0.888443 -0.450498 -0.087868 1 
0.0986794 0.249063 0.0350681 -0.915482 -0.393127 -0.0856989 1 
0.0988965 0.248977 0.0352813 -0.960252 -0.251464 -0.121172 1 
0.0981013 0.245708 0.0353338 -0.890748 -0.29492 -0.34582 1 
0.0983116 0.245709 0.0351198 -0.884049 -0.308739 -0.350909 1 
0.0984887 0.24554 0.0352935 -0.875414 -0.386881 -0.289782 1 
0.0984222 0.245201 0.0360687 -0.86278 -0.412234 -0.292701 1 
0.0976495 0.245899 0.0361521 -0.9412 -0.0667611 -0.331187 1 
0.0978198 0.245816 0.0358986 -0.914804 -0.373533 -0.153642 1 
0.0979467 0.245978 0.0364444 -0.950885 -0.264957 -0.16005 1 
0.0982002 0.246313 0.0359932 -0.935303 -0.332582 -0.120816 1 
0.0983911 0.245393 0.0364592 -0.910686 -0.0862756 -0.403989 1 
0.0979711 0.245873 0.0356268 -0.926307 -0.336712 -0.169055 1 
0.0981502 0.246065 0.0358033 -0.940723 -0.294404 -0.168426 1 
0.0981814 0.245874 0.0354128 -0.890748 -0.29492 -0.34582 1 
0.0985118 0.246122 0.0353175 -0.911545 -0.272734 -0.307737 1 
0.0982703 0.246313 0.0359219 -0.938157 -0.323549 -0.123192 1 
0.0983415 0.246204 0.035571 -0.927639 -0.133701 -0.348726 1 
0.0988327 0.245615 0.0360524 -0.886685 -0.355574 -0.295562 1 
0.0988528 0.245368 0.0357912 -0.846336 -0.42705 -0.318346 1 
0.0987993 0.24488 0.0343354 -0.81315 -0.439325 -0.381813 1 
0.0991023 0.244403 0.0347724 -0.813721 -0.477446 -0.331516 1 
0.0989395 0.24488 0.0341928 -0.811314 -0.433661 -0.392055 1 
0.0991466 0.244629 0.0342556 -0.809765 -0.44561 -0.381723 1 
0.0991235 0.244047 0.0342316 -0.768795 -0.505487 -0.391712 1 
0.0994397 0.243987 0.0345422 -0.777463 -0.495044 -0.38792 1 
0.0992104 0.244126 0.0347378 -0.789995 -0.497166 -0.358796 1 
0.0994207 0.244126 0.0345239 -0.77337 -0.504231 -0.384253 1 
0.099534 0.244461 0.0342153 -0.787433 -0.480221 -0.386441 1 
0.0996742 0.244461 0.0340726 -0.76454 -0.479679 -0.430565 1 
0.0997332 0.244405 0.0341305 -0.766312 -0.491812 -0.413384 1 
0.099631 0.244127 0.0343099 -0.759136 -0.510989 -0.40324 1 
0.0991609 0.243288 0.0355286 -0.753462 -0.604981 -0.257472 1 
0.0999524 0.24303 0.0360255 -0.689441 -0.660513 -0.297311 1 
0.0998086 0.243368 0.0354642 -0.763732 -0.593664 -0.253528 1 
0.100143 0.243278 0.0360728 -0.737692 -0.613416 -0.282012 1 
0.100151 0.243564 0.0349601 -0.74786 -0.555599 -0.363339 1 
0.100184 0.243733 0.0345725 -0.766312 -0.491812 -0.413384 1 
0.100341 0.243812 0.0350074 -0.8027 -0.472648 -0.363698 1 
0.100115 0.243143 0.0356245 -0.647598 -0.673829 -0.355769 1 
0.100209 0.243616 0.0352976 -0.753709 -0.56972 -0.32763 1 
0.100459 0.2437 0.0351232 -0.74786 -0.555599 -0.363339 1 
0.100585 0.243392 0.0353865 -0.61331 -0.666497 -0.423832 1 
0.0994892 0.244825 0.0337514 -0.766968 -0.42682 -0.47915 1 
0.0998603 0.243988 0.0341143 -0.753969 -0.497718 -0.428728 1 
0.0999505 0.243741 0.0337818 -0.681886 -0.551205 -0.480838 1 
0.0996263 0.244574 0.0338855 -0.759966 -0.461232 -0.457949 1 
0.0999614 0.244375 0.0342145 -0.747568 -0.504403 -0.432111 1 
0.10002 0.244319 0.0342724 -0.754572 -0.509049 -0.414114 1 
0.100135 0.244545 0.0336843 -0.724317 -0.472381 -0.502216 1 
0.100271 0.244883 0.0328377 -0.718245 -0.417738 -0.556434 1 
0.100195 0.24379 0.0344433 -0.767362 -0.466307 -0.440129 1 
0.100406 0.24379 0.0342293 -0.711016 -0.52785 -0.464575 1 
0.100703 0.243869 0.0345216 -0.729602 -0.5046 -0.461585 1 
0.10057 0.243204 0.0345294 -0.558679 -0.69543 -0.451946 1 
0.0992265 0.245372 0.0348966 -0.828852 -0.421531 -0.367853 1 
0.0988425 0.245214 0.0340982 -0.778284 -0.424075 -0.463071 1 
0.0990996 0.245211 0.0343509 -0.790337 -0.425069 -0.441231 1 
0.09934 0.245129 0.0340261 -0.774521 -0.425579 -0.467974 1 
0.099517 0.24496 0.0341998 -0.791487 -0.435399 -0.428924 1 
0.0990327 0.245463 0.0341454 -0.782686 -0.409979 -0.468316 1 
0.0993298 0.245542 0.0344377 -0.78253 -0.406657 -0.471462 1 
0.098819 0.245788 0.0351981 -0.87467 -0.360516 -0.324008 1 
0.0989961 0.24562 0.0353718 -0.860702 -0.401866 -0.312563 1 
0.0992328 0.245876 0.0343431 -0.806203 -0.379861 -0.453589 1 
0.0994721 0.245903 0.0342978 -0.792708 -0.392318 -0.466584 1 
0.0994619 0.246316 0.0347095 -0.849895 -0.301875 -0.431914 1 
0.100329 0.243864 0.0354162 -0.816721 -0.46783 -0.337789 1 
0.0997796 0.244991 0.0336165 -0.769227 -0.419727 -0.481788 1 
0.0995734 0.245712 0.0338361 -0.786159 -0.406857 -0.465211 1 
0.100075 0.24471 0.033906 -0.745838 -0.459357 -0.482407 1 
0.100392 0.244541 0.033937 -0.724477 -0.489063 -0.485748 1 
0.100141 0.245048 0.0331307 -0.748223 -0.422623 -0.511423 1 
0.0996935 0.24596 0.0339547 -0.806385 -0.383153 -0.450485 1 
0.100849 0.244373 0.0338254 -0.761331 -0.453524 -0.463348 1 
0.100937 0.242694 0.035731 -0.238615 -0.826687 -0.50956 1 
0.101096 0.244217 0.0323851 -0.684643 -0.416091 -0.598441 1 
0.100926 0.244299 0.0326385 -0.672217 -0.435356 -0.598823 1 
0.100796 0.244464 0.0329316 -0.634235 -0.503014 -0.58713 1 
0.101129 0.244386 0.0319974 -0.763819 -0.358395 -0.536781 1 
0.10125 0.244634 0.032116 -0.730941 -0.399143 -0.553544 1 
0.098929 0.246449 0.0357283 -0.947671 -0.174892 -0.267083 1 
0.0991961 0.246611 0.0361314 -0.950976 -0.229265 -0.20756 1 
0.0997591 0.246395 0.0350017 -0.856103 -0.303878 -0.418025 1 
0.0999805 0.246452 0.0346585 -0.831098 -0.314596 -0.458591 1 
0.0999508 0.246522 0.0363121 -0.942911 -0.159193 -0.292534 1 
0.0976209 0.254674 0.0312358 -0.312185 -0.565134 -0.763652 1 
0.0980414 0.254675 0.0308079 -0.316583 -0.580135 -0.750479 1 
0.0982886 0.254506 0.0309102 -0.288017 -0.57126 -0.768575 1 
0.0984968 0.254146 0.0306935 -0.243863 -0.548304 -0.799933 1 
0.0984025 0.253673 0.0310204 -0.283326 -0.561904 -0.777168 1 
0.0982554 0.254337 0.0312979 -0.28383 -0.559732 -0.77855 1 
0.0983955 0.254337 0.0311552 -0.269609 -0.559715 -0.783601 1 
0.0983524 0.254003 0.0313924 -0.288017 -0.57126 -0.768575 1 
0.0985294 0.253834 0.0315661 -0.267073 -0.579974 -0.769612 1 
0.098773 0.254004 0.0309645 -0.234943 -0.567909 -0.788848 1 
0.0988209 0.253891 0.0311517 -0.234836 -0.576982 -0.782269 1 
0.0985726 0.254169 0.0313289 -0.277175 -0.568606 -0.774507 1 
0.0972118 0.255789 0.0308362 -0.389447 -0.576776 -0.718095 1 
0.097235 0.255793 0.0302982 -0.389447 -0.576776 -0.718095 1 
0.0973752 0.255793 0.0301556 -0.397963 -0.582909 -0.708408 1 
0.0977036 0.255681 0.0300574 -0.414852 -0.570215 -0.70905 1 
0.0973151 0.255958 0.0303772 -0.386998 -0.584613 -0.713064 1 
0.0973721 0.255542 0.0304323 -0.395653 -0.556541 -0.730562 1 
0.097517 0.255095 0.030714 -0.359851 -0.558502 -0.747384 1 
0.0977273 0.255095 0.0305001 -0.348922 -0.572881 -0.741661 1 
0.0976635 0.255599 0.0300179 -0.414852 -0.570215 -0.70905 1 
0.0977927 0.255543 0.0300044 -0.400755 -0.565675 -0.720699 1 
0.0977384 0.255152 0.0303709 -0.341146 -0.564265 -0.751814 1 
0.0978684 0.255565 0.0306399 -0.353271 -0.57142 -0.740729 1 
0.0976835 0.255929 0.0303186 -0.411997 -0.587385 -0.696589 1 
0.0973762 0.256263 0.030438 -0.38032 -0.600938 -0.703015 1 
0.0976934 0.256094 0.030469 -0.411997 -0.587385 -0.696589 1 
0.097908 0.254588 0.0313777 -0.305458 -0.574134 -0.759648 1 
0.0980023 0.255062 0.0310507 -0.34273 -0.596123 -0.726068 1 
0.0980546 0.255092 0.0306815 -0.320241 -0.580939 -0.748302 1 
0.0983497 0.254811 0.0309709 -0.299022 -0.590048 -0.749953 1 
0.0974621 0.252007 0.0319151 -0.340266 0.493626 0.800345 1 
0.0976427 0.2515 0.0327927 -0.69472 0.0499286 -0.717545 1 
0.097794 0.251557 0.0325208 -0.450532 0.389606 0.803261 1 
0.0974756 0.251834 0.0327694 -0.929976 0.351626 -0.107253 1 
0.0974087 0.252085 0.0325639 -0.871619 0.287497 -0.39702 1 
0.0978372 0.251891 0.0322836 -0.308493 0.461957 0.831522 1 
0.097619 0.252086 0.03235 -0.3317 0.487233 0.807824 1 
0.0975695 0.251248 0.0331407 -0.568187 -0.00958387 -0.822844 1 
0.0979478 0.251384 0.0332325 -0.951906 0.291187 0.0953211 1 
0.098138 0.251632 0.0332798 -0.932508 0.352517 -0.078485 1 
0.0977703 0.252143 0.0320781 -0.31737 0.487897 0.813162 1 
0.0979195 0.251839 0.0318035 -0.901546 0.260316 -0.345617 1 
0.0980396 0.252087 0.0319221 -0.930528 0.241457 -0.275346 1 
0.0981397 0.252005 0.0317399 -0.926352 0.254711 -0.277479 1 
0.0983568 0.251918 0.0319531 -0.923819 0.270701 -0.270701 1 
0.0986841 0.251915 0.0321345 -0.935687 0.293358 -0.196036 1 
0.0970924 0.252723 0.0328153 -0.915805 0.345397 -0.204945 1 
0.096921 0.252914 0.0333484 -0.878773 0.46952 -0.0854947 1 
0.0973464 0.252468 0.0333448 -0.887378 0.429937 -0.166474 1 
0.0972816 0.252502 0.0325802 -0.888407 0.298133 -0.34907 1 
0.0973395 0.252555 0.0329176 -0.905318 0.304717 -0.295884 1 
0.09768 0.25239 0.0324107 -0.903494 0.278565 -0.32573 1 
0.0976421 0.252668 0.032374 -0.928352 0.343476 -0.142081 1 
0.0971645 0.253084 0.0327468 -0.945236 0.261274 -0.195613 1 
0.0974928 0.252972 0.0326486 -0.938103 0.174947 -0.298926 1 
0.0975288 0.252333 0.0326825 -0.877979 0.322987 -0.353315 1 
0.097876 0.252661 0.0331647 -0.896903 0.428099 -0.110885 1 
0.0976157 0.252412 0.0331887 -0.884897 0.403037 -0.233494 1 
0.0973694 0.25305 0.0333688 -0.929689 0.366399 -0.0378134 1 
0.0974285 0.252994 0.0334266 -0.919879 0.383396 -0.0826401 1 
0.0976998 0.253299 0.0332734 -0.905999 0.418466 -0.0636502 1 
0.0977052 0.253333 0.0324375 0.316035 0.569505 0.758805 1 
0.0977833 0.251488 0.0341927 -0.931697 0.26922 0.243848 1 
0.0985285 0.251715 0.0329627 -0.924519 0.331698 -0.187727 1 
0.0983782 0.252128 0.033517 -0.885632 0.462481 0.0420438 1 
0.0982412 0.252379 0.0333828 -0.883544 0.467916 -0.020111 1 
0.0986412 0.251569 0.0339144 -0.918341 0.289775 0.269592 1 
0.0982029 0.252669 0.0318034 -0.609322 0.541807 0.57894 1 
0.0981597 0.252335 0.0320406 -0.945236 0.261274 -0.195613 1 
0.0982999 0.252335 0.031898 -0.935129 0.219455 -0.278162 1 
0.098488 0.252223 0.0319425 -0.944863 0.246187 -0.215929 1 
0.09838 0.252501 0.0319771 -0.940073 0.18306 -0.287665 1 
0.098557 0.252332 0.0321508 -0.947322 0.275117 -0.163986 1 
0.0985069 0.252662 0.0325228 -0.951235 0.207026 -0.228675 1 
0.0984236 0.252245 0.0327205 -0.922088 0.323514 -0.212351 1 
0.0985 0.252749 0.0320957 -0.951394 0.165518 -0.259716 1 
0.0986771 0.25258 0.0322693 -0.945185 0.169997 -0.278795 1 
0.0983962 0.253169 0.0315739 -0.274187 -0.528006 -0.80376 1 
0.0987836 0.253001 0.0315336 -0.314847 -0.492047 -0.811641 1 
0.0989444 0.252163 0.0321105 -0.948662 0.275852 -0.154746 1 
0.0987504 0.252832 0.0319212 -0.821317 0.485253 0.299946 1 
0.0989385 0.252719 0.0319657 -0.799472 0.493088 0.343087 1 
0.0988774 0.252415 0.031905 -0.869838 0.059654 -0.489717 1 
0.0990455 0.25255 0.0322107 -0.914036 0.126602 -0.38537 1 
0.0991709 0.252833 0.0314933 -0.47774 -0.378009 -0.793016 1 
0.0986601 0.253079 0.0322538 0.507027 0.424984 0.749875 1 
0.0988651 0.253045 0.0328758 -0.937623 0.0696971 -0.340595 1 
0.0986866 0.253335 0.031439 -0.280217 -0.55885 -0.78049 1 
0.0986976 0.253392 0.0313098 -0.221955 -0.588258 -0.777618 1 
0.0986676 0.253474 0.0314207 -0.245552 -0.58338 -0.774191 1 
0.0990871 0.253584 0.0312724 -0.208559 -0.59787 -0.773986 1 
0.0989337 0.253166 0.0315414 -0.278944 -0.537401 -0.795858 1 
0.0988636 0.253166 0.0316127 -0.280639 -0.518947 -0.807425 1 
0.099144 0.253167 0.0313274 -0.238041 -0.570987 -0.785691 1 
0.0993358 0.252716 0.0320758 -0.705732 -0.216549 -0.674573 1 
0.0994392 0.252886 0.0316169 -0.396255 -0.437966 -0.806949 1 
0.0994792 0.252968 0.0316564 -0.312416 -0.505891 -0.804034 1 
0.099526 0.252964 0.0321231 -0.358551 -0.503258 -0.78624 1 
0.0996793 0.253382 0.0318541 -0.19151 -0.595979 -0.779829 1 
0.0991115 0.25183 0.0321337 -0.936039 0.285973 -0.205064 1 
0.0992727 0.252051 0.0320123 -0.929913 0.215898 -0.297741 1 
0.0995199 0.251883 0.0321146 -0.936579 0.244994 -0.250594 1 
0.0992415 0.252243 0.0324027 -0.930625 0.209778 -0.299884 1 
0.0992526 0.252299 0.0322735 -0.922103 0.200334 -0.331048 1 
0.0983606 0.253796 0.0330827 0.216593 0.68406 0.696526 1 
0.0987037 0.253402 0.0335592 -0.362283 0.877665 0.313776 1 
0.100267 0.253037 0.0329921 -0.707216 0.67287 0.217005 1 
0.098791 0.253396 0.0307005 -0.1739 -0.570091 -0.802966 1 
0.0984399 0.254563 0.0306384 -0.287667 -0.576924 -0.764464 1 
0.0987571 0.254395 0.0306694 -0.273574 -0.567706 -0.776445 1 
0.0987571 0.254395 0.0306694 -0.273574 -0.567706 -0.776445 1 
0.0990312 0.253892 0.0309377 -0.207025 -0.568936 -0.795897 1 
0.0990902 0.253835 0.0309956 -0.220861 -0.573004 -0.789232 1 
0.0991113 0.254057 0.0310167 -0.231744 -0.573915 -0.78544 1 
0.0989932 0.25417 0.030901 -0.231267 -0.563424 -0.793139 1 
0.0990965 0.254339 0.030442 -0.280096 -0.568104 -0.773824 1 
0.0991234 0.254005 0.030608 -0.251493 -0.560782 -0.788844 1 
0.0980509 0.25543 0.0299776 -0.342741 -0.579898 -0.739085 1 
0.098239 0.255318 0.030022 -0.334375 -0.573444 -0.747901 1 
0.0978537 0.255847 0.0300651 -0.414852 -0.570215 -0.70905 1 
0.0983591 0.255566 0.0301406 -0.32041 -0.584467 -0.745477 1 
0.0983279 0.255757 0.0305311 -0.339395 -0.586228 -0.735627 1 
0.0983028 0.254815 0.0305043 -0.309281 -0.5785 -0.754774 1 
0.098443 0.254815 0.0303616 -0.309281 -0.5785 -0.754774 1 
0.0987592 0.254755 0.0306722 -0.314175 -0.591294 -0.742742 1 
0.0991798 0.254756 0.0302443 -0.30629 -0.591733 -0.74568 1 
0.0990396 0.254756 0.030387 -0.298866 -0.586544 -0.752758 1 
0.0991006 0.25506 0.0304477 -0.303526 -0.595811 -0.74356 1 
0.0990443 0.254309 0.0308113 -0.273574 -0.567706 -0.776445 1 
0.0993948 0.25431 0.0304547 -0.266091 -0.571544 -0.77623 1 
0.0991608 0.254895 0.030226 -0.302498 -0.587391 -0.750644 1 
0.0994412 0.254896 0.0299407 -0.306549 -0.582603 -0.752729 1 
0.0994633 0.255009 0.0296823 -0.317371 -0.597689 -0.736236 1 
0.0994269 0.254588 0.0303467 -0.295951 -0.587102 -0.753475 1 
0.0997584 0.254727 0.0299717 -0.282058 -0.59758 -0.750561 1 
0.0992165 0.255165 0.0311226 -0.332914 -0.605741 -0.722666 1 
0.0996635 0.255422 0.0298799 -0.325161 -0.593703 -0.736062 1 
0.0999208 0.25484 0.0295707 -0.293286 -0.610612 -0.735619 1 
0.0998238 0.255175 0.0294761 -0.289667 -0.609742 -0.737772 1 
0.099964 0.255175 0.0293334 -0.299832 -0.610888 -0.732745 1 
0.100141 0.255006 0.0295071 -0.275883 -0.626716 -0.728777 1 
0.100568 0.25492 0.0295063 -0.226712 -0.630104 -0.742678 1 
0.100471 0.255255 0.0294117 -0.247768 -0.670708 -0.699115 1 
0.0990882 0.253475 0.0309927 -0.188105 -0.594902 -0.781478 1 
0.0992051 0.253471 0.0313881 -0.194567 -0.599021 -0.776735 1 
0.0994043 0.253415 0.0313034 -0.201299 -0.59775 -0.775999 1 
0.0992673 0.253667 0.0311692 -0.194459 -0.595627 -0.779368 1 
0.0995624 0.253385 0.0314587 -0.188063 -0.607 -0.772129 1 
0.0994776 0.253667 0.0309553 -0.170817 -0.588033 -0.790594 1 
0.0998048 0.253664 0.0311367 -0.164928 -0.600703 -0.782275 1 
0.0997585 0.253078 0.0316507 -0.135253 -0.587089 -0.798144 1 
0.0994813 0.253329 0.0316592 -0.204994 -0.593405 -0.778362 1 
0.0997395 0.253217 0.0316323 -0.138665 -0.594919 -0.791734 1 
0.0999756 0.252992 0.0318639 -0.125447 -0.588865 -0.798436 1 
0.100079 0.253161 0.031405 -0.0237134 -0.629102 -0.776961 1 
0.0999118 0.253495 0.0313817 -0.126232 -0.613338 -0.779667 1 
0.0995909 0.254002 0.0306467 -0.197648 -0.589878 -0.78293 1 
0.0997679 0.253833 0.0308204 -0.190829 -0.587752 -0.786214 1 
0.0997723 0.252326 0.031943 -0.492366 -0.339398 -0.801489 1 
0.100033 0.252575 0.031919 -0.164538 -0.511402 -0.843442 1 
0.100577 0.252485 0.0323136 -0.901373 -0.0039247 -0.433025 1 
0.0995977 0.253915 0.0310739 -0.208671 -0.601281 -0.771309 1 
0.0998448 0.253747 0.0311762 -0.198087 -0.603474 -0.772386 1 
0.099888 0.254081 0.030939 -0.218552 -0.602954 -0.767256 1 
0.10025 0.254138 0.0304532 -0.226358 -0.616632 -0.754008 1 
0.100218 0.25433 0.0308436 -0.230128 -0.627763 -0.743609 1 
0.10044 0.254386 0.0305004 -0.226453 -0.620014 -0.7512 1 
0.100028 0.254659 0.0313583 -0.26561 -0.644145 -0.717307 1 
0.100829 0.254579 0.030463 -0.182604 -0.646019 -0.741158 1 
0.0957924 0.249206 0.0402233 -0.505487 0.768795 0.391712 1 
0.0957967 0.249349 0.0396669 -0.852681 0.493814 0.170536 1 
0.0962498 0.248472 0.038007 -0.954637 -0.150452 -0.256967 1 
0.0966539 0.248382 0.0385442 -0.952298 -0.285033 -0.109022 1 
0.0963697 0.249298 0.0386876 -0.977601 -0.0129095 -0.210073 1 
0.0967539 0.248878 0.038924 -0.995704 -0.04272 -0.0821538 1 
0.096311 0.249342 0.0401723 -0.181608 0.835998 0.517808 1 
0.0963026 0.250127 0.0390441 -0.663939 0.667202 0.337679 1 
0.0968116 0.249508 0.0398235 -0.363884 0.729401 0.579278 1 
0.0966045 0.249759 0.0397607 -0.367493 0.739885 0.563489 1 
0.0969317 0.249756 0.0399421 -0.343933 0.715577 0.607996 1 
0.097064 0.249952 0.0396519 -0.32084 0.749701 0.578801 1 
0.0964059 0.250297 0.0385851 -0.484495 0.790322 0.375041 1 
0.0968432 0.250376 0.0387348 -0.404068 0.796868 0.449144 1 
0.0969201 0.25029 0.0390906 -0.395037 0.775444 0.492577 1 
0.0974514 0.249784 0.0396116 -0.32084 0.749701 0.578801 1 
0.0972252 0.250174 0.0395304 -0.343719 0.763282 0.547045 1 
0.0971515 0.250512 0.0388978 -0.325912 0.82344 0.464464 1 
0.0975389 0.250344 0.0388575 -0.393299 0.781743 0.483936 1 
0.0974945 0.250118 0.0393743 -0.345856 0.77697 0.526023 1 
0.0976458 0.250175 0.0391025 -0.373736 0.774976 0.50964 1 
0.0968636 0.251766 0.0383372 0.66048 0.489058 0.569727 1 
0.0964852 0.247765 0.0394988 -0.139093 -0.976155 0.166661 1 
0.0972162 0.247684 0.0386748 -0.659063 -0.712543 0.24066 1 
0.0973384 0.248293 0.0387962 0.418051 -0.903708 0.0924404 1 
0.0959974 0.249172 0.0408452 -0.0547388 0.832311 0.551599 1 
0.0963578 0.249338 0.040639 -0.0204954 0.84851 0.528782 1 
0.0965048 0.249252 0.0409235 -0.00955554 0.825872 0.563777 1 
0.0968352 0.2495 0.0408282 -0.0178771 0.82097 0.570691 1 
0.0969623 0.249084 0.0408119 -0.0040541 0.847307 0.531087 1 
0.0972463 0.248746 0.0412306 0.061006 0.810103 0.583104 1 
0.0972795 0.248915 0.0408429 -0.00948636 0.849707 0.52717 1 
0.0974234 0.248577 0.0414042 0.0608509 0.825025 0.56181 1 
0.0967193 0.248324 0.0423942 0.283454 0.812778 0.508965 1 
0.0977165 0.247935 0.0416909 0.161414 0.788966 0.592856 1 
0.0978297 0.24827 0.0413823 0.106957 0.795587 0.596324 1 
0.0976242 0.247822 0.0420206 0.303931 0.734902 0.606254 1 
0.097503 0.249333 0.0405026 -0.228534 0.781989 0.579884 1 
0.0982044 0.248744 0.0407701 0.0317907 0.838997 0.543206 1 
0.0976764 0.249502 0.0399724 -0.341553 0.755949 0.558464 1 
0.0978055 0.249446 0.0399589 -0.368443 0.767725 0.52426 1 
0.0983779 0.248914 0.0402399 -0.012545 0.729001 0.684397 1 
0.0985949 0.248827 0.0404531 0.226597 0.648536 0.726673 1 
0.0979667 0.249668 0.0398375 -0.294555 0.765843 0.571596 1 
0.0981438 0.249499 0.0400111 0.0984049 0.718209 0.688834 1 
0.0983371 0.249999 0.0397816 -0.177841 0.788886 0.588244 1 
0.0985843 0.24983 0.039884 -0.132619 0.779321 0.61243 1 
0.0985712 0.249414 0.0400104 0.679627 0.391902 0.620097 1 
0.0987082 0.249162 0.0401445 0.575177 0.484624 0.659022 1 
0.0988984 0.24941 0.0401918 0.189662 0.670757 0.717017 1 
0.0982171 0.248102 0.041342 0.118668 0.813099 0.569902 1 
0.0983236 0.248523 0.0406063 -0.037035 0.860035 0.508889 1 
0.098772 0.248659 0.0406268 0.05593 0.729959 0.681199 1 
0.098829 0.248242 0.0406818 0.00130676 0.900357 0.435151 1 
0.0974461 0.248027 0.0372189 -0.929989 -0.059361 -0.362762 1 
0.0979522 0.248228 0.0360341 -0.964229 -0.125208 -0.233635 1 
0.0976216 0.248557 0.0366915 -0.960227 -0.180951 -0.21265 1 
0.0977955 0.248137 0.0371419 -0.951294 -0.145838 -0.271607 1 
0.0973221 0.249274 0.0375204 -0.979731 -0.0342729 -0.197364 1 
0.0970616 0.249603 0.0381064 -0.982909 0.0828092 -0.164418 1 
0.0975446 0.249222 0.0368976 -0.989022 -0.0307291 -0.144541 1 
0.0974754 0.249691 0.0372513 -0.935303 0.120816 -0.332582 1 
0.097803 0.248531 0.0363088 -0.965488 -0.11699 -0.232694 1 
0.0980669 0.248441 0.0369886 -0.978774 -0.0892016 -0.184513 1 
0.098244 0.248273 0.0371623 -0.971123 0.0402096 -0.235165 1 
0.0982229 0.248051 0.0371412 -0.932619 -0.13284 -0.335524 1 
0.0983437 0.24878 0.0359995 -0.969797 -0.188322 -0.155014 1 
0.0968561 0.250805 0.0370657 -0.924049 0.284213 -0.255649 1 
