0.0929095 0.22376 0.0445614 -0.963809 0.146978 -0.222418 1 
0.0926035 0.223263 0.0449849 -0.984838 0.140348 -0.101963 1 
0.0931366 0.224359 0.0443896 -0.973381 0.0959671 -0.208136 1 
0.0929988 0.224129 0.0449167 -0.943968 0.314656 -0.0995747 1 
0.0934942 0.224771 0.0436197 -0.937129 0.161005 -0.309624 1 
0.0937692 0.2241 0.0437396 -0.955405 0.116641 -0.271288 1 
0.0939696 0.223897 0.0436463 -0.966661 0.200579 -0.159169 1 
0.0939817 0.223863 0.0434257 -0.902233 0.257571 -0.34588 1 
0.0939915 0.225152 0.0438594 -0.931824 0.0676003 -0.356559 1 
0.0922204 0.224558 0.0458495 -0.95646 0.281161 0.0783142 1 
0.0922951 0.22409 0.0460627 0.669468 -0.535239 0.515104 1 
0.0926363 0.22417 0.0459783 -0.941251 0.274244 0.19707 1 
0.0929818 0.224616 0.0454289 -0.887154 0.461426 0.00661069 1 
0.0928513 0.224804 0.0460271 -0.874843 0.477314 0.0825852 1 
0.0919763 0.224446 0.0465335 0.54005 -0.53332 0.651088 1 
0.0925726 0.223559 0.0462063 -0.976692 0.0494986 0.20886 1 
0.0925107 0.223905 0.0462848 -0.919737 0.0769824 0.384912 1 
0.092793 0.223652 0.0464758 -0.239732 -0.335624 0.91098 1 
0.0926892 0.223911 0.0466564 -0.204609 -0.34197 0.917165 1 
0.092592 0.224674 0.0463958 0.0444325 -0.437593 0.898075 1 
0.0927505 0.224383 0.0464047 -0.120683 -0.387018 0.91414 1 
0.0934081 0.224699 0.0461647 -0.133855 -0.467772 0.873654 1 
0.0926491 0.223317 0.045931 -0.823342 -0.149833 0.547411 1 
0.0928003 0.223339 0.0462078 -0.972087 0.0203767 0.233732 1 
0.093181 0.223368 0.0459976 -0.918733 0.390695 0.0573375 1 
0.0930208 0.223433 0.0464773 -0.224406 -0.38281 0.896158 1 
0.0932903 0.223302 0.0463766 -0.20254 -0.39488 0.896129 1 
0.0935502 0.223345 0.0465202 -0.194962 -0.376927 0.905492 1 
0.0935945 0.222841 0.0461027 -0.255114 -0.358339 0.898059 1 
0.0936018 0.223259 0.0461737 0.293781 -0.557391 0.776536 1 
0.0936838 0.22321 0.046458 -0.203934 -0.368816 0.906855 1 
0.0936656 0.223871 0.0459457 -0.834584 0.149191 0.530293 1 
0.0943044 0.222985 0.0460286 -0.223624 -0.369784 0.901805 1 
0.094104 0.223188 0.0461219 -0.177585 -0.405702 0.896588 1 
0.0944999 0.223235 0.0462269 -0.215321 -0.356941 0.908972 1 
0.0945667 0.223167 0.0461958 -0.203934 -0.368816 0.906855 1 
0.0924943 0.223574 0.0469703 -0.286659 -0.340129 0.895622 1 
0.0940683 0.222472 0.0469569 -0.140564 -0.366023 0.919929 1 
0.0941241 0.223484 0.0464846 -0.207349 -0.341768 0.916625 1 
0.0946092 0.223168 0.046606 -0.21014 -0.333079 0.919184 1 
0.093075 0.222912 0.0419379 -0.86432 0.48627 -0.128422 1 
0.0934103 0.223131 0.043146 -0.932202 0.30887 -0.188677 1 
0.0934213 0.222783 0.0439263 -0.98279 -0.0704552 -0.170764 1 
0.093873 0.223111 0.04322 -0.914801 0.285604 -0.285604 1 
0.0938803 0.223529 0.043291 -0.923085 0.267623 -0.27621 1 
0.0942811 0.223123 0.0431045 -0.903908 0.260149 -0.339517 1 
0.0942521 0.221694 0.0451848 -0.904742 -0.0251685 0.425216 1 
0.0937056 0.22227 0.0456541 -0.966482 0.218071 -0.135488 1 
0.0943233 0.222236 0.0470532 -0.0615764 -0.450192 0.890806 1 
0.0948491 0.222914 0.0463868 -0.179437 -0.348983 0.91979 1 
0.0949712 0.222727 0.0470575 -0.157563 -0.347196 0.924461 1 
0.09499 0.223197 0.0463957 -0.221096 -0.31524 0.922898 1 
0.0930749 0.226413 0.0475105 -0.288794 -0.0953934 0.952627 1 
0.0940021 0.225867 0.0468309 -0.301565 -0.127328 0.944905 1 
0.0943287 0.22511 0.0466044 -0.290316 -0.272984 0.917168 1 
0.0936687 0.225386 0.0471596 -0.230061 -0.257947 0.938369 1 
0.0933991 0.225517 0.0472603 -0.219738 -0.227927 0.948559 1 
0.0936293 0.225437 0.0472854 -0.197946 -0.278231 0.939896 1 
0.09335 0.225742 0.0476304 -0.229961 -0.194996 0.953464 1 
0.0934836 0.225607 0.0475682 -0.200009 -0.246269 0.94834 1 
0.0940076 0.225327 0.0470515 -0.222036 -0.295577 0.929158 1 
0.0939037 0.225585 0.0472321 -0.215098 -0.239759 0.946704 1 
0.0940367 0.226268 0.0469966 -0.427597 -0.0783699 0.900566 1 
0.0942523 0.226083 0.0472187 -0.320565 -0.217984 0.921803 1 
0.0937653 0.226173 0.0475859 -0.228594 -0.130441 0.964744 1 
0.0943561 0.225825 0.0470381 -0.279962 -0.245855 0.927996 1 
0.0947022 0.225453 0.046662 -0.300836 -0.271769 0.914133 1 
0.0948534 0.225475 0.0469389 -0.287007 -0.3135 0.905177 1 
0.0955074 0.223875 0.0469982 -0.281482 -0.239047 0.929314 1 
0.0949129 0.224989 0.0468368 -0.258998 -0.284755 0.922949 1 
0.0951752 0.225171 0.047004 -0.251602 -0.324319 0.911874 1 
0.0950022 0.225357 0.0471921 -0.258648 -0.301997 0.917551 1 
0.0953064 0.224896 0.0469182 -0.264258 -0.298915 0.916961 1 
0.0954029 0.224952 0.0470055 -0.305414 -0.27911 0.910396 1 
0.0952395 0.224233 0.0466103 -0.277144 -0.248719 0.928078 1 
0.0954399 0.22403 0.046517 -0.278874 -0.239237 0.930051 1 
0.0953015 0.224618 0.0468708 -0.255837 -0.258664 0.931472 1 
0.0955887 0.224644 0.0471092 -0.263281 -0.268974 0.926464 1 
0.0955292 0.224398 0.0468723 -0.262293 -0.262293 0.928658 1 
0.0954035 0.224133 0.0471788 -0.262293 -0.262293 0.928658 1 
0.0937052 0.227477 0.0475148 -0.949677 -0.306222 -0.0658959 1 
0.0937872 0.227427 0.047799 0.185168 0.219803 0.95781 1 
0.0938983 0.226856 0.0473505 -0.904633 -0.394619 -0.160982 1 
0.0941187 0.22695 0.0476199 -0.147323 0.0718934 0.986472 1 
0.0941132 0.22749 0.0473993 0.191892 0.251773 0.948572 1 
0.0945067 0.226666 0.0471417 -0.856408 -0.499933 -0.128968 1 
0.0949991 0.226036 0.0469951 -0.353669 -0.285024 0.890887 1 
0.0948309 0.22577 0.0468915 -0.331644 -0.258594 0.907272 1 
0.0949129 0.22572 0.0471758 -0.283453 -0.289268 0.914319 1 
0.0951504 0.226059 0.047272 -0.286642 -0.292462 0.912306 1 
0.0951577 0.226477 0.047343 -0.217322 -0.0992397 0.971042 1 
0.0951631 0.225937 0.0475636 -0.274563 -0.351738 0.894928 1 
0.0950641 0.225742 0.0474526 -0.265881 -0.336391 0.903409 1 
0.0952396 0.226427 0.0476272 -0.249699 -0.260984 0.93249 1 
0.0955985 0.225201 0.0472039 -0.271049 -0.300038 0.914609 1 
0.0958262 0.224982 0.0472053 -0.263785 -0.295497 0.918204 1 
0.0956805 0.225152 0.0474881 -0.26669 -0.292639 0.91828 1 
0.0959082 0.224932 0.0474896 -0.253438 -0.287803 0.923547 1 
0.0957625 0.225102 0.0477724 -0.253767 -0.27078 0.928591 1 
0.0961705 0.225115 0.0476569 -0.326036 -0.305194 0.894739 1 
0.095893 0.224914 0.0471743 -0.260158 -0.288904 0.921332 1 
0.0960861 0.225025 0.0473489 -0.283725 -0.269323 0.920307 1 
0.0964619 0.224775 0.0470913 -0.383289 -0.238261 0.892368 1 
0.0963709 0.224912 0.0475636 -0.341301 -0.217453 0.914455 1 
0.0965713 0.224709 0.0474703 -0.394396 -0.226002 0.890716 1 
0.0966205 0.225947 0.0477782 -0.411208 -0.324311 0.851898 1 
0.0956257 0.223722 0.0466206 -0.31717 -0.21761 0.923065 1 
0.0965913 0.225006 0.047833 -0.398755 -0.300976 0.866261 1 
0.0966533 0.224659 0.0477546 -0.40147 -0.22666 0.887382 1 
0.0969429 0.224825 0.0480166 -0.416058 -0.264764 0.86994 1 
0.0967346 0.225428 0.0478656 -0.415143 -0.289528 0.862456 1 
0.0970759 0.225508 0.0477811 -0.416058 -0.264764 0.86994 1 
0.0966825 0.226332 0.0480387 -0.408087 -0.31261 0.857753 1 
0.0970298 0.224322 0.0480092 -0.401035 -0.276941 0.873198 1 
0.0977025 0.223925 0.0477457 -0.179093 -0.543298 0.820215 1 
0.0804926 0.234278 -0.00595165 0.336038 0.612011 -0.715906 0 
0.080767 0.234426 -0.00600499 0.315991 0.672495 -0.669254 0 
0.0805794 0.234508 -0.00562004 0.301634 0.764459 -0.569753 0 
0.0806068 0.234491 -0.00552528 0.381648 0.728898 -0.568377 0 
0.0806888 0.234441 -0.00524102 0.0808593 0.98789 -0.132422 0 
0.0808964 0.234657 -0.00526327 0.0527552 0.99337 -0.102143 0 
0.0807822 0.234444 -0.00568963 0.381648 0.728898 -0.568377 0 
0.0811211 0.234385 -0.00579774 0.381648 0.728898 -0.568377 0 
0.0808096 0.234428 -0.00559488 0.381648 0.728898 -0.568377 0 
0.0808916 0.234378 -0.00531061 -0.202123 0.976315 0.0771742 0 
0.0810719 0.23461 -0.00542761 -0.207847 0.97528 0.0750216 0 
0.0812917 0.234791 -0.00567045 0.165629 0.940391 -0.297038 0 
0.0815073 0.234606 -0.00544837 -0.202123 0.976315 0.0771742 0 
0.0815049 0.234466 -0.00547205 -0.202123 0.976315 0.0771742 0 
0.0806839 0.234894 -0.00494938 0.0225298 0.996674 -0.0783177 0 
0.0809535 0.234763 -0.00505007 0.0225298 0.996674 -0.0783177 0 
0.0809535 0.234763 -0.00505007 0.0225298 0.996674 -0.0783177 0 
0.0810549 0.235097 -0.00491538 0.00306139 0.999032 -0.0438799 0 
0.0811588 0.234839 -0.005096 0.00933231 0.998557 -0.0528831 0 
0.0808674 0.235178 -0.00453043 -0.00909682 0.999639 -0.0252689 0 
0.0814709 0.234709 -0.00478658 -0.0152218 0.999562 0.0253696 0 
0.0815997 0.235027 -0.00455713 0.000990998 0.999917 0.012883 0 
0.0813616 0.234775 -0.00516559 -0.00102246 0.99894 -0.0460106 0 
0.0815595 0.234433 -0.00528254 -0.202123 0.976315 0.0771742 0 
0.0818716 0.234303 -0.00497312 -0.139754 0.985448 0.0967531 0 
0.0819384 0.234236 -0.00500422 -0.382546 0.893592 0.234845 0 
0.0820793 0.234519 -0.00499537 -0.382546 0.893592 0.234845 0 
0.082216 0.234436 -0.0045216 -0.0245809 0.99713 0.0716053 0 
0.0817527 0.235275 -0.00476887 -0.0152218 0.999562 0.0253696 0 
0.0820793 0.23525 -0.00465637 -0.0152218 0.999562 0.0253696 0 
0.081871 0.235122 -0.00514641 -0.254457 0.959106 0.123966 0 
0.081953 0.235072 -0.00486215 -0.0152218 0.999562 0.0253696 0 
0.0823417 0.234701 -0.0048281 -0.139754 0.985448 0.0967531 0 
0.0821613 0.235201 -0.00437211 0.0134557 0.998824 0.0465773 0 
0.0823126 0.235223 -0.00409526 0.0466365 0.996719 0.0661587 0 
0.0823946 0.235173 -0.003811 0.0633489 0.994688 0.081131 0 
0.0821122 0.235425 -0.00400199 0.0466365 0.996719 0.0661587 0 
0.082035 0.235023 -0.00457789 -0.0240023 0.998704 0.0448739 0 
0.0822506 0.234838 -0.00435581 0.0201024 0.997713 0.0645392 0 
0.0825403 0.235003 -0.00409379 0.0467236 0.996408 0.0706287 0 
0.0825057 0.234602 -0.00425958 0.0201024 0.997713 0.0645392 0 
0.0809885 0.235653 -0.000155449 0.640586 0.75894 -0.116874 0 
0.0808201 0.235142 -0.00262347 0.504511 0.862728 -0.034181 0 
0.0808007 0.234758 -0.00247391 0.563126 0.82637 0.00135693 0 
0.0810357 0.234957 -0.00240139 0.5757 0.817521 -0.0151138 0 
0.0811724 0.234874 -0.00192763 0.657901 0.752885 0.0181586 0 
0.0821432 0.234643 -0.003198 0.327494 0.944548 0.0240246 0 
0.0819702 0.234829 -0.00300997 0.372924 0.927854 0.00381833 0 
0.082128 0.234625 -0.00351335 0.0633489 0.994688 0.081131 0 
0.0821633 0.234208 -0.00317428 0.18211 0.978996 0.0916663 0 
0.0825713 0.23422 -0.0032898 0.185358 0.978349 0.0920654 0 
0.0818172 0.234581 -0.00279822 0.441054 0.896855 -0.0335147 0 
0.0820995 0.234328 -0.00260723 0.607909 0.79323 0.0350987 0 
0.082156 0.234521 -0.00290632 0.4181 0.908287 0.0144172 0 
0.082065 0.234658 -0.00243403 0.655427 0.755196 0.00969977 0 
0.0820151 0.234238 -0.00291517 0.331307 0.943146 0.0266569 0 
0.0821937 0.234244 -0.00254357 0.662386 0.746086 0.067826 0 
0.0822483 0.234211 -0.00235406 0.661251 0.74904 0.0410627 0 
0.08232 0.23369 -0.00267679 0.54274 0.825262 0.156131 0 
0.0822689 0.234908 -0.0035045 0.0896278 0.992713 0.0805515 0 
0.082281 0.234873 -0.0037251 0.0633489 0.994688 0.081131 0 
0.0827534 0.234679 -0.00389539 0.0896278 0.992713 0.0805515 0 
0.081037 0.235515 -0.00103785 0.632837 0.763871 -0.126567 0 
0.081045 0.235114 -0.000793532 0.638063 0.760024 -0.123448 0 
0.0811737 0.235432 -0.000564083 0.62033 0.776517 -0.11051 0 
0.0811938 0.235729 -0.000201371 0.622757 0.773639 -0.116859 0 
0.081597 0.235462 -0.000364244 0.630998 0.76695 -0.116742 0 
0.0817627 0.235589 -0.000284314 0.629214 0.768381 -0.11696 0 
0.0822016 0.234575 -0.00196026 0.664027 0.747552 0.015313 0 
0.082484 0.234322 -0.00176927 0.633232 0.773951 -0.00413877 0 
0.0823303 0.234161 -0.0020698 0.675341 0.737119 0.0238686 0 
0.0824566 0.233608 -0.00220302 0.546557 0.830708 0.105832 0 
0.0825459 0.233976 -0.00184772 0.616789 0.787127 -0.00137369 0 
0.0826352 0.234344 -0.00149243 0.618487 0.784732 -0.0408568 0 
0.0824943 0.234062 -0.00150128 0.618785 0.783795 -0.0526323 0 
0.0827461 0.234261 -0.00396642 0.0896278 0.992713 0.0805515 0 
0.0811799 0.235537 0.000507832 0.620072 0.782573 -0.0555926 0 
0.0813143 0.234827 0.00298334 0.207448 0.976583 0.0570179 0 
0.0814327 0.235405 0.0029448 0.193062 0.979702 0.0539615 0 
0.0814825 0.235093 0.00308695 0.188387 0.980333 0.058796 0 
0.0817569 0.235241 0.00303362 0.18714 0.980995 0.0512549 0 
0.0816403 0.23562 0.00292256 0.206958 0.976695 0.0568831 0 
0.0818158 0.235574 0.0027582 0.253463 0.964671 0.0718774 0 
0.0810954 0.235447 0.000199892 0.651463 0.751462 -0.104411 0 
0.0815727 0.235531 7.6957e-005 0.652905 0.750177 -0.104642 0 
0.0824441 0.234704 0.000208713 0.661236 0.738853 -0.129859 0 
0.0823184 0.234439 0.000515215 0.628223 0.77331 -0.0856009 0 
0.0822018 0.234819 0.000404157 0.619387 0.779699 -0.091815 0 
0.0824198 0.234773 0.000649914 0.613808 0.786307 -0.070437 0 
0.0824004 0.23439 0.000799477 0.613808 0.786307 -0.070437 0 
0.0822274 0.234576 0.000987511 0.582732 0.811913 -0.034936 0 
0.0824295 0.233868 6.66417e-005 0.660739 0.740918 -0.120269 0 
0.0827192 0.234034 0.000328664 0.668956 0.73181 -0.130199 0 
0.0827265 0.234452 0.000399698 0.65347 0.748304 -0.114098 0 
0.0829189 0.234649 6.21006e-005 0.661236 0.738853 -0.129859 0 
0.0832833 0.234347 0.000537351 0.660972 0.74118 -0.117341 0 
0.0823094 0.234526 0.00127177 0.553553 0.832401 -0.0262282 0 
0.0824824 0.23434 0.00108374 0.582732 0.811913 -0.034936 0 
0.082364 0.234493 0.00146128 0.541511 0.84037 -0.0233055 0 
0.0825644 0.23429 0.001368 0.564397 0.82531 -0.017852 0 
0.082446 0.234443 0.00174554 0.503455 0.86402 0.00133543 0 
0.0826464 0.234241 0.00165226 0.515989 0.856352 -0.0204217 0 
0.0828025 0.234541 0.00197647 0.455114 0.890208 -0.0200197 0 
0.0829665 0.234442 0.00254499 0.184875 0.982514 -0.022092 0 
0.0830029 0.234339 0.00188319 0.45907 0.886622 -0.0561847 0 
0.0827461 0.23508 0.00261455 0.242803 0.970016 0.0107647 0 
0.0832257 0.234572 0.00217631 0.363057 0.928408 -0.079042 0 
0.0811601 0.234265 0.00419597 -0.0703185 0.983267 0.168049 0 
0.0812816 0.234164 0.00435438 -0.0899126 0.984243 0.152252 0 
0.0813636 0.234114 0.00463864 -0.107181 0.988187 0.109537 0 
0.0814183 0.234081 0.00482815 -0.152086 0.981869 0.113152 0 
0.0814912 0.234118 0.00586897 -0.42988 0.902878 -0.00391987 0 
0.0817317 0.233777 0.00616212 -0.460442 0.887323 -0.0255055 0 
0.0814953 0.234972 0.00337862 0.122031 0.991078 0.0536026 0 
0.0815226 0.234955 0.00347338 0.122277 0.990783 0.0582814 0 
0.0816046 0.234905 0.00375764 0.0719603 0.995266 0.0653178 0 
0.0815693 0.235322 0.00341856 0.133603 0.990034 0.0445344 0 
0.0818389 0.235191 0.00331788 0.132453 0.990568 0.0350944 0 
0.0817133 0.234926 0.00362438 0.0962345 0.994423 0.0431396 0 
0.0817406 0.23491 0.00371914 0.0759027 0.995536 0.056102 0 
0.0812986 0.234408 0.00418114 -0.0605755 0.990923 0.120008 0 
0.0815336 0.234607 0.00425365 -0.0298396 0.993549 0.109412 0 
0.0816593 0.234872 0.00394715 0.0428912 0.995295 0.0868821 0 
0.0817139 0.234839 0.00413666 0.0160519 0.996291 0.0845402 0 
0.0815439 0.234346 0.00452165 -0.107181 0.988187 0.109537 0 
0.0815713 0.23433 0.0046164 -0.10883 0.988833 0.101809 0 
0.0817516 0.234562 0.00449941 -0.107181 0.988187 0.109537 0 
0.0817789 0.234545 0.00459416 -0.123355 0.988013 0.0928098 0 
0.0818226 0.23486 0.0040034 0.0138038 0.997059 0.0753899 0 
0.0818773 0.234827 0.00419291 0.0160519 0.996291 0.0845402 0 
0.0819593 0.234777 0.00447717 -0.0997411 0.991678 0.0813979 0 
0.0816533 0.23428 0.00490066 -0.195796 0.976516 0.0898936 0 
0.0820139 0.234744 0.00466667 -0.123355 0.988013 0.0928098 0 
0.0818609 0.234495 0.00487842 -0.226077 0.970508 0.083686 0 
0.0817079 0.234247 0.00509017 -0.165129 0.982339 0.0879887 0 
0.0817899 0.234197 0.00537444 -0.277755 0.96052 0.0159067 0 
0.0819156 0.234462 0.00506793 -0.390545 0.917578 0.0743252 0 
0.0821506 0.234661 0.00514045 -0.531391 0.844306 0.0690668 0 
0.0819703 0.234429 0.00525744 -0.527042 0.847483 0.063245 0 
0.0822053 0.234628 0.00532996 -0.548786 0.833759 0.0606627 0 
0.0820686 0.234711 0.00485618 -0.226077 0.970508 0.083686 0 
0.0822763 0.234926 0.00483394 -0.283633 0.956138 0.0731542 0 
0.0824918 0.234741 0.00505602 -0.472119 0.879546 0.0591869 0 
0.08181 0.234494 0.00573714 -0.412244 0.911072 0.0012923 0 
0.0818398 0.234617 0.00585558 -0.425734 0.904847 -0.00130194 0 
0.082045 0.234693 0.00580966 -0.425734 0.904847 -0.00130194 0 
0.0821512 0.234574 0.00565272 -0.420458 0.907304 0.00390518 0 
0.0817535 0.234301 0.00603623 -0.450845 0.89238 -0.0199489 0 
0.0819491 0.23455 0.0062346 -0.472249 0.880162 -0.0479093 0 
0.0822235 0.234698 0.00618126 -0.444722 0.893549 -0.0615769 0 
0.0822873 0.234578 0.00561422 -0.427571 0.90382 0.0171029 0 
0.0824312 0.234913 0.00615902 -0.444722 0.893549 -0.0615769 0 
0.0822751 0.234613 0.00583481 -0.43089 0.902381 -0.00654848 0 
0.0825496 0.23476 0.00578148 -0.43089 0.902381 -0.00654848 0 
0.0825648 0.234778 0.00609684 -0.445899 0.893161 -0.058635 0 
0.0827425 0.234627 0.00359175 0.0962345 0.994423 0.0431396 0 
0.0828481 0.234595 0.00292253 0.167899 0.985692 0.0148482 0 
0.0830485 0.234392 0.00282925 0.171576 0.985139 0.00795383 0 
0.0828664 0.234665 0.00377384 0.0633314 0.997202 0.0397163 0 
0.082847 0.235013 0.0042624 -0.0403568 0.995831 0.0818043 0 
0.0829757 0.234599 0.00415286 -0.0116539 0.996937 0.0773394 0 
0.0828591 0.234979 0.0040418 0.0244838 0.997448 0.0670643 0 
0.0829363 0.23465 0.0042787 -0.0266641 0.997238 0.0693267 0 
0.0829702 0.234407 0.00359323 0.109412 0.993549 0.0298396 0 
0.0828464 0.2351 0.00375012 0.0728046 0.996445 0.0423788 0 
0.0828847 0.234736 0.00462515 -0.131882 0.988535 0.0735274 0 
0.0825441 0.234569 0.00522185 -0.496132 0.867201 0.0426042 0 
0.0829667 0.234686 0.00490941 -0.367006 0.927525 0.0707321 0 
0.083419 0.234195 0.00437641 -0.0731521 0.993743 0.0844062 0 
0.0830487 0.234636 0.00519367 -0.524368 0.851247 0.0204299 0 
0.0802767 0.234726 0.0125522 -0.165396 -0.959294 -0.228907 0 
0.0807412 0.234932 0.0121376 -0.0338083 -0.995708 -0.0861565 0 
0.080457 0.234958 0.0124352 -0.115599 -0.969253 -0.217224 0 
0.0804844 0.234941 0.01253 -0.115378 -0.969936 -0.214273 0 
0.0810728 0.235186 0.0122975 -0.00506296 -0.999429 -0.0334156 0 
0.0801583 0.234879 0.0129298 -0.112969 -0.991614 0.0627604 0 
0.080403 0.234904 0.012758 -0.122459 -0.983306 -0.134583 0 
0.0802774 0.234639 0.0130645 -0.133679 -0.990994 0.00773351 0 
0.0804134 0.234643 0.013026 -0.0741868 -0.991821 0.103862 0 
0.0805536 0.235745 0.0128615 0.00734228 -0.997501 0.0702761 0 
0.0807813 0.235525 0.012863 0.0402027 -0.996375 0.0749726 0 
0.0805664 0.234892 0.0128142 -0.00934954 -0.998323 0.057136 0 
0.0807394 0.234705 0.0126262 -0.0131145 -0.99973 -0.0191674 0 
0.081759 0.233761 0.00625687 -0.457097 0.888422 -0.0420475 0 
0.0817615 0.2339 0.00628055 -0.458147 0.887744 -0.044863 0 
0.0818428 0.234669 0.00639154 -0.479869 0.875864 -0.0508744 0 
0.0820785 0.234781 0.00697633 -0.584522 0.809879 -0.049297 0 
0.0820615 0.234536 0.00714957 -0.590967 0.805352 -0.046544 0 
0.0821841 0.234749 0.00630711 -0.477679 0.876892 -0.0536873 0 
0.0822387 0.234716 0.00649662 -0.480927 0.874539 -0.0623681 0 
0.0824028 0.234617 0.00706514 -0.590967 0.805352 -0.046544 0 
0.0822145 0.234785 0.00693782 -0.584522 0.809879 -0.049297 0 
0.0823918 0.234965 0.00628487 -0.474401 0.878674 -0.053628 0 
0.0824738 0.234915 0.00656913 -0.43743 0.895559 -0.0814145 0 
0.0827136 0.234661 0.00635001 -0.398962 0.914791 -0.0631354 0 
0.0826741 0.234712 0.00647585 -0.393726 0.915987 -0.0771215 0 
0.0825557 0.234865 0.00685339 -0.507409 0.857931 -0.0805635 0 
0.082761 0.234941 0.00680747 -0.492925 0.865796 -0.0861559 0 
0.0819528 0.234516 0.00728283 -0.611218 0.789904 -0.0496349 0 
0.0820348 0.234466 0.00756709 -0.656562 0.75299 -0.0439599 0 
0.0822971 0.234648 0.00773435 -0.647303 0.761944 -0.0209709 0 
0.0821435 0.234487 0.00743383 -0.634373 0.771226 -0.0527456 0 
0.0821708 0.23447 0.00752858 -0.656562 0.75299 -0.0439599 0 
0.0826845 0.235183 0.00708284 -0.619971 0.782446 -0.058434 0 
0.0826305 0.235129 0.00740561 -0.636632 0.769914 -0.0439546 0 
0.0827046 0.235479 0.00744556 -0.634373 0.771226 -0.0527456 0 
0.082319 0.235171 0.00760847 -0.653984 0.755684 -0.0353123 0 
0.0824404 0.235071 0.00776688 -0.650262 0.759338 -0.023773 0 
0.0825242 0.235247 0.00756255 -0.669912 0.742335 -0.0125347 0 
0.0827319 0.235463 0.00754031 -0.650591 0.758315 -0.0411049 0 
0.0826062 0.235198 0.00784681 -0.760803 0.645748 0.0647186 0 
0.0824768 0.234967 0.00710508 -0.617497 0.785002 -0.0496837 0 
0.0823512 0.234702 0.00741158 -0.634373 0.771226 -0.0527456 0 
0.0829347 0.235399 0.00747071 -0.639215 0.768462 -0.0295022 0 
0.0832565 0.235096 0.00753585 -0.631374 0.774804 -0.0323421 0 
0.0820234 0.235145 0.00863896 -0.367925 -0.923232 0.110788 0 
0.0827138 0.235636 0.00905341 -0.418907 -0.906509 0.0525317 0 
0.0820725 0.23492 0.00826883 -0.762149 0.644453 0.0617183 0 
0.0822389 0.23496 0.00886103 -0.285136 -0.956789 0.0570272 0 
0.0826907 0.235287 0.00815475 -0.972859 0.163623 0.163623 0 
0.0826117 0.235389 0.00840644 -0.428099 -0.896903 0.110885 0 
0.0826937 0.23534 0.0086907 -0.489141 -0.865622 0.106955 0 
0.0822912 0.234787 0.00902686 -0.144543 -0.989391 0.0145663 0 
0.0822347 0.234594 0.00932595 -0.216511 -0.976073 -0.020113 0 
0.0822347 0.234594 0.00932595 -0.216511 -0.976073 -0.020113 0 
0.0823774 0.235104 0.0088462 -0.288817 -0.955515 0.0597992 0 
0.0825134 0.235108 0.0088077 -0.362892 -0.929164 0.0704516 0 
0.0824988 0.235003 0.00900462 -0.25477 -0.966663 0.0255989 0 
0.0825681 0.235075 0.00899721 -0.336732 -0.941056 0.0320087 0 
0.0827211 0.235323 0.00878546 -0.478191 -0.873156 0.0945096 0 
0.0824697 0.234793 0.00939846 -0.234266 -0.971904 -0.0228259 0 
0.0826501 0.235025 0.00928147 -0.27358 -0.961787 -0.0109432 0 
0.0827357 0.23616 0.00892753 -0.305906 -0.948959 0.0768019 0 
0.0828924 0.235642 0.00942502 -0.274222 -0.961604 -0.0109689 0 
0.0828802 0.235676 0.00964561 -0.306028 -0.9511 -0.0419043 0 
0.0828194 0.235605 0.0083842 -0.472968 -0.873061 0.118599 0 
0.0829651 0.235435 0.00810141 -0.984392 -0.0011354 0.175987 0 
0.0841857 0.234288 0.00839307 -0.719331 -0.676929 0.155981 0 
0.0813915 0.23483 0.0118266 -0.0389293 -0.998483 -0.0389293 0 
0.0815372 0.23466 0.0115439 -0.107514 -0.992527 -0.0577182 0 
0.0814735 0.23478 0.0121109 -0.0478229 -0.997905 -0.043572 0 
0.0819926 0.234221 0.0115468 -0.164418 -0.982909 -0.0828092 0 
0.0822973 0.234892 0.0100988 -0.244199 -0.968119 -0.0557815 0 
0.0824188 0.234791 0.0102572 -0.272035 -0.957924 -0.0915378 0 
0.0822184 0.234994 0.0103505 -0.244604 -0.96433 -0.101171 0 
0.0829051 0.23552 0.00971669 -0.280835 -0.958366 -0.0516334 0 
0.0821845 0.235237 0.0110359 -0.194942 -0.97716 -0.0845973 0 
0.08257 0.234814 0.010534 -0.244887 -0.965591 -0.0875503 0 
0.081876 0.234601 0.0114358 -0.153635 -0.986316 -0.0598122 0 
0.0819179 0.234689 0.0113336 -0.154975 -0.98545 -0.0697978 0 
0.0822641 0.235048 0.0112965 -0.168959 -0.980934 -0.096027 0 
0.0822683 0.235414 0.0108316 -0.200867 -0.974392 -0.101057 0 
0.0823503 0.235364 0.0111159 -0.201537 -0.975539 -0.0877861 0 
0.0823029 0.235084 0.0106584 -0.209558 -0.972499 -0.101642 0 
0.0825354 0.235143 0.0107072 -0.207048 -0.972499 -0.106661 0 
0.0827085 0.234957 0.0105192 -0.263562 -0.961302 -0.0802146 0 
0.0827929 0.235047 0.0108271 -0.244887 -0.965591 -0.0875503 0 
0.0829161 0.235172 0.010497 -0.28058 -0.957048 -0.0730278 0 
0.0830006 0.235262 0.0108049 -0.239997 -0.966338 -0.0926973 0 
0.0824589 0.235385 0.0109826 -0.224201 -0.970703 -0.0864239 0 
0.0823606 0.235103 0.0113839 -0.168269 -0.981772 -0.0883716 0 
0.0825683 0.235319 0.0113616 -0.199294 -0.976908 -0.0770278 0 
0.0827583 0.235377 0.0110004 -0.248591 -0.965341 -0.0794986 0 
0.0828403 0.235327 0.0112846 -0.219814 -0.972399 -0.078239 0 
0.0828943 0.235381 0.0109618 -0.265435 -0.961407 -0.0723913 0 
0.0832331 0.235322 0.0108537 -0.264746 -0.960503 -0.0856907 0 
0.0831767 0.235128 0.0111528 -0.268368 -0.961336 -0.0617372 0 
0.082831 0.23517 0.00967675 -0.264638 -0.963775 -0.0332336 0 
0.082913 0.23512 0.00996101 -0.282805 -0.957478 -0.0570682 0 
0.0830345 0.235019 0.0101194 -0.296835 -0.950657 -0.0902274 0 
0.0832373 0.234956 0.0100498 -0.296835 -0.950657 -0.0902274 0 
0.0837692 0.234276 0.00977742 -0.366167 -0.928068 -0.0679074 0 
0.0832131 0.235025 0.010491 -0.285991 -0.95544 -0.0731008 0 
0.0833394 0.235203 0.0106968 -0.285564 -0.954896 -0.0814052 0 
0.0834062 0.235135 0.0106657 -0.289705 -0.954096 -0.0759672 0 
0.0833467 0.23489 0.0104288 -0.285991 -0.95544 -0.0731008 0 
0.0835325 0.234582 0.0105325 -0.285991 -0.95544 -0.0731008 0 
0.0832951 0.234975 0.0107753 -0.283579 -0.955956 -0.0757066 0 
0.0835792 0.234217 0.0101387 -0.31908 -0.94411 -0.0827245 0 
0.0835944 0.234235 0.010454 -0.299287 -0.950137 -0.0875642 0 
0.0837947 0.234033 0.0103608 -0.31879 -0.946044 -0.0580791 0 
0.0837176 0.234361 0.0101239 -0.31908 -0.94411 -0.0827245 0 
0.0840225 0.233813 0.0103622 -0.350812 -0.935064 -0.0508612 0 
0.0833024 0.235393 0.0108463 -0.264746 -0.960503 -0.0856907 0 
0.0821456 0.23447 0.0113351 -0.163383 -0.983877 -0.0727473 0 
0.0822276 0.23442 0.0116193 -0.156191 -0.986896 -0.040494 0 
0.0822914 0.235031 0.0113913 -0.162674 -0.984356 -0.0676819 0 
0.0826156 0.234867 0.0114801 -0.18088 -0.982424 -0.0461065 0 
0.0827492 0.234732 0.0114179 -0.180551 -0.981673 -0.0609809 0 
0.0824353 0.234635 0.0115971 -0.156191 -0.986896 -0.040494 0 
0.0825173 0.234586 0.0118814 -0.141106 -0.989964 0.00777749 0 
0.0826284 0.234746 0.0117718 -0.156191 -0.987711 -0.00561838 0 
0.0826557 0.234729 0.0118665 -0.138924 -0.990252 0.0100026 0 
0.0826229 0.235285 0.0115511 -0.192487 -0.981099 -0.019832 0 
0.0828233 0.235083 0.0114579 -0.210224 -0.976642 -0.0444474 0 
0.082643 0.234851 0.0115749 -0.18088 -0.982424 -0.0461065 0 
0.083031 0.235298 0.0114356 -0.259476 -0.964656 -0.045936 0 
0.0830389 0.234898 0.0116799 -0.207235 -0.97829 -0.00115774 0 
0.082725 0.234801 0.0118591 -0.165299 -0.986095 0.0170999 0 
0.0831185 0.234709 0.0119405 -0.210073 -0.977601 0.0129095 0 
0.0826363 0.234345 0.0120161 -0.13944 -0.989685 0.0328761 0 
0.0827402 0.234819 0.0121745 -0.125726 -0.991081 0.0441739 0 
0.082654 0.234503 0.0123551 -0.116712 -0.990321 0.0751119 0 
0.0827948 0.234786 0.012364 -0.118507 -0.99063 0.0678829 0 
0.0827433 0.234871 0.0127104 -0.0982759 -0.992925 0.0666468 0 
0.0826965 0.234504 0.0127652 -0.0986877 -0.992549 0.0714635 0 
0.0827796 0.234768 0.0120486 -0.150583 -0.98841 0.0192474 0 
0.083215 0.234764 0.0120279 -0.256516 -0.964749 0.0588109 0 
0.0828616 0.234718 0.0123329 -0.123322 -0.990034 0.068 0 
0.0832029 0.234798 0.0122485 -0.224118 -0.972003 0.0705786 0 
0.0833535 0.234907 0.012013 -0.259438 -0.963805 0.0614128 0 
0.0834081 0.234874 0.0122025 -0.251054 -0.965107 0.0744331 0 
0.0830821 0.234812 0.0126023 -0.148916 -0.985226 0.0845841 0 
0.0831094 0.234795 0.0126971 -0.143547 -0.985847 0.0866027 0 
0.0831513 0.234884 0.0125949 -0.178928 -0.979842 0.0888552 0 
0.0835593 0.234896 0.0124794 -0.295188 -0.949101 0.109868 0 
0.0834414 0.234718 0.0110048 -0.274499 -0.95883 -0.072774 0 
0.0833103 0.234993 0.0110906 -0.293597 -0.954508 -0.0521103 0 
0.0835234 0.234669 0.011289 -0.291867 -0.955769 -0.0363267 0 
0.0833649 0.23496 0.0112802 -0.293597 -0.954508 -0.0521103 0 
0.083306 0.234627 0.0115556 -0.275834 -0.961168 -0.00850591 0 
0.0834597 0.234789 0.0118561 -0.330552 -0.943158 0.0344591 0 
0.0836054 0.234619 0.0115733 -0.30072 -0.953712 0.00122743 0 
0.0836722 0.234551 0.0115422 -0.308045 -0.951352 -0.00618564 0 
0.0837785 0.234433 0.0113853 -0.276575 -0.959876 -0.0463043 0 
0.0839636 0.234212 0.0109766 -0.328257 -0.944214 -0.0266154 0 
0.0840456 0.234162 0.0112609 -0.315309 -0.948461 -0.0316576 0 
0.0841276 0.234113 0.0115452 -0.323674 -0.945636 -0.0317328 0 
0.0843869 0.234242 0.0111765 -0.354003 -0.933994 -0.0483326 0 
0.0836874 0.234569 0.0118576 -0.314667 -0.949016 0.0188048 0 
0.0838113 0.234608 0.0120397 -0.332808 -0.940997 0.061341 0 
0.0840785 0.234337 0.0119153 -0.333653 -0.942154 0.0319591 0 
0.0832776 0.23433 0.0124617 -0.23941 -0.966505 0.0924704 0 
0.0837051 0.234727 0.0121966 -0.319802 -0.943615 0.0855439 0 
0.0837597 0.234693 0.0123861 -0.314179 -0.942538 0.113639 0 
0.0839054 0.234524 0.0121033 -0.322234 -0.943027 0.0828601 0 
0.0841605 0.234288 0.0121996 -0.389326 -0.91913 0.060205 0 
0.0839874 0.234474 0.0123876 -0.309154 -0.943523 0.119111 0 
0.0842096 0.234063 0.0118294 -0.346286 -0.938121 -0.00377767 0 
0.0843062 0.234118 0.0119168 -0.354028 -0.935193 -0.00888243 0 
0.0845266 0.234212 0.0121862 -0.393289 -0.919393 0.00644735 0 
0.0814192 0.235301 0.0166502 0.474089 0.880452 0.00663991 0 
0.0830263 0.235995 0.0140917 -0.24843 -0.964417 0.0904539 0 
0.0833409 0.236004 0.0144248 -0.349352 -0.932944 0.0870033 0 
0.0815704 0.234592 0.0165881 0.300177 0.953281 0.0339112 0 
0.0814939 0.234833 0.0168635 0.347544 0.926324 -0.145387 0 
0.0819372 0.234429 0.017087 0.227891 0.973059 -0.0349674 0 
0.0818473 0.23561 0.0168974 0.3509 0.920231 -0.173336 0 
0.0819093 0.235264 0.016819 0.308561 0.948923 -0.0658436 0 
0.0818698 0.235315 0.0169448 0.351144 0.926745 -0.133572 0 
0.0820186 0.235198 0.017198 0.299429 0.948411 -0.104206 0 
0.083677 0.234918 0.0178316 -0.295276 -0.954261 0.0468893 0 
0.0837711 0.234833 0.0178952 -0.284486 -0.957137 0.0543684 0 
0.0840486 0.235034 0.0183778 -0.335805 -0.938936 0.0750622 0 
0.0841428 0.234949 0.0184415 -0.401167 -0.912484 0.0802334 0 
0.0842521 0.234883 0.0188205 -0.492803 -0.865582 0.0889587 0 
0.08379 0.234817 0.0192588 -0.474463 -0.873412 0.109711 0 
0.0837973 0.234503 0.0189908 -0.378711 -0.920118 0.0998048 0 
0.0840718 0.234651 0.0189375 -0.497359 -0.86294 0.0892696 0 
0.0840596 0.234686 0.0191581 -0.510486 -0.852727 0.110725 0 
0.0842102 0.234795 0.0189227 -0.497231 -0.862718 0.0920799 0 
0.0844598 0.235099 0.0187983 -0.49066 -0.866786 0.0890824 0 
0.0844871 0.235082 0.018893 -0.497231 -0.862718 0.0920799 0 
0.0828332 0.234421 0.013239 -0.117239 -0.991406 0.0580502 0 
0.0828599 0.235955 0.0134995 -0.153271 -0.984973 0.0796058 0 
0.0832333 0.234834 0.0128792 -0.194515 -0.977469 0.0819655 0 
0.0831987 0.235164 0.0130524 -0.192847 -0.97879 0.0691339 0 
0.083441 0.235049 0.0128569 -0.266491 -0.958068 0.105297 0 
0.0828089 0.235222 0.0140192 -0.180964 -0.980118 0.0813728 0 
0.0829055 0.235277 0.0141065 -0.214948 -0.972856 0.0857306 0 
0.0829875 0.235227 0.0143908 -0.225459 -0.972062 0.0652969 0 
0.0829134 0.234877 0.0143509 -0.230717 -0.970984 0.0629227 0 
0.0831952 0.235443 0.0143686 -0.363823 -0.925227 0.107648 0 
0.0843809 0.234382 0.012469 -0.373696 -0.91976 0.119969 0 
0.0834756 0.235451 0.0130227 -0.254555 -0.963762 0.0797858 0 
0.0837822 0.23513 0.0127725 -0.290656 -0.950879 0.10653 0 
0.0842771 0.23464 0.0126496 -0.383838 -0.914231 0.129807 0 
0.0844775 0.234437 0.0125563 -0.387901 -0.911637 0.135835 0 
0.0831757 0.235059 0.0145181 -0.240741 -0.969137 0.0530865 0 
0.083463 0.235085 0.0147565 -0.232492 -0.972132 0.0301156 0 
0.0836142 0.235107 0.0150333 -0.211359 -0.977391 -0.00583866 0 
0.0833355 0.234594 0.0155516 -0.192634 -0.979921 -0.0514488 0 
0.0833902 0.23456 0.0157411 -0.226604 -0.973063 -0.0424125 0 
0.0834491 0.234893 0.0154657 -0.207439 -0.977241 -0.0443656 0 
0.083627 0.234986 0.015325 -0.16928 -0.983717 -0.0603725 0 
0.0836962 0.235057 0.0153176 -0.168562 -0.984263 -0.0530441 0 
0.0837235 0.235041 0.0154123 -0.169304 -0.983855 -0.0580131 0 
0.0835705 0.234792 0.0156241 -0.212616 -0.975605 -0.0546728 0 
0.0835705 0.234792 0.0156241 -0.212616 -0.975605 -0.0546728 0 
0.0835857 0.23481 0.0159394 -0.238172 -0.970825 -0.0278069 0 
0.0837782 0.235008 0.0156018 -0.179387 -0.981211 -0.0710324 0 
0.083791 0.234886 0.0158935 -0.230212 -0.972674 -0.0301324 0 
0.0838602 0.234958 0.0158861 -0.214853 -0.975843 -0.0396099 0 
0.084117 0.234948 0.0154937 -0.2507 -0.966986 -0.0456941 0 
0.084199 0.234899 0.015778 -0.244407 -0.969117 -0.0328308 0 
0.0844576 0.235116 0.014897 -0.320628 -0.946675 0.0316826 0 
0.0841316 0.235053 0.0152968 -0.250168 -0.967722 -0.0305083 0 
0.0846732 0.234931 0.0151191 -0.309558 -0.950873 0.0036999 0 
0.084414 0.234801 0.0154878 -0.268904 -0.961801 -0.0512794 0 
0.084777 0.234673 0.0149385 -0.335857 -0.941667 0.0215455 0 
0.0847206 0.234479 0.0152376 -0.277027 -0.960277 -0.0335414 0 
0.0849483 0.23426 0.0152391 -0.267397 -0.963363 -0.0207569 0 
0.0848026 0.23443 0.0155218 -0.248403 -0.967914 -0.0379334 0 
0.0834054 0.234578 0.0160564 -0.23763 -0.971025 -0.0253311 0 
0.0836799 0.234726 0.0160031 -0.23763 -0.971025 -0.0253311 0 
0.0840758 0.234773 0.0161082 -0.205602 -0.977512 -0.0468917 0 
0.0841578 0.234723 0.0163924 -0.222048 -0.974873 -0.0178113 0 
0.0841851 0.234707 0.0164872 -0.218783 -0.975653 -0.0153739 0 
0.0842446 0.234952 0.0167241 -0.237733 -0.971242 -0.013141 0 
0.084281 0.234849 0.0160623 -0.251291 -0.967165 -0.0380002 0 
0.084363 0.234799 0.0163465 -0.244468 -0.969441 -0.0204727 0 
0.0843904 0.234783 0.0164413 -0.241095 -0.970376 -0.0155932 0 
0.0834049 0.234178 0.0175696 -0.240535 -0.970516 0.015557 0 
0.0835306 0.234443 0.0172631 -0.263727 -0.964591 0.0036127 0 
0.0835185 0.234477 0.0174837 -0.269248 -0.962656 0.0282772 0 
0.0837801 0.234747 0.0171387 -0.247877 -0.968755 0.00838231 0 
0.0842398 0.234674 0.0166767 -0.250698 -0.968005 -0.0107956 0 
0.084119 0.234687 0.0170306 -0.268202 -0.963362 -0.0012027 0 
0.0841882 0.234759 0.0170231 -0.265967 -0.963981 0.00120347 0 
0.0838621 0.234697 0.0174229 -0.270935 -0.962372 0.0208412 0 
0.0837261 0.234693 0.0174614 -0.268647 -0.962957 0.0233072 0 
0.0838895 0.23468 0.0175177 -0.274483 -0.961307 0.0233865 0 
0.0839459 0.234874 0.0172186 -0.265563 -0.964032 0.0109136 0 
0.0840279 0.234824 0.0175029 -0.272816 -0.961647 0.0283927 0 
0.0842034 0.234777 0.0173385 -0.357349 -0.933717 0.0217739 0 
0.0842307 0.23476 0.0174333 -0.382679 -0.923393 0.0300397 0 
0.0845676 0.234962 0.0157883 -0.298307 -0.954334 -0.0160912 0 
0.0846496 0.234913 0.0160726 -0.288787 -0.957298 -0.0135177 0 
0.084496 0.234751 0.0157721 -0.298307 -0.954334 -0.0160912 0 
0.084578 0.234701 0.0160563 -0.288787 -0.957298 -0.0135177 0 
0.084932 0.23466 0.0162636 -0.283876 -0.958842 0.00609175 0 
0.0844474 0.234889 0.0166545 -0.246752 -0.968952 -0.0156477 0 
0.0843959 0.234975 0.0170009 -0.297786 -0.954632 -0.00122546 0 
0.0846035 0.23519 0.0169787 -0.256844 -0.966452 0.00119463 0 
0.0846114 0.23479 0.017223 -0.401391 -0.915795 0.014289 0 
0.0845052 0.234908 0.0173799 -0.347481 -0.9373 0.0269266 0 
0.0846751 0.23467 0.0166559 -0.40913 -0.912475 0.00129063 0 
0.0850832 0.234682 0.0165404 -0.41947 -0.907768 0.00129867 0 
0.0849375 0.234852 0.0168232 -0.410095 -0.912042 0.00129368 0 
0.0847571 0.23462 0.0169402 -0.461426 -0.887154 0.00661069 0 
0.0848167 0.234866 0.0171771 -0.47221 -0.881189 0.0228706 0 
0.0848392 0.23457 0.0172245 -0.47221 -0.881189 0.0228706 0 
0.0852472 0.234583 0.0171089 -0.465751 -0.884794 0.0146798 0 
0.0850195 0.234802 0.0171075 -0.465751 -0.884794 0.0146798 0 
0.0851652 0.234632 0.0168247 -0.465682 -0.884928 0.00663364 0 
0.0852247 0.234878 0.0170615 -0.46467 -0.885403 0.0119829 0 
0.0848967 0.234345 0.0155855 -0.253031 -0.966895 -0.033004 0 
0.0848846 0.23438 0.0158061 -0.263445 -0.964331 -0.0257318 0 
0.0849787 0.234296 0.0158698 -0.24504 -0.969296 -0.0205206 0 
0.0851517 0.234109 0.0156817 -0.222553 -0.974711 -0.0202321 0 
0.0851323 0.234457 0.0161703 -0.347102 -0.937806 -0.00631094 0 
0.0853327 0.234254 0.016077 -0.423012 -0.905696 -0.0278472 0 
0.0853382 0.234446 0.0166367 -0.477257 -0.878738 0.00664704 0 
0.0856206 0.234194 0.0168276 -0.477257 -0.878738 0.00664704 0 
0.0856255 0.234472 0.016875 -0.477394 -0.878566 0.0147096 0 
0.0838822 0.234994 0.0177856 -0.286846 -0.956575 0.0518092 0 
0.0840826 0.234791 0.0176924 -0.34299 -0.938368 0.0427119 0 
0.0842065 0.234829 0.0178745 -0.39579 -0.916354 0.0603747 0 
0.0843176 0.23499 0.0177649 -0.361929 -0.930486 0.0565925 0 
0.0843401 0.234694 0.0178123 -0.398112 -0.915524 0.0576391 0 
0.0839642 0.234944 0.0180699 -0.32649 -0.943049 0.0637371 0 
0.0843723 0.234956 0.0179544 -0.379663 -0.923181 0.0599468 0 
0.084249 0.234831 0.0182846 -0.435095 -0.896434 0.0842565 0 
0.084691 0.2346 0.0174836 -0.479767 -0.876628 0.0366961 0 
0.0848003 0.234534 0.0178626 -0.504004 -0.861414 0.0628259 0 
0.0841428 0.234949 0.0184415 -0.401167 -0.912484 0.0802334 0 
0.0841974 0.234916 0.018631 -0.446159 -0.890929 0.0847842 0 
0.084504 0.234595 0.0183808 -0.522898 -0.848824 0.0779388 0 
0.0842102 0.234795 0.0189227 -0.497231 -0.862718 0.0920799 0 
0.084413 0.234731 0.0188531 -0.548605 -0.830827 0.093594 0 
0.0843341 0.234833 0.0191048 -0.499401 -0.860791 0.0981728 0 
0.0846134 0.234528 0.0187598 -0.545103 -0.834108 0.0844123 0 
0.0848733 0.234571 0.0189034 -0.548605 -0.830827 0.093594 0 
0.0848823 0.234484 0.0181468 -0.520504 -0.85058 0.0747608 0 
0.0849917 0.234418 0.0185259 -0.542762 -0.836224 0.0783515 0 
0.0851252 0.234283 0.0184637 -0.543594 -0.835971 0.0752232 0 
0.0850141 0.234123 0.0185733 -0.542762 -0.836224 0.0783515 0 
0.0853073 0.23401 0.0175191 -0.481844 -0.875957 0.0229449 0 
0.0854014 0.233926 0.0175828 -0.50341 -0.863573 0.0286493 0 
0.0854325 0.232411 0.0180478 -0.781203 -0.621249 -0.0614108 0 
0.0853214 0.232983 0.0184963 -0.510462 -0.858188 0.0542453 0 
0.0860707 0.233075 0.0182964 -0.687475 -0.726206 -0.00138325 0 
0.0845872 0.234859 0.0176642 -0.460247 -0.886352 0.0505316 0 
0.0847949 0.235074 0.0176419 -0.436358 -0.898384 0.0499853 0 
0.0843231 0.235181 0.0183245 -0.413458 -0.907425 0.0750502 0 
0.0846419 0.234825 0.0178537 -0.494115 -0.867137 0.0626343 0 
0.0848574 0.23464 0.0180758 -0.522664 -0.849506 0.0718487 0 
0.0848987 0.234816 0.0174613 -0.479767 -0.876628 0.0366961 0 
0.0847876 0.234656 0.0175709 -0.477631 -0.877254 0.0479 0 
0.0849212 0.23452 0.0175087 -0.479767 -0.876628 0.0366961 0 
0.08526 0.234461 0.0174006 -0.471132 -0.881516 0.0310488 0 
0.0849679 0.234888 0.0174539 -0.479767 -0.876628 0.0366961 0 
0.0853686 0.234482 0.0172674 -0.463614 -0.88581 0.020041 0 
0.0855071 0.234625 0.0172525 -0.476427 -0.879041 0.0174466 0 
0.0850031 0.234471 0.017793 -0.497353 -0.865864 0.0540299 0 
0.0852035 0.234268 0.0176997 -0.488581 -0.871188 0.0481699 0 
0.0843504 0.235165 0.0184193 -0.439849 -0.894864 0.075836 0 
0.0850851 0.234421 0.0180773 -0.515942 -0.85431 0.0629197 0 
0.0852855 0.234218 0.017984 -0.502705 -0.862769 0.0540096 0 
0.0851429 0.23444 0.0188027 -0.542816 -0.834991 0.0902306 0 
0.0852765 0.234305 0.0187405 -0.540497 -0.837128 0.0841407 0 
0.0862783 0.233291 0.0182741 -0.69733 -0.716738 0.00415902 0 
0.0838866 0.234872 0.0193461 -0.502288 -0.855481 0.125934 0 
0.0840427 0.235173 0.0196704 -0.490805 -0.85633 0.160654 0 
0.0840918 0.234948 0.0193002 -0.492311 -0.86262 0.11626 0 
0.0843074 0.234763 0.0195223 -0.505462 -0.852148 0.13547 0 
0.0843766 0.234835 0.0195149 -0.505462 -0.852148 0.13547 0 
0.0840579 0.235191 0.0199857 -0.531774 -0.827037 0.18228 0 
0.0841125 0.235158 0.0201752 -0.581982 -0.789724 0.193994 0 
0.0842977 0.234937 0.0197666 -0.556054 -0.812231 0.17631 0 
0.0844981 0.234734 0.0196733 -0.541902 -0.826957 0.149951 0 
0.0844635 0.235064 0.0198465 -0.568709 -0.804037 0.173479 0 
0.0841447 0.23542 0.0203173 -0.585814 -0.778496 0.225313 0 
0.0842267 0.23537 0.0206016 -0.593776 -0.766112 0.245971 0 
0.084118 0.234618 0.0203959 -0.58033 -0.786602 0.210889 0 
0.0843707 0.234974 0.0208074 -0.593776 -0.766112 0.245971 0 
0.0843323 0.235339 0.0199324 -0.546759 -0.81788 0.179241 0 
0.0847331 0.234933 0.0197458 -0.558883 -0.813601 0.160323 0 
0.0843476 0.235356 0.0202477 -0.582766 -0.78372 0.214866 0 
0.0845479 0.235154 0.0201544 -0.592063 -0.777566 0.211782 0 
0.0844022 0.235323 0.0204372 -0.586818 -0.776717 0.228812 0 
0.0846074 0.235399 0.0203913 -0.586398 -0.77616 0.231759 0 
0.0850228 0.235098 0.0200078 -0.603839 -0.772853 0.195134 0 
0.084551 0.235206 0.0206904 -0.592805 -0.767988 0.24244 0 
0.0846894 0.235349 0.0206756 -0.59077 -0.769412 0.24289 0 
0.0845115 0.235257 0.0208162 -0.593252 -0.768567 0.239492 0 
0.0845783 0.235189 0.0207852 -0.593776 -0.766112 0.245971 0 
0.0851867 0.234999 0.0205764 -0.575449 -0.7813 0.24172 0 
0.0842239 0.235562 0.02243 -0.652701 -0.749943 0.107556 0 
0.0844454 0.235238 0.0213596 -0.58285 -0.776613 0.239078 0 
0.0844727 0.235221 0.0214544 -0.571927 -0.788918 0.224741 0 
0.0844253 0.234941 0.0209969 -0.595718 -0.76771 0.236098 0 
0.0841291 0.235733 0.0218541 -0.568504 -0.801969 0.183437 0 
0.0841121 0.23622 0.0223663 -0.592485 -0.792468 0.144763 0 
0.0841491 0.23603 0.0222168 -0.60591 -0.780315 0.15486 0 
0.0844461 0.235882 0.0222109 -0.629367 -0.766251 0.129444 0 
0.0839865 0.235955 0.0226728 -0.641449 -0.761264 0.0949754 0 
0.08412 0.23582 0.0226107 -0.652905 -0.750177 0.104642 0 
0.0845281 0.235832 0.0224951 -0.662672 -0.742016 0.101384 0 
0.0846392 0.235992 0.0223856 -0.645208 -0.754968 0.117176 0 
0.0847212 0.235943 0.0226698 -0.675687 -0.731383 0.0923389 0 
0.0843343 0.235809 0.0218082 -0.576431 -0.795444 0.187074 0 
0.0845966 0.23526 0.0216365 -0.576215 -0.791335 0.204364 0 
0.0846603 0.23514 0.0210694 -0.578388 -0.781057 0.235408 0 
0.0851722 0.234894 0.0207733 -0.600149 -0.763114 0.239746 0 
0.0846756 0.235158 0.0213848 -0.587816 -0.774919 0.23232 0 
0.0848686 0.235268 0.0215595 -0.578262 -0.789934 0.204002 0 
0.0852815 0.234828 0.0211523 -0.580861 -0.775003 0.24894 0 
0.085205 0.235069 0.0214277 -0.597145 -0.77086 0.221797 0 
0.0853362 0.234795 0.0213418 -0.598167 -0.76684 0.232707 0 
0.0842779 0.235616 0.0221073 -0.612544 -0.775087 0.155017 0 
0.0844163 0.235759 0.0220925 -0.618279 -0.77172 0.148928 0 
0.0846167 0.235556 0.0219992 -0.624567 -0.766036 0.152003 0 
0.0846464 0.235679 0.0221176 -0.633186 -0.761919 0.136217 0 
0.0845602 0.235363 0.0222983 -0.650814 -0.749107 0.12361 0 
0.0847606 0.23516 0.022205 -0.651775 -0.74723 0.129758 0 
0.0849064 0.235722 0.0222612 -0.654465 -0.746476 0.120208 0 
0.0849884 0.235672 0.0225455 -0.67264 -0.734188 0.0923231 0 
0.084788 0.235875 0.0226387 -0.67264 -0.734188 0.0923231 0 
0.0849956 0.235359 0.0222775 -0.662194 -0.739574 0.120534 0 
0.084896 0.235251 0.0216542 -0.599375 -0.777195 0.191616 0 
0.085287 0.23502 0.0217119 -0.642327 -0.746076 0.175458 0 
0.0854182 0.234745 0.0216261 -0.648221 -0.737525 0.189385 0 
0.085114 0.235206 0.0219 -0.651951 -0.74271 0.152777 0 
0.085369 0.23497 0.0219962 -0.651951 -0.74271 0.152777 0 
0.0855002 0.234695 0.0219103 -0.661805 -0.731789 0.162789 0 
0.0856514 0.234717 0.0221872 -0.671942 -0.731275 0.117182 0 
0.0853344 0.2353 0.0221694 -0.66149 -0.739136 0.126922 0 
0.085196 0.235888 0.0225232 -0.670845 -0.735434 0.0954156 0 
0.0841328 0.235698 0.0229023 -0.673191 -0.736618 0.0648685 0 
0.0840279 0.235643 0.0240838 -0.471701 -0.877615 -0.085382 0 
0.0842452 0.235684 0.0238173 -0.569323 -0.821112 -0.040566 0 
0.0843515 0.235566 0.0236604 -0.601894 -0.798374 -0.0179876 0 
0.0843746 0.235183 0.02422 -0.520372 -0.851391 -0.0659232 0 
0.0844438 0.235255 0.0242126 -0.52366 -0.849368 -0.065984 0 
0.0847158 0.235263 0.0241356 -0.54919 -0.834265 -0.04891 0 
0.084202 0.23577 0.0228949 -0.673191 -0.736618 0.0648685 0 
0.0843235 0.235669 0.0230533 -0.672152 -0.738078 0.0587596 0 
0.0844765 0.235918 0.0228416 -0.670052 -0.739218 0.0677257 0 
0.0846149 0.236061 0.0228268 -0.670052 -0.739218 0.0677257 0 
0.0845312 0.235885 0.0230311 -0.673576 -0.736769 0.058884 0 
0.0842051 0.235822 0.0234309 -0.624176 -0.781253 -0.00688936 0 
0.0844055 0.23562 0.0233376 -0.64993 -0.759422 0.0294785 0 
0.0845664 0.235468 0.0233702 -0.661891 -0.749019 0.0295111 0 
0.0847741 0.235683 0.0233479 -0.643581 -0.764692 0.0323903 0 
0.0846131 0.235835 0.0233154 -0.651261 -0.758164 0.0323521 0 
0.0846969 0.236012 0.023111 -0.653142 -0.755596 0.0498039 0 
0.0849125 0.235827 0.0233331 -0.646613 -0.76213 0.0324011 0 
0.0849562 0.236142 0.0227423 -0.67565 -0.733521 0.0737861 0 
0.0848797 0.236383 0.0230177 -0.653542 -0.755613 0.0439475 0 
0.0850849 0.236459 0.0229718 -0.65524 -0.754305 0.041041 0 
0.0845148 0.235553 0.0237166 -0.598314 -0.800991 -0.020823 0 
0.0843965 0.235706 0.0240942 -0.527042 -0.847483 -0.063245 0 
0.0847304 0.235368 0.0239387 -0.585783 -0.810126 -0.0235421 0 
0.0851524 0.235573 0.023114 -0.676807 -0.734042 0.0558044 0 
0.0853801 0.235353 0.0231155 -0.682732 -0.728534 0.0558208 0 
0.0854784 0.234904 0.0223752 -0.678209 -0.728229 0.0985683 0 
0.0856715 0.235014 0.0225499 -0.683779 -0.724601 0.0860191 0 
0.08536 0.235057 0.0227527 -0.685495 -0.723336 0.082958 0 
0.0855804 0.235151 0.0230222 -0.682163 -0.728314 0.0648993 0 
0.0850922 0.236146 0.0227038 -0.67565 -0.733521 0.0737861 0 
0.085493 0.23574 0.0225173 -0.67793 -0.730415 0.0831011 0 
0.0852306 0.236289 0.022689 -0.676648 -0.731944 0.0800336 0 
0.0856314 0.235884 0.0225025 -0.674419 -0.732936 0.0892398 0 
0.0855573 0.235533 0.0224625 -0.678723 -0.728564 0.0923532 0 
0.0856241 0.235465 0.0224314 -0.675161 -0.731057 0.098553 0 
0.0857085 0.235555 0.0227394 -0.684766 -0.725302 0.0709377 0 
0.0848882 0.235164 0.0234353 -0.661646 -0.749114 0.0324475 0 
0.0848536 0.235494 0.0236085 -0.62151 -0.783405 -0.00137199 0 
0.085034 0.235726 0.0234915 -0.624527 -0.781002 0.00137259 0 
0.0849775 0.235533 0.0237906 -0.603682 -0.797081 -0.0151956 0 
0.0853236 0.23516 0.0234145 -0.667598 -0.743814 0.0324625 0 
0.0849356 0.235444 0.0238928 -0.585783 -0.810126 -0.0235421 0 
0.0849903 0.235411 0.0240823 -0.575076 -0.817359 -0.0348109 0 
0.0850595 0.235483 0.0240749 -0.573149 -0.818586 -0.0376521 0 
0.0852599 0.23528 0.0239816 -0.582042 -0.812636 -0.0291715 0 
0.0856624 0.235101 0.0233064 -0.67183 -0.73972 0.0381882 0 
0.0857444 0.235051 0.0235907 -0.644897 -0.764168 0.0124819 0 
0.0846642 0.235349 0.0244821 -0.482892 -0.871459 -0.0858788 0 
0.0849102 0.2352 0.0253349 -0.487412 -0.871849 -0.0480547 0 
0.0850438 0.235065 0.0252727 -0.478715 -0.876502 -0.0507521 0 
0.0847797 0.234656 0.025594 -0.443339 -0.895997 -0.0252956 0 
0.0846734 0.234775 0.0257509 -0.450893 -0.89253 -0.00925587 0 
0.0849255 0.235218 0.0256502 -0.459354 -0.888085 -0.017309 0 
0.0848646 0.235146 0.0243888 -0.528103 -0.846372 -0.0690054 0 
0.0847389 0.234881 0.0246953 -0.473559 -0.875025 -0.100366 0 
0.0848209 0.234831 0.0249796 -0.436625 -0.894175 -0.0990428 0 
0.0849175 0.234887 0.0250669 -0.475296 -0.876719 -0.073873 0 
0.0847608 0.235404 0.0245694 -0.454519 -0.885116 -0.0999098 0 
0.0848428 0.235354 0.0248537 -0.426209 -0.898533 -0.104806 0 
0.0850311 0.235186 0.024981 -0.435203 -0.894194 -0.104952 0 
0.0852387 0.235401 0.0249587 -0.440632 -0.891119 -0.108398 0 
0.0850615 0.235222 0.0256117 -0.458286 -0.888514 -0.0227139 0 
0.0854027 0.235302 0.0255273 -0.459377 -0.88795 -0.0227679 0 
0.0850888 0.235205 0.0257064 -0.456172 -0.889867 -0.00661119 0 
0.0852965 0.235421 0.0256842 -0.466754 -0.884306 -0.0119681 0 
0.0850723 0.235361 0.0243665 -0.530326 -0.845427 -0.0633015 0 
0.0852952 0.234863 0.0243207 -0.548786 -0.833759 -0.0606627 0 
0.0852204 0.235331 0.0241074 -0.571272 -0.819894 -0.0377123 0 
0.0853419 0.23523 0.0242659 -0.552803 -0.831314 -0.0576715 0 
0.0854876 0.235061 0.0239831 -0.601387 -0.798609 -0.023611 0 
0.0855696 0.235011 0.0242673 -0.575013 -0.816828 -0.0463947 0 
0.0851494 0.235033 0.0246034 -0.482774 -0.871244 -0.0886727 0 
0.0850978 0.235119 0.0249499 -0.423663 -0.89906 -0.11046 0 
0.0851816 0.235295 0.0247456 -0.438689 -0.892795 -0.102314 0 
0.0854166 0.234763 0.0244791 -0.530524 -0.844594 -0.0721512 0 
0.0854239 0.235181 0.0245501 -0.506181 -0.858674 -0.0803685 0 
0.0855059 0.235131 0.0248344 -0.46112 -0.881346 -0.102941 0 
0.0856516 0.234961 0.0245516 -0.533712 -0.842331 -0.0750312 0 
0.0858264 0.235001 0.023875 -0.605831 -0.795241 -0.0236762 0 
0.08577 0.234808 0.0241741 -0.571731 -0.818966 -0.0491661 0 
0.0858174 0.234357 0.0242925 -0.574202 -0.816863 -0.0550218 0 
0.085852 0.234758 0.0244583 -0.550283 -0.831823 -0.0725179 0 
0.0853183 0.235212 0.0252193 -0.481921 -0.873568 -0.0680522 0 
0.0857336 0.234912 0.0248359 -0.496041 -0.862743 -0.0980712 0 
0.0855606 0.235098 0.0250239 -0.446267 -0.88831 -0.108399 0 
0.0854148 0.235268 0.0253067 -0.486415 -0.872239 -0.050984 0 
0.0856353 0.235361 0.0255761 -0.462562 -0.886466 -0.0146633 0 
0.0856699 0.235032 0.0254029 -0.440033 -0.897454 -0.0307622 0 
0.0858156 0.234862 0.0251201 -0.42761 -0.902431 -0.0526081 0 
0.0858976 0.234812 0.0254044 -0.435935 -0.899696 -0.0225255 0 
0.0858253 0.234688 0.0248758 -0.482774 -0.871244 -0.0886727 0 
0.085934 0.234709 0.0247426 -0.505158 -0.858056 -0.0924936 0 
0.086016 0.234659 0.0250268 -0.429926 -0.901631 -0.0471705 0 
0.0860287 0.234538 0.0253185 -0.410889 -0.91087 -0.0385624 0 
