0.0716767 0.225524 0.0148079 0.398289 -0.679241 0.61644 0 
0.0719501 0.225292 0.0146314 0.391286 -0.698371 0.599311 0 
0.0717162 0.22553 0.0155416 0.491609 -0.659393 0.56879 0 
0.0716128 0.225699 0.0149326 0.420303 -0.66285 0.619657 0 
0.0717585 0.225815 0.0150056 0.438624 -0.642092 0.62875 0 
0.0718179 0.225524 0.0148003 0.420239 -0.66607 0.616239 0 
0.0721687 0.225466 0.0147409 0.355037 -0.66917 0.652809 0 
0.0720364 0.225698 0.0149098 0.446829 -0.634263 0.630916 0 
0.0721596 0.22506 0.014581 0.358002 -0.720909 0.593401 0 
0.0722281 0.225176 0.0145355 0.349941 -0.724296 0.594085 0 
0.0724379 0.225464 0.0144811 0.319031 -0.710938 0.626727 0 
0.0719716 0.228789 0.0188963 -0.241268 0.70488 -0.667034 0 
0.0713206 0.227786 0.0160362 0.482052 -0.660092 0.576111 0 
0.0716716 0.228074 0.0159743 0.392232 -0.65703 0.64379 0 
0.0724721 0.22827 0.018996 -0.383772 0.746315 -0.543814 0 
0.0724083 0.228617 0.0191194 -0.420164 0.612809 -0.669274 0 
0.0730416 0.228559 0.0190448 -0.471424 0.701305 -0.534725 0 
0.0721684 0.229249 0.018596 -0.430319 0.586496 -0.686184 0 
0.0723822 0.22896 0.0186275 -0.423565 0.676043 -0.602958 0 
0.0723867 0.229076 0.0187082 -0.413039 0.622046 -0.665175 0 
0.0726736 0.229192 0.0187736 -0.442166 0.649067 -0.619033 0 
0.0741878 0.229704 0.0179521 0.426478 -0.69199 0.582466 0 
0.074329 0.229704 0.0179445 0.434704 -0.687864 0.58127 0 
0.0746118 0.230223 0.0179252 0.40305 -0.665116 0.628626 0 
0.074753 0.230223 0.0179176 0.351418 -0.655436 0.668512 0 
0.0750444 0.230455 0.0180637 0.268271 -0.630198 0.728616 0 
0.0750069 0.230633 0.0186776 0.293612 -0.620917 0.72681 0 
0.075075 0.230228 0.0186362 0.377633 -0.64478 0.664569 0 
0.0751304 0.230341 0.0183461 0.261836 -0.633168 0.728382 0 
0.0752077 0.230516 0.0184633 0.257704 -0.611849 0.747816 0 
0.0751216 0.230456 0.0181822 0.261148 -0.628338 0.732798 0 
0.0750314 0.230626 0.0178178 0.27184 -0.631114 0.726497 0 
0.0751042 0.230684 0.0178542 0.261148 -0.628338 0.732798 0 
0.0717562 0.226055 0.0162714 0.563093 -0.680055 0.469522 0 
0.0709562 0.227323 0.015855 0.545435 -0.66627 0.508513 0 
0.0715799 0.226166 0.0156259 0.518723 -0.66645 0.53551 0 
0.0714389 0.226513 0.0156308 0.515784 -0.673712 0.529225 0 
0.0715668 0.226337 0.01538 0.46814 -0.652711 0.595662 0 
0.0716245 0.227154 0.0164336 0.528831 -0.666495 0.525473 0 
0.071693 0.227269 0.0163881 0.501653 -0.666075 0.551986 0 
0.0719116 0.227443 0.0164977 0.48707 -0.67788 0.550673 0 
0.0720614 0.227155 0.0166553 0.480838 -0.681886 0.551205 0 
0.0718985 0.227614 0.0162517 0.395006 -0.639612 0.659445 0 
0.0723785 0.225754 0.0146865 0.387616 -0.631732 0.671318 0 
0.0714215 0.226741 0.0153029 0.473828 -0.664699 0.577635 0 
0.0716905 0.226392 0.0150457 0.45299 -0.64689 0.613459 0 
0.0722419 0.226043 0.0147734 0.383754 -0.620924 0.68351 0 
0.072447 0.225869 0.014641 0.384539 -0.618894 0.684909 0 
0.072194 0.227442 0.0164824 0.469135 -0.686172 0.55595 0 
0.0724722 0.227672 0.0163839 0.468827 -0.702406 0.535563 0 
0.0726864 0.227903 0.0164115 0.464955 -0.729698 0.501357 0 
0.0730768 0.227851 0.0170858 0.457949 -0.759966 0.461232 0 
0.0732225 0.227967 0.0171589 0.434773 -0.753059 0.493836 0 
0.0729225 0.228022 0.0168476 0.448463 -0.757295 0.474747 0 
0.0729093 0.22802 0.016603 0.470038 -0.764835 0.440558 0 
0.0729049 0.228077 0.016521 0.47308 -0.761184 0.443615 0 
0.0729778 0.228135 0.0165575 0.472584 -0.763656 0.439879 0 
0.0731366 0.22808 0.0168765 0.436142 -0.766108 0.472079 0 
0.0731366 0.22808 0.0168765 0.436142 -0.766108 0.472079 0 
0.0732868 0.228312 0.0170301 0.432452 -0.744869 0.50809 0 
0.0731235 0.228251 0.0166305 0.455598 -0.772394 0.442535 0 
0.0733464 0.228368 0.016822 0.435495 -0.747738 0.501231 0 
0.073342 0.228425 0.0167401 0.445539 -0.754621 0.481708 0 
0.0733199 0.228191 0.0163342 0.417513 -0.754798 0.505928 0 
0.0735384 0.228365 0.0164437 0.428718 -0.747382 0.507563 0 
0.0731434 0.227955 0.0156914 0.393944 -0.700528 0.595037 0 
0.0731698 0.228132 0.0161792 0.422623 -0.748223 0.511423 0 
0.0734986 0.228013 0.0157127 0.393713 -0.719885 0.571625 0 
0.0735935 0.228132 0.0161564 0.39983 -0.758861 0.514067 0 
0.0736352 0.227723 0.0156258 0.380188 -0.706063 0.597438 0 
0.0738625 0.227783 0.0158992 0.401045 -0.748072 0.528725 0 
0.0741405 0.227667 0.0158033 0.415964 -0.738212 0.531052 0 
0.074081 0.227957 0.0160088 0.42569 -0.751122 0.504583 0 
0.0733727 0.228199 0.0173126 0.436567 -0.746283 0.502464 0 
0.0734279 0.228312 0.0170225 0.436567 -0.746283 0.502464 0 
0.0736973 0.228483 0.0167614 0.448463 -0.757295 0.474747 0 
0.0739159 0.228657 0.0168709 0.454142 -0.734885 0.503685 0 
0.0739887 0.228715 0.0169074 0.453791 -0.737617 0.499995 0 
0.073989 0.229061 0.0169047 0.443644 -0.737207 0.509613 0 
0.073757 0.228539 0.0165533 0.422623 -0.748223 0.511423 0 
0.0739755 0.228713 0.0166628 0.430427 -0.740466 0.516182 0 
0.0740484 0.228771 0.0166993 0.436838 -0.736855 0.515963 0 
0.074346 0.228956 0.0182764 0.452909 -0.715033 0.532542 0 
0.0741145 0.228953 0.0179209 0.427687 -0.724921 0.539975 0 
0.0741918 0.229127 0.0180381 0.4363 -0.705048 0.559061 0 
0.0740242 0.229124 0.0175565 0.442819 -0.721447 0.532378 0 
0.0741344 0.228831 0.0169804 0.433729 -0.733877 0.522784 0 
0.0742206 0.229064 0.0172602 0.423964 -0.727502 0.53944 0 
0.0742162 0.229121 0.0171782 0.427687 -0.724921 0.539975 0 
0.0742427 0.229298 0.017666 0.429674 -0.711699 0.555756 0 
0.0741787 0.229299 0.0177921 0.429674 -0.711699 0.555756 0 
0.0743155 0.229356 0.0177026 0.429892 -0.70874 0.559357 0 
0.0740883 0.229296 0.0174291 0.431663 -0.719439 0.544127 0 
0.0743068 0.22947 0.0175386 0.433608 -0.706067 0.559869 0 
0.0743664 0.229353 0.0173319 0.358762 -0.702781 0.614319 0 
0.0744392 0.229411 0.0173684 0.34389 -0.692669 0.633995 0 
0.073735 0.228478 0.0161461 0.389153 -0.733972 0.556637 0 
0.0739535 0.228652 0.0162557 0.406839 -0.732969 0.545197 0 
0.0738121 0.228306 0.0162659 0.389153 -0.733972 0.556637 0 
0.0740306 0.228479 0.0163754 0.406839 -0.732969 0.545197 0 
0.0743771 0.228651 0.0162328 0.406808 -0.723031 0.558331 0 
0.0741214 0.229002 0.0167345 0.433423 -0.736655 0.519119 0 
0.0742031 0.229292 0.0169323 0.396822 -0.726136 0.561479 0 
0.0741901 0.229463 0.0166864 0.435639 -0.723856 0.535024 0 
0.0745585 0.22935 0.0169536 0.314908 -0.705718 0.634661 0 
0.0744946 0.229524 0.0170783 0.373176 -0.701966 0.606617 0 
0.0743993 0.228885 0.0166387 0.301192 -0.710298 0.636208 0 
0.0745914 0.228882 0.0162603 0.294103 -0.70874 0.641241 0 
0.0745319 0.229173 0.0164657 0.301192 -0.710298 0.636208 0 
0.0746178 0.229059 0.0167482 0.258278 -0.698777 0.667086 0 
0.0746181 0.229406 0.0167455 0.258343 -0.683103 0.683103 0 
0.0748364 0.229233 0.0168577 0.258343 -0.683103 0.683103 0 
0.0750284 0.22923 0.0164794 0.258871 -0.69403 0.671795 0 
0.0747505 0.229347 0.0165753 0.258871 -0.69403 0.671795 0 
0.0748099 0.229056 0.0163699 0.254777 -0.697866 0.669382 0 
0.0748102 0.229403 0.0163672 0.262389 -0.694934 0.669491 0 
0.0742222 0.227957 0.0160012 0.419207 -0.747996 0.514556 0 
0.0742996 0.228131 0.0161183 0.41538 -0.743744 0.52374 0 
0.0744408 0.228131 0.0161107 0.430427 -0.740466 0.516182 0 
0.074573 0.227898 0.0159418 0.450805 -0.741434 0.497042 0 
0.0745823 0.228477 0.0161004 0.354309 -0.723313 0.592692 0 
0.0747874 0.228303 0.015968 0.279473 -0.72663 0.627617 0 
0.0749421 0.228824 0.016201 0.247802 -0.692899 0.677115 0 
0.0753658 0.228823 0.0161782 0.247802 -0.692899 0.677115 0 
0.0752204 0.229054 0.0161025 0.25131 -0.690706 0.678062 0 
0.0742475 0.22976 0.017744 0.433862 -0.686533 0.58347 0 
0.0744525 0.229586 0.0176116 0.383579 -0.689784 0.614056 0 
0.0745939 0.229759 0.0176027 0.341291 -0.67115 0.658087 0 
0.0745123 0.229815 0.0174022 0.373856 -0.676893 0.634072 0 
0.0747306 0.229642 0.0175144 0.340543 -0.672939 0.656645 0 
0.074466 0.229934 0.0178536 0.405556 -0.677031 0.614128 0 
0.0746581 0.229931 0.0174753 0.362241 -0.67367 0.644166 0 
0.0748169 0.230049 0.0177929 0.322341 -0.646302 0.691657 0 
0.0748497 0.229408 0.017101 0.258332 -0.676736 0.689415 0 
0.0751411 0.22964 0.017247 0.244582 -0.651693 0.717967 0 
0.074753 0.230223 0.0179176 0.351418 -0.655436 0.668512 0 
0.0748987 0.230339 0.0179906 0.304993 -0.647102 0.698741 0 
0.0751677 0.22999 0.0177335 0.233249 -0.634 0.737319 0 
0.0751216 0.230456 0.0181822 0.261148 -0.628338 0.732798 0 
0.075254 0.230397 0.0180119 0.208681 -0.616768 0.75898 0 
0.075263 0.230629 0.0181732 0.260965 -0.621572 0.738611 0 
0.0754591 0.230222 0.0178796 0.212718 -0.622627 0.753052 0 
0.0756645 0.230394 0.0177445 0.208681 -0.616768 0.75898 0 
0.0753597 0.229814 0.0173566 0.230358 -0.637794 0.734952 0 
0.075651 0.230046 0.0175026 0.212882 -0.629323 0.747418 0 
0.0757878 0.22993 0.0174144 0.205975 -0.627218 0.751113 0 
0.0758693 0.229873 0.0176148 0.212882 -0.629323 0.747418 0 
0.0756152 0.229117 0.0168575 0.248355 -0.684953 0.684953 0 
0.0757564 0.229117 0.0168499 0.233828 -0.673235 0.701483 0 
0.0769296 0.228371 0.0176101 -0.132311 -0.61101 0.780487 0 
0.0767248 0.229065 0.0177384 0.23357 -0.650548 0.722657 0 
0.0770406 0.229117 0.0170259 0.00690421 -0.625522 0.780176 0 
0.0747131 0.229698 0.0171879 0.283089 -0.670138 0.686131 0 
0.0747 0.229869 0.0169419 0.301605 -0.672564 0.67579 0 
0.0746671 0.230336 0.0176352 0.333325 -0.661773 0.671529 0 
0.0748588 0.229814 0.0172609 0.251586 -0.650327 0.716784 0 
0.0752141 0.229871 0.0172822 0.229828 -0.636327 0.736388 0 
0.0748366 0.22958 0.0168551 0.258332 -0.676736 0.689415 0 
0.0749182 0.229523 0.0170555 0.265912 -0.667168 0.695829 0 
0.0750549 0.229407 0.0169673 0.258332 -0.676736 0.689415 0 
0.0752513 0.229347 0.0166709 0.262429 -0.679135 0.685497 0 
0.0748323 0.229637 0.016773 0.258332 -0.676736 0.689415 0 
0.0752425 0.229288 0.0165083 0.265379 -0.68808 0.675367 0 
0.0752338 0.229402 0.0163444 0.251859 -0.689048 0.679544 0 
0.0752735 0.229581 0.0170768 0.247639 -0.657743 0.711372 0 
0.0754786 0.229407 0.0169444 0.25472 -0.662906 0.704041 0 
0.07474 0.230394 0.0176717 0.311575 -0.650593 0.692567 0 
0.075492 0.229755 0.0171863 0.230489 -0.644429 0.729099 0 
0.0756971 0.22958 0.017054 0.241114 -0.654002 0.717039 0 
0.0758652 0.230277 0.0175302 0.21948 -0.617967 0.754947 0 
0.076002 0.230161 0.0174419 0.219146 -0.623246 0.750693 0 
0.0770275 0.229289 0.01678 0.00412295 -0.619817 0.784735 0 
0.0750754 0.230748 0.0186322 0.267941 -0.600886 0.753089 0 
0.0751442 0.231209 0.018584 0.294734 -0.57513 0.763123 0 
0.075135 0.230804 0.0184241 0.278419 -0.612521 0.739798 0 
0.0754903 0.230862 0.0184454 0.271259 -0.594867 0.756671 0 
0.075486 0.230919 0.0183634 0.271259 -0.594867 0.756671 0 
0.0752943 0.231441 0.0187377 0.261404 -0.549418 0.793604 0 
0.07544 0.231557 0.0188107 0.215313 -0.520721 0.826129 0 
0.0754949 0.231151 0.0185246 0.237414 -0.54776 0.802243 0 
0.0757 0.230976 0.0183923 0.242154 -0.573357 0.782703 0 
0.0755591 0.231323 0.0183972 0.219925 -0.542893 0.810494 0 
0.0753674 0.231846 0.0187715 0.220493 -0.494209 0.840916 0 
0.075586 0.23202 0.0188811 0.215353 -0.468355 0.856894 0 
0.0758811 0.231328 0.0191158 0.217597 -0.509755 0.832347 0 
0.0760183 0.231905 0.0190222 0.215353 -0.468355 0.856894 0 
0.0753497 0.231555 0.0184476 0.247818 -0.54707 0.799563 0 
0.0757598 0.231206 0.0181829 0.224104 -0.557943 0.799048 0 
0.0754998 0.231787 0.0186013 0.220952 -0.501332 0.836569 0 
0.0757049 0.231612 0.0184689 0.210609 -0.498492 0.840922 0 
0.0756455 0.231902 0.0186743 0.220259 -0.490646 0.843061 0 
0.0757052 0.231959 0.0184663 0.223235 -0.484436 0.845865 0 
0.0759653 0.231551 0.0180465 0.194373 -0.507782 0.839271 0 
0.0759324 0.232018 0.0187397 0.218726 -0.475164 0.852278 0 
0.0759237 0.232132 0.0185758 0.218726 -0.475164 0.852278 0 
0.0759369 0.232134 0.0188203 0.215851 -0.475476 0.852837 0 
0.0760053 0.232076 0.0187762 0.215353 -0.468355 0.856894 0 
0.0764024 0.231899 0.0182656 0.236284 -0.483239 0.843001 0 
0.0763458 0.233412 0.0198106 0.103122 -0.56209 0.820622 0 
0.0761688 0.232483 0.0191732 0.229075 -0.477873 0.848034 0 
0.0762416 0.232541 0.0192097 0.230909 -0.496989 0.836471 0 
0.076164 0.232021 0.0190952 0.209477 -0.480743 0.851473 0 
0.0759044 0.233121 0.0195096 0.223033 -0.536817 0.813685 0 
0.0758408 0.233815 0.0196303 0.186411 -0.559233 0.807781 0 
0.0759091 0.233584 0.0195876 0.176323 -0.547052 0.818318 0 
0.0761827 0.233524 0.0194097 0.140425 -0.55431 0.820379 0 
0.0760725 0.233818 0.0199858 0.109769 -0.581044 0.806436 0 
0.0762092 0.233701 0.0198975 0.0999917 -0.569518 0.815874 0 
0.0764012 0.233698 0.0195192 0.090727 -0.565963 0.819423 0 
0.0763197 0.233755 0.0193188 0.118691 -0.561217 0.819114 0 
0.0765382 0.233928 0.0194283 0.0726249 -0.565335 0.821658 0 
0.075964 0.233177 0.0193015 0.219366 -0.532307 0.817636 0 
0.0763829 0.232714 0.0192007 0.225303 -0.51651 0.826109 0 
0.0762238 0.23225 0.0188858 0.229583 -0.485014 0.843833 0 
0.0765525 0.231958 0.0184206 0.208467 -0.472424 0.856363 0 
0.076374 0.232482 0.0190394 0.216574 -0.486157 0.846609 0 
0.0765109 0.232712 0.0189485 0.225303 -0.51651 0.826109 0 
0.0768439 0.232189 0.0185666 0.235829 -0.470136 0.850504 0 
0.0767801 0.232537 0.01869 0.210166 -0.491395 0.845199 0 
0.0769895 0.232305 0.0186396 0.209477 -0.480743 0.851473 0 
0.0761913 0.233237 0.019575 0.166304 -0.54386 0.822532 0 
0.0761826 0.233351 0.0194111 0.156514 -0.544074 0.82431 0 
0.0763877 0.233177 0.0192787 0.149583 -0.540573 0.827892 0 
0.0763878 0.23335 0.0192773 0.137082 -0.549804 0.823969 0 
0.0766149 0.233237 0.0195522 0.115066 -0.552024 0.825851 0 
0.07682 0.233062 0.0194198 0.10896 -0.547704 0.829547 0 
0.0765932 0.233522 0.0191423 0.108959 -0.556416 0.823729 0 
0.0768117 0.233696 0.0192518 0.0728474 -0.569924 0.818462 0 
0.0766066 0.23387 0.0193842 0.0728474 -0.569924 0.818462 0 
0.0768798 0.233291 0.0192103 0.099694 -0.547595 0.830783 0 
0.0765838 0.23277 0.018985 0.194943 -0.518336 0.832662 0 
0.0769987 0.232711 0.0187996 0.142165 -0.514433 0.845664 0 
0.0772081 0.232479 0.0187492 0.138389 -0.499657 0.855097 0 
0.0768664 0.232943 0.0189684 0.124036 -0.529705 0.839064 0 
0.0772171 0.232885 0.0189091 0.124036 -0.529705 0.839064 0 
0.0774267 0.232653 0.0188587 0.114063 -0.518339 0.847534 0 
0.0776408 0.232884 0.0188863 0.0842806 -0.54711 0.832807 0 
0.0770762 0.233231 0.018914 0.099694 -0.547595 0.830783 0 
0.0767987 0.233867 0.0190059 0.0756338 -0.56654 0.820556 0 
0.0764321 0.233818 0.0200891 0.0610828 -0.58952 0.805441 0 
0.0769687 0.234574 0.0208311 0.202368 -0.758494 0.619463 0 
0.076951 0.234456 0.0205059 0.130055 -0.701101 0.701101 0 
0.0770149 0.234282 0.0203811 0.107743 -0.677452 0.727633 0 
0.0775334 0.2344 0.020802 0.169421 -0.731105 0.660895 0 
0.0775291 0.234457 0.02072 0.156192 -0.732435 0.662679 0 
0.0776571 0.234455 0.0204678 0.146508 -0.714418 0.68421 0 
0.0764277 0.233875 0.0200071 0.0610828 -0.58952 0.805441 0 
0.0766418 0.233933 0.020036 0.0611559 -0.595915 0.800716 0 
0.0764831 0.233988 0.019717 0.069961 -0.586815 0.806693 0 
0.0764744 0.234103 0.0195531 0.069961 -0.586815 0.806693 0 
0.0766287 0.234104 0.0197901 0.0582869 -0.592821 0.803222 0 
0.0766552 0.234281 0.0202779 0.0860982 -0.663978 0.742779 0 
0.0768604 0.234107 0.0201455 0.0734006 -0.623185 0.778622 0 
0.0770699 0.234049 0.0200938 0.0613823 -0.618106 0.783695 0 
0.0770569 0.23422 0.0198478 0.082498 -0.6238 0.777218 0 
0.0768473 0.234278 0.0198996 0.0704102 -0.62507 0.777386 0 
0.0766929 0.234277 0.0196626 0.0764236 -0.609947 0.788749 0 
0.0770482 0.234334 0.0196839 0.079443 -0.622544 0.778542 0 
0.076598 0.234158 0.0192189 0.0669212 -0.582357 0.810174 0 
0.0765343 0.234505 0.0193423 0.0764999 -0.61633 0.783764 0 
0.0765939 0.234561 0.0191342 0.0732968 -0.613681 0.786144 0 
0.0771517 0.234339 0.0202915 0.104614 -0.679256 0.726407 0 
0.0771652 0.234687 0.0205335 0.162461 -0.730316 0.66351 0 
0.077507 0.234397 0.0203129 0.117248 -0.684194 0.719814 0 
0.0772488 0.234044 0.0194709 0.0523773 -0.590306 0.805478 0 
0.0775268 0.233927 0.019375 0.046544 -0.590967 0.805352 0 
0.0775086 0.233117 0.0190551 0.0725167 -0.558805 0.826122 0 
0.0776456 0.233347 0.0189642 0.0550328 -0.56585 0.82267 0 
0.077522 0.233465 0.019297 0.0550723 -0.56908 0.820436 0 
0.0777318 0.233753 0.0192426 0.049297 -0.584522 0.809879 0 
0.076662 0.234157 0.0190928 0.0669212 -0.582357 0.810174 0 
0.0770722 0.233808 0.018828 0.0638081 -0.571437 0.818162 0 
0.0766533 0.234271 0.0189288 0.0610252 -0.574772 0.816035 0 
0.0770635 0.233922 0.0186641 0.0726249 -0.565335 0.821658 0 
0.0772133 0.233635 0.0188218 0.0697395 -0.562186 0.824065 0 
0.0772817 0.233576 0.0187777 0.0756998 -0.561321 0.824129 0 
0.0774275 0.233866 0.0188494 0.0522435 -0.577502 0.814716 0 
0.0774891 0.233932 0.0199903 0.0613823 -0.618106 0.783695 0 
0.0773482 0.234279 0.0199952 0.0891665 -0.662171 0.744029 0 
0.0772622 0.234392 0.0197128 0.0890957 -0.652882 0.752202 0 
0.0774895 0.234452 0.0199863 0.104807 -0.674606 0.7307 0 
0.077754 0.233987 0.0196485 0.0526072 -0.615646 0.786264 0 
0.0775667 0.234453 0.0201048 0.117248 -0.684194 0.719814 0 
0.0777124 0.234569 0.0201778 0.126845 -0.696904 0.705858 0 
0.0777081 0.234626 0.0200958 0.130326 -0.696568 0.705556 0 
0.0779131 0.234451 0.0199635 0.117276 -0.693264 0.711078 0 
0.0779504 0.233927 0.0193522 0.0496094 -0.608069 0.792333 0 
0.0781689 0.234101 0.0194617 0.0737127 -0.640289 0.764589 0 
0.0777389 0.234745 0.0206656 0.195222 -0.757831 0.622559 0 
0.0783945 0.235267 0.0209943 0.206483 -0.728125 0.653605 0 
0.0785312 0.235151 0.020906 0.213222 -0.733048 0.645892 0 
0.0787716 0.235039 0.0214254 0.261384 -0.723954 0.638411 0 
0.0787077 0.235213 0.0215502 0.265122 -0.712814 0.649312 0 
0.0785447 0.235499 0.0211479 0.244631 -0.714953 0.654979 0 
0.077944 0.234571 0.0205333 0.155846 -0.733836 0.661209 0 
0.0781756 0.234574 0.0208887 0.1886 -0.7682 0.6118 0 
0.0783942 0.234748 0.0209983 0.228525 -0.772631 0.592299 0 
0.0784626 0.234863 0.0209528 0.205575 -0.749655 0.629092 0 
0.0778074 0.234861 0.0206202 0.212129 -0.76955 0.602324 0 
0.0780259 0.235034 0.0207297 0.232182 -0.777577 0.584351 0 
0.0783084 0.235034 0.0207145 0.228812 -0.776717 0.586818 0 
0.0782953 0.235205 0.0204686 0.218472 -0.779371 0.58724 0 
0.0786087 0.235498 0.0210218 0.247492 -0.720405 0.647892 0 
0.0787324 0.235553 0.0206876 0.244582 -0.717967 0.651693 0 
0.0786816 0.235556 0.0210583 0.258715 -0.709482 0.655517 0 
0.0786685 0.235727 0.0208124 0.244167 -0.710446 0.660037 0 
0.0779309 0.234742 0.0202874 0.159533 -0.727776 0.667001 0 
0.0783543 0.234396 0.0202672 0.139947 -0.723811 0.675657 0 
0.0779176 0.234567 0.0200441 0.130055 -0.701101 0.701101 0 
0.0781317 0.234625 0.020073 0.136716 -0.72264 0.677569 0 
0.0781911 0.234335 0.0198676 0.101712 -0.6825 0.723774 0 
0.0784096 0.234509 0.0199771 0.120714 -0.70491 0.698949 0 
0.0782949 0.234686 0.0204726 0.192262 -0.758283 0.62293 0 
0.0783767 0.234976 0.0206703 0.234836 -0.782269 0.576982 0 
0.0782224 0.234974 0.0204334 0.225033 -0.774424 0.591294 0 
0.0785684 0.234453 0.020296 0.152551 -0.73557 0.660049 0 
0.0783502 0.234799 0.0201825 0.172498 -0.746473 0.642669 0 
0.0785688 0.234973 0.0202921 0.198558 -0.771143 0.604908 0 
0.0786282 0.234683 0.0200866 0.149301 -0.734438 0.66205 0 
0.0783875 0.234275 0.0195713 0.0954485 -0.67695 0.729814 0 
0.0786147 0.234334 0.0198448 0.117524 -0.709605 0.694729 0 
0.0789786 0.234105 0.0200313 0.117524 -0.709605 0.694729 0 
0.0788333 0.234508 0.0199543 0.133432 -0.730127 0.670157 0 
0.0785866 0.235264 0.020616 0.202686 -0.747307 0.632812 0 
0.0788467 0.234857 0.0201962 0.171857 -0.758907 0.628113 0 
0.0787145 0.235089 0.0203651 0.2186 -0.776727 0.590685 0 
0.078655 0.235379 0.0205705 0.202997 -0.732958 0.64928 0 
0.0788649 0.235667 0.0205161 0.251117 -0.712287 0.65543 0 
0.0790058 0.235321 0.0205111 0.258356 -0.727517 0.635587 0 
0.0790653 0.23503 0.0203057 0.264216 -0.745183 0.612284 0 
0.0792838 0.235204 0.0204153 0.27192 -0.72353 0.63448 0 
0.0790607 0.234741 0.0202264 0.192262 -0.758283 0.62293 0 
0.0790518 0.234682 0.0200638 0.169031 -0.753786 0.635008 0 
0.0792704 0.234856 0.0201734 0.26484 -0.743771 0.61373 0 
0.0794933 0.234973 0.0203649 0.281898 -0.740578 0.609982 0 
0.0753401 0.23063 0.0182917 0.257704 -0.611849 0.747816 0 
0.0756911 0.230744 0.018231 0.242571 -0.596254 0.765271 0 
0.0757508 0.2308 0.0180229 0.249765 -0.601634 0.758719 0 
0.0759693 0.230974 0.0181325 0.217389 -0.571995 0.790926 0 
0.076739 0.230453 0.0179723 0.150781 -0.565803 0.810637 0 
0.0767846 0.229295 0.017529 0.230548 -0.647731 0.726149 0 
0.0754595 0.230742 0.0178755 0.265048 -0.620561 0.738007 0 
0.075678 0.230916 0.0179851 0.250108 -0.596169 0.762908 0 
0.0758103 0.230683 0.0178162 0.219072 -0.604391 0.765976 0 
0.0761106 0.231147 0.0181235 0.202668 -0.547051 0.812195 0 
0.0758879 0.231204 0.0179307 0.217621 -0.566432 0.794856 0 
0.0760288 0.230857 0.0179257 0.214069 -0.574445 0.790055 0 
0.0762387 0.231145 0.0178713 0.207238 -0.56338 0.799785 0 
0.0760837 0.230451 0.0176397 0.215705 -0.606766 0.765053 0 
0.0762205 0.230335 0.0175514 0.208983 -0.611468 0.763173 0 
0.0763023 0.230625 0.0177492 0.208075 -0.584152 0.78452 0 
0.076439 0.230508 0.017661 0.204619 -0.595397 0.776939 0 
0.0765209 0.230799 0.0178588 0.170174 -0.558713 0.811715 0 
0.0761704 0.231377 0.0179141 0.206099 -0.53891 0.816762 0 
0.076389 0.23155 0.0180236 0.176801 -0.488803 0.854291 0 
0.0766075 0.231724 0.0181332 0.177386 -0.450062 0.875202 0 
0.0767441 0.231435 0.0180463 0.19251 -0.476052 0.858088 0 
0.0767394 0.230972 0.0179683 0.149692 -0.535039 0.83146 0 
0.076958 0.231146 0.0180778 0.197572 -0.505241 0.840058 0 
0.0774128 0.231785 0.0186208 0.2361 -0.473723 0.848436 0 
0.0767708 0.231785 0.0185328 0.212177 -0.471004 0.856234 0 
0.0769714 0.231495 0.0183197 0.191611 -0.461946 0.865963 0 
0.07719 0.231669 0.0184292 0.209839 -0.444978 0.87061 0 
0.0770576 0.231901 0.0185981 0.246878 -0.479956 0.841839 0 
0.0772762 0.232075 0.0187077 0.209003 -0.47364 0.85556 0 
0.0774947 0.232249 0.0188172 0.157487 -0.498955 0.852198 0 
0.0777046 0.232537 0.0187628 0.0954092 -0.508374 0.855834 0 
0.0777558 0.233054 0.0183881 0.0719545 -0.520612 0.850756 0 
0.0779318 0.232597 0.0190363 0.063207 -0.532344 0.844165 0 
0.0766407 0.234962 0.0186789 0.110819 -0.666394 0.737318 0 
0.0862751 0.248073 0.0276668 0.231084 0.418933 -0.87812 0 
0.0885199 0.249521 0.0285567 0.0277754 0.416631 -0.908651 0 
0.0887647 0.249526 0.0291568 -0.11626 0.492311 -0.86262 0 
0.0886058 0.249408 0.0288392 0.0250763 0.421018 -0.906706 0 
0.0886658 0.249811 0.0286284 0.0144916 0.436066 -0.899798 0 
0.0887386 0.249869 0.0286649 -0.151973 0.511987 -0.845443 0 
0.0890299 0.249927 0.0288123 -0.172688 0.548098 -0.818393 0 
0.0894071 0.250046 0.0292408 -0.124469 0.54327 -0.83028 0 
0.0866989 0.248245 0.0276426 0.197046 0.407229 -0.891817 0 
0.0867586 0.248302 0.0274345 0.203418 0.405372 -0.891232 0 
0.0891028 0.250158 0.0288475 -0.140426 0.545446 -0.826299 0 
0.0894206 0.250394 0.0294827 -0.131382 0.562432 -0.816339 0 
0.0894073 0.250219 0.0292395 -0.140425 0.55431 -0.820379 0 
0.0894935 0.250452 0.0295193 -0.131575 0.569171 -0.811623 0 
0.0896302 0.250336 0.029431 -0.131382 0.562432 -0.816339 0 
0.0896855 0.250449 0.0291409 -0.131382 0.562432 -0.816339 0 
0.089712 0.250626 0.0296288 -0.125206 0.578892 -0.805735 0 
0.0898444 0.250567 0.0294585 -0.115585 0.572071 -0.812019 0 
0.089904 0.250623 0.0292505 -0.115585 0.572071 -0.812019 0 
0.0899944 0.250626 0.0296136 -0.106373 0.578492 -0.808723 0 
0.0900499 0.250912 0.0293222 -0.109437 0.576366 -0.809831 0 
0.0902683 0.250913 0.029433 -0.116168 0.586722 -0.801413 0 
0.0901582 0.251379 0.0300078 -0.0667989 0.564238 -0.822906 0 
0.0902815 0.250914 0.0296776 -0.132173 0.604433 -0.785615 0 
0.0904141 0.251202 0.0295047 -0.119546 0.609538 -0.783691 0 
0.0905 0.251088 0.0297872 -0.132173 0.604433 -0.785615 0 
0.0902268 0.251667 0.029961 -0.0667396 0.569417 -0.819335 0 
0.0905004 0.251608 0.0297831 -0.015061 0.559997 -0.828358 0 
0.090509 0.251321 0.0299484 -0.0728474 0.569924 -0.818462 0 
0.0906327 0.251376 0.0296143 -0.0610252 0.574772 -0.816035 0 
0.0907055 0.251434 0.0296507 -0.00406156 0.545602 -0.838034 0 
0.0895312 0.25062 0.0289026 -0.138039 0.571454 -0.808941 0 
0.089476 0.25068 0.0291914 -0.137992 0.58016 -0.802728 0 
0.0893859 0.251024 0.0288256 -0.128714 0.58143 -0.80335 0 
0.0896946 0.250854 0.0293009 -0.10951 0.579674 -0.807456 0 
0.089878 0.250965 0.0287586 -0.10951 0.579674 -0.807456 0 
0.0905822 0.251898 0.0299809 0.0206441 0.565649 -0.824388 0 
0.0907102 0.251896 0.0297287 0.0151238 0.578828 -0.815309 0 
0.0905735 0.252012 0.029817 0.0206441 0.565649 -0.824388 0 
0.0786352 0.235675 0.0215096 0.258871 -0.69403 0.671795 0 
0.0788538 0.235849 0.0216192 0.25131 -0.678062 0.690706 0 
0.0787633 0.235673 0.0212575 0.247787 -0.696014 0.673918 0 
0.0789132 0.235559 0.0214138 0.262389 -0.694934 0.669491 0 
0.0790412 0.235557 0.0211616 0.265912 -0.695829 0.667168 0 
0.0787898 0.236023 0.021744 0.258278 -0.667086 0.698777 0 
0.0791317 0.235733 0.0215233 0.25131 -0.678062 0.690706 0 
0.0792597 0.235731 0.0212711 0.251859 -0.679544 0.689048 0 
0.0792774 0.235849 0.0215963 0.237266 -0.667801 0.705512 0 
0.0790901 0.236314 0.0220526 0.237731 -0.662813 0.710044 0 
0.0795141 0.236833 0.0220257 0.24057 -0.652526 0.718565 0 
0.0791451 0.236081 0.0217652 0.237731 -0.662813 0.710044 0 
0.0792822 0.236311 0.0216743 0.247713 -0.66425 0.705273 0 
0.0790857 0.236371 0.0219706 0.237731 -0.662813 0.710044 0 
0.0793173 0.236374 0.0223261 0.247639 -0.657743 0.711372 0 
0.0795359 0.236548 0.0224356 0.237067 -0.651541 0.72062 0 
0.0793726 0.236487 0.022036 0.244125 -0.656776 0.713476 0 
0.0788142 0.235843 0.0208854 0.247802 -0.692899 0.677115 0 
0.078887 0.235901 0.020922 0.247787 -0.696014 0.673918 0 
0.0792643 0.23602 0.0213504 0.258332 -0.676736 0.689415 0 
0.0790969 0.236189 0.0208675 0.26539 -0.681751 0.681751 0 
0.0793506 0.236426 0.0216288 0.244167 -0.660037 0.710446 0 
0.0794324 0.236716 0.0218266 0.248196 -0.65922 0.709808 0 
0.0797061 0.23683 0.0216475 0.241114 -0.654002 0.717039 0 
0.0797612 0.236597 0.0213601 0.247679 -0.661003 0.70833 0 
0.0795024 0.235378 0.0205248 0.286828 -0.71627 0.63615 0 
0.0790834 0.235841 0.0206256 0.265294 -0.700566 0.66244 0 
0.0792244 0.235495 0.0206207 0.272618 -0.719011 0.639298 0 
0.0794429 0.235669 0.0207302 0.26884 -0.698348 0.663351 0 
0.0793237 0.23573 0.021145 0.25834 -0.679926 0.686266 0 
0.0797209 0.235552 0.0206343 0.280039 -0.699299 0.657693 0 
0.0796615 0.235842 0.0208397 0.272458 -0.683535 0.677161 0 
0.0793107 0.235901 0.0208991 0.258343 -0.683103 0.683103 0 
0.0800211 0.235843 0.020943 0.226876 -0.671241 0.705664 0 
0.080171 0.235729 0.0210993 0.230775 -0.664068 0.711165 0 
0.0795292 0.236075 0.0210086 0.24076 -0.668779 0.703398 0 
0.0797478 0.236249 0.0211182 0.234192 -0.658568 0.715152 0 
0.0801116 0.236019 0.0213047 0.234192 -0.658568 0.715152 0 
0.0794589 0.236893 0.0223145 0.237435 -0.643118 0.728028 0 
0.0796046 0.237009 0.0223875 0.240885 -0.640784 0.728951 0 
0.0798363 0.237012 0.022743 0.208983 -0.611468 0.763173 0 
0.0796181 0.237357 0.0226294 0.198558 -0.604908 0.771143 0 
0.0796269 0.237416 0.022792 0.191171 -0.585748 0.787625 0 
0.0797595 0.237704 0.0226191 0.157318 -0.576832 0.801571 0 
0.0799781 0.237878 0.0227286 0.127332 -0.534209 0.835708 0 
0.0801238 0.237993 0.0228017 0.08651 -0.506296 0.858009 0 
0.0802513 0.237299 0.0225548 0.157524 -0.58359 0.796623 0 
0.0805383 0.237414 0.0226202 0.121391 -0.554305 0.823414 0 
0.0811493 0.237122 0.0221398 0.138039 -0.571454 0.808941 0 
0.0793775 0.237123 0.0221126 0.243847 -0.640296 0.728395 0 
0.0795916 0.23718 0.0221416 0.240885 -0.640784 0.728951 0 
0.0796468 0.23712 0.0218529 0.237496 -0.646429 0.72507 0 
0.0794728 0.237761 0.0225523 0.180671 -0.584524 0.791005 0 
0.0796557 0.237353 0.0220142 0.237224 -0.63312 0.736807 0 
0.0797417 0.237412 0.0222952 0.218964 -0.616517 0.756281 0 
0.0798015 0.237642 0.0220858 0.2154 -0.612107 0.760873 0 
0.0795098 0.23689 0.0219438 0.24057 -0.652526 0.718565 0 
0.0798519 0.236946 0.0217205 0.241009 -0.647416 0.723027 0 
0.0799798 0.236771 0.0214696 0.237651 -0.656294 0.716101 0 
0.0801433 0.237178 0.0218665 0.226712 -0.630104 0.742678 0 
0.0802114 0.236773 0.021825 0.233515 -0.64726 0.725621 0 
0.0804299 0.236947 0.0219346 0.216268 -0.627021 0.74838 0 
0.0798874 0.237528 0.0223683 0.181324 -0.592732 0.784723 0 
0.0799472 0.237758 0.0221588 0.177416 -0.586836 0.79003 0 
0.0800332 0.237644 0.0224413 0.157318 -0.576832 0.801571 0 
0.0801658 0.237932 0.0222684 0.137082 -0.549804 0.823969 0 
0.0798657 0.237814 0.0219584 0.194567 -0.599021 0.776735 0 
0.0801571 0.238046 0.0221045 0.150077 -0.545328 0.824678 0 
0.0802517 0.237818 0.0225508 0.114783 -0.541948 0.832537 0 
0.0803974 0.237934 0.0226238 0.104829 -0.518403 0.848687 0 
0.0803115 0.238048 0.0223414 0.108132 -0.526243 0.843431 0 
0.0805894 0.237931 0.0222455 0.114864 -0.536517 0.836036 0 
0.0804213 0.237235 0.0217693 0.205415 -0.622421 0.755246 0 
0.0806485 0.237121 0.0220441 0.161393 -0.604847 0.779815 0 
0.0806621 0.237816 0.0222834 0.105563 -0.536493 0.837276 0 
0.0807258 0.237295 0.0221613 0.167775 -0.584945 0.79353 0 
0.080867 0.237295 0.0221537 0.134705 -0.566943 0.812668 0 
0.0809443 0.237469 0.0222708 0.115061 -0.543262 0.831642 0 
0.080198 0.236425 0.0215831 0.237651 -0.656294 0.716101 0 
0.0806081 0.236076 0.0213184 0.24116 -0.657278 0.714022 0 
0.0804165 0.236599 0.0216927 0.233515 -0.64726 0.725621 0 
0.0807079 0.236831 0.0218387 0.209017 -0.630146 0.747815 0 
0.0809992 0.237063 0.0219848 0.167981 -0.591716 0.788451 0 
0.0815898 0.239558 0.0236918 0.0418472 -0.44412 0.89499 0 
0.0815217 0.239963 0.0237333 0.0704289 -0.459859 0.885194 0 
0.0815129 0.239904 0.0235707 0.0533223 -0.458025 0.887339 0 
0.0817137 0.23996 0.023355 0.0618742 -0.457869 0.886864 0 
0.0815308 0.240368 0.0238933 0.0735355 -0.462025 0.883813 0 
0.0815904 0.240424 0.0236851 0.0735355 -0.462025 0.883813 0 
0.0816543 0.24025 0.0235604 0.0704289 -0.459859 0.885194 0 
0.0819323 0.240134 0.0234645 0.0533847 -0.461298 0.885638 0 
0.0818685 0.240481 0.023588 0.0505259 -0.465658 0.883521 0 
0.0816634 0.240655 0.0237204 0.0562502 -0.462349 0.884912 0 
0.081882 0.240829 0.0238299 0.0533783 -0.466718 0.882794 0 
0.0820871 0.240655 0.0236975 0.0533783 -0.466718 0.882794 0 
0.0820649 0.240421 0.0232916 0.0419953 -0.459239 0.88732 0 
0.0821334 0.240536 0.0232462 0.0505259 -0.465658 0.883521 0 
0.082352 0.24071 0.0233557 0.0533783 -0.466718 0.882794 0 
0.0805651 0.238111 0.0231041 0.0449605 -0.470042 0.881498 0 
0.0810661 0.238285 0.0231983 -0.00130369 -0.434129 0.90085 0 
0.0818408 0.238572 0.0231135 -0.00127335 -0.378186 0.925729 0 
0.0819046 0.238398 0.0229887 -0.00642335 -0.389255 0.921108 0 
0.0814538 0.237182 0.0225318 0.0989385 -0.526238 0.844562 0 
0.0806159 0.238108 0.0227333 0.0538041 -0.484237 0.873281 0 
0.0804615 0.238106 0.0224964 0.0682706 -0.491827 0.868012 0 
0.0807485 0.238222 0.0225618 0.0593966 -0.476554 0.877136 0 
0.0808345 0.238282 0.0228429 0.0280903 -0.445431 0.894875 0 
0.0808258 0.238396 0.022679 0.0280903 -0.445431 0.894875 0 
0.0809073 0.23834 0.0228794 0.0198536 -0.438103 0.898706 0 
0.0810399 0.238627 0.0227065 -0.003881 -0.410093 0.912036 0 
0.0808939 0.237992 0.0226375 0.0653573 -0.485313 0.871894 0 
0.0811629 0.237643 0.0223804 0.0989019 -0.517443 0.849983 0 
0.0810855 0.237469 0.0222632 0.108422 -0.536327 0.837017 0 
0.0813041 0.237643 0.0223727 0.092677 -0.511862 0.854054 0 
0.0810993 0.238164 0.0225025 0.0420438 -0.462481 0.885632 0 
0.0813727 0.237931 0.022326 0.0538041 -0.484237 0.873281 0 
0.0815912 0.238105 0.0224355 0.0281903 -0.455072 0.890008 0 
0.0815139 0.237931 0.0223183 0.0538041 -0.484237 0.873281 0 
0.0809163 0.238572 0.0230406 -0.00389521 -0.414191 0.910182 0 
0.0810665 0.238804 0.0231944 -0.00644945 -0.398576 0.917112 0 
0.0811128 0.238685 0.022743 -0.00647337 -0.402643 0.915334 0 
0.0811127 0.238512 0.0227444 -0.00130031 -0.4226 0.906315 0 
0.0812498 0.238915 0.0226521 -0.0064321 -0.392358 0.91979 0 
0.0811946 0.238975 0.0229408 -0.0141724 -0.382655 0.923783 0 
0.0812763 0.239092 0.0231399 0.016967 -0.403293 0.914914 0 
0.0813403 0.239091 0.0230138 0.0142699 -0.398259 0.917162 0 
0.0813491 0.23915 0.0231765 0.0414337 -0.423693 0.904858 0 
0.0813361 0.239322 0.0229305 0.0331402 -0.417567 0.908042 0 
0.0814684 0.239089 0.0227617 -0.00127157 -0.375114 0.926978 0 
0.0816821 0.238801 0.0227932 -0.0115845 -0.384864 0.922901 0 
0.0813178 0.238338 0.022612 0.0198536 -0.438103 0.898706 0 
0.0815363 0.238511 0.0227215 -0.00646475 -0.399521 0.916701 0 
0.0817457 0.238107 0.0226725 0.0336759 -0.453951 0.89039 0 
0.0822687 0.238341 0.023174 -0.0220168 -0.376876 0.926002 0 
0.0825733 0.238748 0.0235633 0.0554969 -0.426379 0.902841 0 
0.0824872 0.238515 0.0232835 -0.00127458 -0.376001 0.926619 0 
0.0814948 0.239266 0.0232495 0.0249788 -0.411494 0.91107 0 
0.0814176 0.239265 0.023131 0.0331402 -0.417567 0.908042 0 
0.081709 0.239497 0.023277 0.027953 -0.432605 0.90115 0 
0.0815546 0.239495 0.02304 0.0170813 -0.424406 0.905311 0 
0.081892 0.239089 0.0227388 -0.00903525 -0.391097 0.920305 0 
0.0815723 0.239613 0.0233653 0.0361481 -0.437794 0.898348 0 
0.0819869 0.239208 0.0231825 0.0332681 -0.427163 0.903562 0 
0.0822141 0.239267 0.023456 0.0444325 -0.437593 0.898075 0 
0.0817732 0.239669 0.0231496 0.0361481 -0.437794 0.898348 0 
0.0817003 0.239611 0.0231131 0.0278511 -0.428376 0.903171 0 
0.0818416 0.239784 0.0231041 0.0361925 -0.441013 0.896771 0 
0.082179 0.239378 0.0228028 0.0277804 -0.421998 0.906171 0 
0.0823248 0.239494 0.0228759 0.0361481 -0.437794 0.898348 0 
0.0819691 0.238916 0.0228586 -0.0116005 -0.387973 0.921598 0 
0.0823153 0.238569 0.02272 -0.0350201 -0.35928 0.932572 0 
0.0823244 0.238974 0.0228799 0.0330893 -0.408984 0.911941 0 
0.0822007 0.238919 0.0232141 0.0277447 -0.418813 0.907649 0 
0.0824062 0.239264 0.0230777 0.0471705 -0.429926 0.901631 0 
0.0822697 0.239727 0.0231633 0.0363236 -0.450681 0.891946 0 
0.0825563 0.239496 0.0232314 0.0279893 -0.441164 0.89699 0 
0.0827661 0.239784 0.0231769 0.0363236 -0.450681 0.891946 0 
0.0827745 0.23915 0.0233449 0.025265 -0.440143 0.897572 0 
0.08298 0.239496 0.0232085 0.0363236 -0.450681 0.891946 0 
0.0824117 0.240766 0.0231477 0.486219 -0.593893 0.641001 0 
0.0825681 0.240951 0.0247323 0.112429 -0.570904 0.813283 0 
0.0821864 0.24089 0.0242218 0.072021 -0.523918 0.848719 0 
0.08231 0.240772 0.023889 0.0451581 -0.483055 0.874425 0 
0.08216 0.240713 0.023734 0.0479093 -0.472249 0.880162 0 
0.0823739 0.240771 0.0237629 0.0451581 -0.483055 0.874425 0 
0.082418 0.240892 0.0245773 0.0752232 -0.543594 0.835971 0 
0.082405 0.241064 0.0243314 0.115419 -0.565406 0.816697 0 
0.0825285 0.240946 0.0239986 0.0688798 -0.521519 0.850455 0 
0.0826014 0.241003 0.0240351 0.0543699 -0.525576 0.849007 0 
0.0826654 0.241003 0.023909 0.0543699 -0.525576 0.849007 0 
0.0827427 0.241177 0.0240261 0.115419 -0.565406 0.816697 0 
0.082502 0.240769 0.0235107 0.0395043 -0.480863 0.875906 0 
0.0824889 0.24094 0.0232648 0.585899 -0.599406 0.545375 0 
0.0827206 0.240942 0.0236202 0.227764 -0.562438 0.79485 0 
0.0827075 0.241114 0.0233743 0.646536 -0.616465 0.449401 0 
0.0825839 0.241232 0.0237071 0.109048 -0.551057 0.827312 0 
0.082926 0.241288 0.0234839 0.639409 -0.646052 0.416861 0 
0.0825637 0.241008 0.0246503 0.112451 -0.562254 0.819284 0 
0.0826191 0.241122 0.0243603 0.124762 -0.562165 0.817561 0 
0.0827823 0.241182 0.0247598 0.116018 -0.580088 0.806249 0 
0.0829743 0.241179 0.0243816 0.128234 -0.573368 0.8092 0 
0.0827471 0.241119 0.0241081 0.115419 -0.565406 0.816697 0 
0.0830385 0.241351 0.0242541 0.243356 -0.620166 0.745769 0 
0.0829613 0.24135 0.0241357 0.191171 -0.585748 0.787625 0 
0.0830561 0.241469 0.0245794 0.322098 -0.632866 0.704084 0 
0.0831841 0.241467 0.0243272 0.410472 -0.646451 0.643128 0 
0.0830606 0.241585 0.02466 0.355826 -0.657541 0.6641 0 
0.083257 0.241525 0.0243637 0.414097 -0.650249 0.636945 0 
0.0831798 0.241524 0.0242452 0.410472 -0.646451 0.643128 0 
0.0833893 0.241293 0.0241948 0.515942 -0.657111 0.549553 0 
0.0830341 0.241408 0.0241722 0.39504 -0.646279 0.652891 0 
0.0840979 0.242168 0.025499 0.441616 -0.671589 0.594931 0 
0.0832794 0.242106 0.0247668 0.408948 -0.683787 0.604315 0 
0.0831472 0.242338 0.0249358 0.480159 -0.690961 0.540388 0 
0.0832751 0.242163 0.0246849 0.408948 -0.683787 0.604315 0 
0.0833657 0.242512 0.0250453 0.532743 -0.699747 0.475961 0 
0.0834712 0.241756 0.0243913 0.49804 -0.682499 0.534932 0 
0.0832705 0.241873 0.0246056 0.391098 -0.678234 0.622127 0 
0.0836078 0.241467 0.0243043 0.508078 -0.672407 0.538261 0 
0.083822 0.241698 0.0243319 0.49324 -0.687192 0.533368 0 
0.0834165 0.242509 0.0246746 0.473255 -0.690652 0.546836 0 
0.0834714 0.242103 0.0243885 0.463035 -0.687031 0.559988 0 
0.083681 0.242044 0.0243368 0.509237 -0.696236 0.505898 0 
0.0836901 0.24245 0.0244967 0.519527 -0.69326 0.499481 0 
0.0836699 0.242226 0.0254399 0.507599 -0.678474 0.531052 0 
0.0836568 0.242397 0.025194 0.503424 -0.6874 0.523494 0 
0.0839526 0.242572 0.025422 0.430671 -0.696722 0.573673 0 
0.0839613 0.242458 0.025586 0.4384 -0.685104 0.581755 0 
0.0840939 0.242745 0.0254131 0.426318 -0.695048 0.57893 0 
0.0838801 0.243034 0.0253815 0.388518 -0.666267 0.636508 0 
0.0837299 0.242802 0.0252278 0.502234 -0.699123 0.508908 0 
0.0834893 0.242567 0.0247111 0.532743 -0.699747 0.475961 0 
0.0836307 0.24274 0.0247021 0.537937 -0.70115 0.467988 0 
0.0837125 0.24303 0.0248999 0.574577 -0.719456 0.390185 0 
0.0839311 0.243204 0.0250095 0.419891 -0.698712 0.579217 0 
0.0839134 0.243086 0.0246843 0.520893 -0.732558 0.438212 0 
0.0827463 0.24008 0.0241161 0.0509295 -0.483142 0.87406 0 
0.082921 0.240306 0.0234099 0.378137 -0.571297 0.728445 0 
0.0832033 0.240132 0.023396 0.598826 -0.6022 0.527979 0 
0.0831438 0.240422 0.0236014 0.510356 -0.601311 0.614786 0 
0.0833624 0.240596 0.023711 0.600086 -0.630343 0.492508 0 
0.0834084 0.239958 0.0232636 0.657265 -0.597058 0.459918 0 
0.0826941 0.240766 0.0231324 0.640508 -0.600161 0.47912 0 
0.0829854 0.240997 0.0232784 0.656297 -0.606198 0.449221 0 
0.0829854 0.240997 0.0232784 0.656297 -0.606198 0.449221 0 
0.0836403 0.24048 0.0236151 0.639958 -0.606365 0.47199 0 
0.0831312 0.241113 0.0233515 0.666084 -0.622897 0.410281 0 
0.0838814 0.241407 0.0241265 0.563483 -0.677183 0.473192 0 
0.0842496 0.241121 0.024395 0.526883 -0.66155 0.533616 0 
0.0840867 0.241579 0.0239915 0.640632 -0.666982 0.380427 0 
0.0839019 0.242748 0.0257914 0.388518 -0.666267 0.636508 0 
0.0841117 0.243036 0.025737 0.251586 -0.650327 0.716784 0 
0.0839617 0.242978 0.025582 0.370321 -0.669869 0.643535 0 
0.0839486 0.243149 0.0253361 0.370321 -0.669869 0.643535 0 
0.0840348 0.243382 0.0256158 0.251682 -0.656906 0.710725 0 
0.0839356 0.24332 0.0250901 0.344171 -0.6704 0.657351 0 
0.0846461 0.243435 0.0251327 0.223681 -0.652274 0.724227 0 
0.0843505 0.243434 0.0249033 0.230548 -0.647731 0.726149 0 
0.0847566 0.243489 0.024554 0.613758 -0.771365 0.168215 0 
0.084816 0.243198 0.0243485 0.571984 -0.761043 0.306019 0 
0.0849792 0.243259 0.0247481 0.223225 -0.654066 0.722751 0 
0.0847963 0.243667 0.0252863 0.322677 -0.708592 0.627517 0 
0.0850611 0.243549 0.0249459 0.209161 -0.636779 0.742135 0 
0.0853565 0.243378 0.0251766 0.223572 -0.645701 0.730127 0 
0.0852155 0.243551 0.0251829 0.378327 -0.725537 0.574861 0 
0.0854428 0.243784 0.025455 0.522379 -0.77955 0.345574 0 
0.0856107 0.244134 0.0259339 0.247366 -0.619203 0.74525 0 
0.0858292 0.244308 0.0260434 0.236417 -0.621574 0.746828 0 
0.0856656 0.243727 0.0256479 0.552103 -0.783068 0.286334 0 
0.085957 0.243959 0.0257939 0.193994 -0.581982 0.789724 0 
0.0862394 0.243959 0.0257787 0.177523 -0.590227 0.787475 0 
0.0861161 0.244423 0.0261089 0.102543 -0.53871 0.836228 0 
0.0863347 0.244597 0.0262184 -0.108895 -0.384578 0.916647 0 
0.0861027 0.244075 0.0258669 0.251259 -0.63368 0.731655 0 
0.086471 0.243961 0.0261341 0.0427137 -0.511187 0.858408 0 
0.0863984 0.24425 0.026095 -0.0336346 -0.456086 0.8893 0 
0.0865486 0.244482 0.0262486 -0.171928 -0.334072 0.926734 0 
0.0863443 0.245696 0.026373 -0.0273363 -0.384009 0.922924 0 
0.086777 0.2461 0.0265101 -0.0557092 -0.436163 0.898142 0 
0.0862071 0.245292 0.0264653 -0.106573 -0.338605 0.934874 0 
0.0863395 0.245233 0.026295 -0.106573 -0.338605 0.934874 0 
0.0864765 0.245463 0.0262041 -0.106573 -0.338605 0.934874 0 
0.0864761 0.244944 0.0262081 -0.15602 -0.327227 0.931976 0 
0.0865446 0.245059 0.0261626 -0.14592 -0.309568 0.939614 0 
0.0866265 0.245349 0.0263604 -0.128416 -0.317662 0.939468 0 
0.0868315 0.245174 0.026228 -0.142882 -0.308898 0.940301 0 
0.0868363 0.245637 0.026306 -0.10263 -0.318554 0.942333 0 
0.086695 0.245637 0.0263137 -0.109487 -0.288886 0.951082 0 
0.0873832 0.245172 0.025953 -0.2092 -0.195875 0.958055 0 
0.0870501 0.245348 0.0263376 -0.167507 -0.253271 0.952783 0 
0.0872599 0.245636 0.0262832 -0.155184 -0.356503 0.921316 0 
0.0869136 0.245811 0.0264232 -0.0468131 -0.415968 0.908174 0 
0.086982 0.245753 0.026379 -0.0278472 -0.423012 0.905696 0 
0.0874785 0.24581 0.0263927 -0.182253 -0.383161 0.905523 0 
0.0871321 0.245985 0.0265327 -0.113049 -0.414512 0.902995 0 
0.0872734 0.245985 0.0265251 -0.145972 -0.398235 0.905594 0 
0.0874053 0.245233 0.0263602 -0.231366 -0.204306 0.951172 0 
0.0876512 0.246796 0.0269482 -0.157006 -0.430686 0.88874 0 
0.0880288 0.247434 0.0273727 0.141466 0.432972 -0.890237 0 
0.0875692 0.246333 0.0267518 -0.219548 -0.396366 0.891455 0 
0.08807 0.24616 0.0268488 -0.260573 -0.376714 0.888925 0 
0.0878472 0.246216 0.0266559 -0.226333 -0.397931 0.889058 0 
0.0880745 0.246276 0.0269294 -0.258661 -0.390235 0.883635 0 
0.0877878 0.246507 0.0268613 -0.233213 -0.405524 0.883834 0 
0.0878425 0.245754 0.0265779 -0.234579 -0.385063 0.89258 0 
0.087966 0.245636 0.0262451 -0.227451 -0.343349 0.911251 0 
0.0881846 0.24581 0.0263547 -0.253549 -0.369203 0.894093 0 
0.0882616 0.245637 0.0264745 -0.263523 -0.367741 0.891809 0 
0.0886169 0.245695 0.0264957 -0.279258 -0.390961 0.87702 0 
0.0880063 0.24668 0.0269708 -0.233213 -0.405524 0.883834 0 
0.08964 0.24489 0.027101 -0.377719 -0.31655 0.870129 0 
0.0899314 0.245122 0.027247 -0.358175 -0.28624 0.888694 0 
0.0901452 0.244834 0.0272785 -0.349193 -0.148859 0.925152 0 
0.0887027 0.245408 0.0267796 -0.286237 -0.386192 0.876883 0 
0.0891261 0.245061 0.0267594 -0.321635 -0.274638 0.906159 0 
0.0895762 0.245238 0.0272244 -0.378881 -0.452419 0.80732 0 
0.0882227 0.247268 0.0283448 0.0818193 0.4507 -0.888918 0 
0.0877903 0.247383 0.0282037 0.0855922 0.472862 -0.87697 0 
0.088591 0.247155 0.028612 0.0584868 0.433891 -0.899065 0 
0.0877045 0.24767 0.0279199 0.0620099 0.469897 -0.88054 0 
0.0878415 0.2479 0.027829 -0.00398321 0.479313 -0.877635 0 
0.0877863 0.24796 0.0281177 0.025474 0.462553 -0.886225 0 
0.0881416 0.248017 0.0281389 0.00130369 0.434129 -0.90085 0 
0.0881506 0.24825 0.0283002 0.00130194 0.425734 -0.904847 0 
0.0881199 0.248303 0.0277291 -0.00917896 0.434034 -0.90085 0 
0.0880336 0.247897 0.0274506 0.0201554 0.474324 -0.88012 0 
0.0880466 0.247725 0.0276966 0.0256483 0.476518 -0.878791 0 
0.0882517 0.247551 0.0275642 0.0847822 0.451708 -0.888128 0 
0.0884151 0.247785 0.0279625 -0.00396198 0.458269 -0.888805 0 
0.0884924 0.247959 0.0280796 0.0091894 0.431902 -0.901874 0 
0.0885608 0.247901 0.0280355 -0.0173301 0.457249 -0.88917 0 
0.088325 0.248128 0.0275967 -0.0448071 0.460291 -0.886637 0 
0.0884663 0.248301 0.0275878 0.00130194 0.425734 -0.904847 0 
0.0885388 0.24784 0.0276283 -0.00397038 0.469829 -0.882749 0 
0.088728 0.247385 0.0285211 0.080765 0.412039 -0.90758 0 
0.0883008 0.248482 0.0284539 -0.0144903 0.430757 -0.902351 0 
0.0883736 0.24854 0.0284904 -0.00653303 0.429874 -0.902865 0 
0.0885659 0.248883 0.0281094 0.0117378 0.410824 -0.911639 0 
0.0887153 0.248076 0.0282711 -0.00922303 0.441388 -0.897269 0 
0.0889161 0.247958 0.0280567 0.00914488 0.424583 -0.905343 0 
0.0885655 0.248363 0.0281135 -0.0280903 0.445431 -0.894875 0 
0.0885482 0.248592 0.0277855 -0.0280903 0.445431 -0.894875 0 
0.0886848 0.248475 0.0276973 -0.0225805 0.442311 -0.896577 0 
0.0886845 0.247956 0.0277013 -0.00924482 0.452996 -0.891465 0 
0.0888943 0.248244 0.0276469 -0.00653219 0.424592 -0.905361 0 
0.0887882 0.248134 0.0283076 -0.0280903 0.445431 -0.894875 0 
0.0889295 0.248307 0.0282987 -0.033596 0.447499 -0.893653 0 
0.0889078 0.248592 0.0278888 -0.00389598 0.419467 -0.907762 0 
0.0891129 0.248418 0.0277564 -0.0557806 0.444884 -0.893849 0 
0.0888427 0.247208 0.0280256 0.208204 0.380008 -0.901246 0 
0.0886754 0.24755 0.0275414 0.140714 0.4193 -0.896876 0 
0.088894 0.247724 0.0276509 0.0670248 0.439081 -0.895944 0 
0.0891125 0.247898 0.0277605 -0.0418979 0.447361 -0.893371 0 
0.0888835 0.248945 0.028746 0.0250115 0.414665 -0.90963 0 
0.0887378 0.248829 0.028673 0.0277026 0.410262 -0.911547 0 
0.088943 0.248655 0.0285406 0.0170379 0.418083 -0.908249 0 
0.0887846 0.24923 0.0282177 0.0250115 0.414665 -0.90963 0 
0.088994 0.248998 0.0281672 0.0277026 0.410262 -0.911547 0 
0.0889611 0.249466 0.0288605 -0.10722 0.490351 -0.864905 0 
0.0889611 0.249466 0.0288605 -0.10722 0.490351 -0.864905 0 
0.0890803 0.249405 0.0284457 -0.0763834 0.465244 -0.881881 0 
0.0892854 0.24923 0.0283133 -0.109438 0.473285 -0.874085 0 
0.0892981 0.248539 0.0285632 -0.115376 0.46293 -0.878854 0 
0.0891263 0.248766 0.0279984 -0.00130356 0.42887 -0.903365 0 
0.0893314 0.248592 0.027866 -0.0144197 0.423416 -0.905821 0 
0.0893405 0.248997 0.0280259 -0.115512 0.466327 -0.877038 0 
0.089559 0.249171 0.0281354 -0.109438 0.473285 -0.874085 0 
0.0895456 0.248823 0.0278935 -0.115376 0.46293 -0.878854 0 
0.0897641 0.248997 0.028003 -0.106383 0.466666 -0.878012 0 
0.0891882 0.249352 0.0291353 -0.110162 0.493581 -0.862694 0 
0.0891068 0.249582 0.0289335 -0.110162 0.493581 -0.862694 0 
0.0891025 0.249639 0.0288515 -0.110162 0.493581 -0.862694 0 
0.0895127 0.24929 0.0285868 -0.10722 0.490351 -0.864905 0 
0.0892989 0.249579 0.0285552 -0.110162 0.493581 -0.862694 0 
0.0895174 0.249752 0.0286647 -0.0656987 0.501826 -0.86247 0 
0.0897225 0.249578 0.0285324 -0.0394616 0.477621 -0.877679 0 
0.0894069 0.249699 0.0292435 -0.111351 0.530727 -0.840197 0 
0.0894753 0.249641 0.0291993 -0.0655646 0.495222 -0.866289 0 
0.0894622 0.249812 0.0289534 -0.111351 0.530727 -0.840197 0 
0.0895309 0.250101 0.0289066 -0.124469 0.54327 -0.83028 0 
0.0899411 0.249752 0.0286419 -0.0960091 0.523035 -0.846887 0 
0.089782 0.249288 0.028327 -0.0857619 0.485047 -0.870273 0 
0.0900092 0.249347 0.0286004 -0.0283151 0.473266 -0.880464 0 
0.0901499 0.245296 0.0273565 -0.35358 -0.261856 0.898005 0 
0.0903638 0.245008 0.0273881 -0.323923 -0.155759 0.933174 0 
0.0905732 0.244776 0.0273377 -0.312924 -0.176628 0.93321 0 
0.0907874 0.245007 0.0273653 -0.281729 -0.185529 0.941386 0 
0.0910059 0.245181 0.0274748 -0.285137 -0.183204 0.940815 0 
0.0912376 0.245184 0.0278303 -0.270478 -0.212221 0.939044 0 
0.0908009 0.245355 0.0276072 -0.266629 -0.26948 0.925359 0 
0.0911604 0.245356 0.0277105 -0.257596 -0.208005 0.943599 0 
0.0914601 0.244954 0.0280244 -0.330993 -0.144209 0.932549 0 
0.0914605 0.2453 0.0280218 -0.313341 -0.211257 0.925844 0 
0.0912835 0.244545 0.027383 -0.254358 -0.207611 0.944563 0 
0.0916473 0.244315 0.0275695 -0.30219 -0.113155 0.946508 0 
0.0910697 0.244834 0.0273514 -0.257596 -0.208005 0.943599 0 
0.0916652 0.244606 0.0278934 -0.353646 -0.0295777 0.934912 0 
0.0918659 0.244489 0.0276791 -0.353646 -0.0295777 0.934912 0 
0.0918241 0.244724 0.028211 -0.408302 0.149379 0.900542 0 
0.0913013 0.244836 0.0277069 -0.270478 -0.212221 0.939044 0 
0.0884293 0.249172 0.0281963 0.0248459 0.398842 -0.916683 0 
0.0887666 0.248766 0.0278951 -0.00913335 0.421439 -0.906811 0 
0.0885066 0.249346 0.0283135 0.0438011 0.402174 -0.914515 0 
0.0886523 0.249462 0.0283865 0.0277754 0.416631 -0.908651 0 
0.0888622 0.24975 0.0283321 0.017165 0.431766 -0.901822 0 
0.0892085 0.249576 0.0281921 -0.0854947 0.46952 -0.878773 0 
0.0890894 0.24981 0.0286056 -0.10092 0.490388 -0.865641 0 
0.0891623 0.249868 0.0286421 -0.176323 0.547052 -0.818318 0 
0.0893542 0.249692 0.0282651 -0.0857619 0.485047 -0.870273 0 
0.0895043 0.249924 0.0284188 -0.108132 0.526243 -0.843431 0 
0.0894492 0.249984 0.0287075 -0.111351 0.530727 -0.840197 0 
0.0894361 0.250155 0.0284616 -0.11812 0.541019 -0.832674 0 
0.0895265 0.250158 0.0288247 -0.124469 0.54327 -0.83028 0 
