0.0803 0.235 0.0168 0.352536 0.444227 -0.823638 1 
0.077 0.2376 0.0156 0.0135354 -0.0531005 0.998497 1 
0.077 0.2377 0.0153 0.0159607 -0.0755475 0.997014 1 
0.0813 0.2255 0.0316 -0.0331411 -0.147421 0.988518 1 
0.0813 0.2255 0.032 -0.0201233 -0.214254 0.976571 1 
0.082 0.2248 0.032 -0.162951 -0.157898 0.973917 1 
0.0825 0.2243 0.0316 -0.183693 -0.102326 0.977643 1 
0.0826 0.2245 0.0317 -0.183693 -0.102326 0.977643 1 
0.0828 0.2248 0.0317 -0.183842 -0.14327 0.972459 1 
0.0811 0.2266 0.0317 -0.0262994 -0.0515468 0.998324 1 
0.0832 0.2263 0.0319 -0.0967531 -0.139754 0.985448 1 
0.0829 0.2267 0.0319 -0.13231 -0.103702 0.985769 1 
0.0828 0.2269 0.0319 -0.176606 -0.0362569 0.983614 1 
0.0811 0.2287 0.0309 0.078485 0.352517 0.932508 1 
0.0811 0.2282 0.0314 0.0725191 0.268448 0.960561 1 
0.0841 0.2243 0.032 -0.301106 -0.0237387 0.953295 1 
0.084 0.2249 0.032 -0.174658 -0.075886 0.9817 1 
0.0834 0.2252 0.032 -0.153299 -0.0772438 0.985156 1 
0.0838 0.2257 0.0319 -0.142935 -0.0815084 0.98637 1 
0.0826 0.2251 0.032 -0.143909 -0.112467 0.983179 1 
0.0808 0.2269 0.0322 0.0838826 0.0659876 0.994288 1 
0.082 0.2263 0.032 -0.0971482 -0.111194 0.989039 1 
0.082 0.2263 0.0322 -0.0971482 -0.111194 0.989039 1 
0.0822 0.2263 0.0323 -0.124395 -0.10307 0.986865 1 
0.0823 0.2266 0.032 -0.150981 -0.0403384 0.987713 1 
0.0826 0.2266 0.0322 -0.1344 -0.0987187 0.985998 1 
0.0823 0.2272 0.0326 -0.130938 0.00330095 0.991385 1 
0.0831 0.2275 0.032 -0.150013 0.0523303 0.987298 1 
0.0817 0.2276 0.0332 -0.03051 -0.0473431 0.998413 1 
0.0841 0.2245 0.0322 -0.223706 -0.116327 0.96769 1 
0.0841 0.2248 0.0326 -0.19634 -0.111301 0.974198 1 
0.0838 0.2263 0.032 -0.142935 -0.0815084 0.98637 1 
0.0841 0.226 0.0322 -0.142935 -0.0815084 0.98637 1 
0.0841 0.226 0.0325 -0.142935 -0.0815084 0.98637 1 
0.0844 0.2257 0.0328 -0.142935 -0.0815084 0.98637 1 
0.0835 0.2275 0.0322 -0.110449 -0.0649028 0.99176 1 
0.0838 0.2278 0.0322 0.0320554 -0.10722 0.993718 1 
0.0841 0.2275 0.0322 0.0320554 -0.10722 0.993718 1 
0.0736 0.2269 0.032 0.102032 0.311395 0.944787 1 
0.076 0.2237 0.0329 0.999999 0.000977516 0.000977516 1 
0.0766 0.2237 0.0328 0.999999 0.000977516 0.000977516 1 
0.0752 0.2251 0.0326 0.0300784 0.227393 0.973338 1 
0.0757 0.2246 0.0329 0.100364 0.235029 0.966793 1 
0.0754 0.2252 0.0328 0.0300784 0.227393 0.973338 1 
0.0743 0.226 0.0328 0.0189237 0.326749 0.944922 1 
0.0745 0.226 0.0326 0.0189237 0.326749 0.944922 1 
0.0749 0.2257 0.0325 0.0300784 0.227393 0.973338 1 
0.0748 0.2263 0.0325 0.0189237 0.326749 0.944922 1 
0.0745 0.2263 0.0326 0.0189237 0.326749 0.944922 1 
0.0743 0.2266 0.0322 0.0189237 0.326749 0.944922 1 
0.0743 0.2266 0.0326 0.0189237 0.326749 0.944922 1 
0.0749 0.2264 0.0323 0.00123236 0.311788 0.950151 1 
0.0748 0.2269 0.0322 -0.0111243 0.302828 0.95298 1 
0.0751 0.2269 0.0322 -0.0667706 0.258264 0.963764 1 
0.0749 0.2269 0.0326 -0.0111243 0.302828 0.95298 1 
0.0743 0.2264 0.0328 0.0189237 0.326749 0.944922 1 
0.0754 0.2261 0.0322 0.00599417 0.252954 0.96746 1 
0.0754 0.2263 0.0326 0.00599417 0.252954 0.96746 1 
0.0757 0.2267 0.0323 -0.0686602 0.243432 0.967485 1 
0.0752 0.2267 0.0325 -0.0667706 0.258264 0.963764 1 
0.076 0.2269 0.032 -0.0683267 0.232311 0.970239 1 
0.0763 0.2258 0.0331 -0.00796854 0.174169 0.984683 1 
0.0772 0.2284 0.032 -0.0349674 0.227891 0.973059 1 
0.0784 0.227 0.0325 0.0346504 0.0409504 0.99856 1 
0.0775 0.2272 0.0322 0.00933231 0.0528831 0.998557 1 
0.0778 0.2276 0.0322 0.0125778 0.174946 0.984498 1 
0.0772 0.2281 0.032 -0.0465431 0.194526 0.979792 1 
0.0775 0.2281 0.0322 -0.00115153 0.199215 0.979955 1 
0.0775 0.2281 0.0323 -0.00580453 0.20548 0.978644 1 
0.0775 0.2287 0.0322 0.0234491 0.282623 0.958944 1 
0.0775 0.2281 0.0326 -0.00806022 0.187688 0.982196 1 
0.0776 0.2282 0.032 0.0378219 0.240352 0.969949 1 
0.0776 0.2282 0.0323 0.0319555 0.202385 0.978785 1 
0.0782 0.2282 0.0323 0.0110055 0.28003 0.959928 1 
0.0779 0.2282 0.0325 -0.0178019 0.224304 0.974357 1 
0.0778 0.2285 0.0325 0.0110055 0.28003 0.959928 1 
0.0781 0.2287 0.0325 0.0524585 0.305795 0.950651 1 
0.0787 0.2275 0.032 0.152527 0.165132 0.974406 1 
0.0796 0.2273 0.0322 0.101701 0.0502918 0.993543 1 
0.0793 0.2278 0.0322 0.124048 0.252013 0.95974 1 
0.0799 0.2276 0.032 0.150564 0.226501 0.962303 1 
0.0784 0.2281 0.0322 0.0431749 0.255349 0.965885 1 
0.0787 0.2281 0.0323 0.13774 0.247933 0.958935 1 
0.0785 0.2281 0.0328 0.0754459 0.216443 0.973376 1 
0.0779 0.2288 0.0326 0.054593 0.2882 0.956013 1 
0.0895 0.2335 0.0441 -0.551743 -0.381472 -0.74166 1 
0.0895 0.2332 0.0447 -0.386692 -0.597315 -0.702627 1 
0.0894 0.235 0.0431 -0.514599 -0.218361 -0.82916 1 
0.0888 0.2349 0.0435 -0.548935 -0.216806 -0.807258 1 
0.0885 0.2352 0.0435 -0.526796 -0.228841 -0.818607 1 
0.0888 0.2346 0.0439 -0.537833 -0.257224 -0.802852 1 
0.0885 0.235 0.0438 -0.513672 -0.245267 -0.822183 1 
0.0885 0.2352 0.0438 -0.521964 -0.232497 -0.820669 1 
0.0885 0.235 0.0439 -0.524877 -0.256987 -0.811457 1 
0.0891 0.235 0.0439 -0.546645 -0.25074 -0.798942 1 
0.0895 0.2352 0.0438 -0.527945 -0.246168 -0.812819 1 
0.0894 0.235 0.0439 -0.545477 -0.268808 -0.79385 1 
0.0882 0.2337 0.0445 -0.477554 -0.480859 -0.735334 1 
0.0892 0.234 0.0441 -0.554988 -0.347879 -0.755625 1 
0.0891 0.2341 0.0442 -0.556345 -0.337032 -0.759532 1 
0.0895 0.2344 0.0447 -0.620875 -0.308018 -0.72086 1 
0.0888 0.2346 0.0442 -0.53004 -0.292709 -0.795851 1 
0.0888 0.235 0.0441 -0.522327 -0.295091 -0.80006 1 
0.0886 0.2344 0.0445 -0.527234 -0.365008 -0.767329 1 
0.0892 0.235 0.0441 -0.555289 -0.280017 -0.783099 1 
0.0892 0.2347 0.0447 -0.591733 -0.30629 -0.74568 1 
0.0891 0.235 0.0445 -0.553816 -0.319448 -0.768922 1 
0.0885 0.2353 0.0433 -0.547386 -0.199743 -0.812694 1 
0.0889 0.2356 0.0439 -0.548935 -0.216806 -0.807258 1 
0.0894 0.2355 0.0439 -0.547575 -0.216269 -0.808325 1 
0.0891 0.2358 0.0439 -0.56341 -0.200018 -0.8016 1 
0.0894 0.2367 0.0433 -0.537009 -0.0750962 -0.840227 1 
0.0886 0.2359 0.0441 -0.517635 -0.242593 -0.82049 1 
0.0891 0.2355 0.0442 -0.561221 -0.248563 -0.789461 1 
0.0894 0.2358 0.0441 -0.559898 -0.207086 -0.802265 1 
0.0894 0.2358 0.0442 -0.559898 -0.207086 -0.802265 1 
0.0883 0.2362 0.0442 -0.489185 -0.274876 -0.827733 1 
0.0883 0.2364 0.0442 -0.490751 -0.247683 -0.835354 1 
0.0885 0.2365 0.0441 -0.489838 -0.230422 -0.840812 1 
0.0886 0.2364 0.0447 -0.486777 -0.361468 -0.795229 1 
0.0888 0.2362 0.0441 -0.523616 -0.225723 -0.821508 1 
0.0894 0.2362 0.0441 -0.561934 -0.180243 -0.807306 1 
0.0895 0.2365 0.0442 -0.554102 -0.159809 -0.816965 1 
0.0888 0.2367 0.0447 -0.510097 -0.245031 -0.824476 1 
0.0882 0.2368 0.0442 -0.473185 -0.198529 -0.858302 1 
0.0886 0.2368 0.0441 -0.52203 -0.188051 -0.831938 1 
0.0888 0.237 0.0445 -0.493994 -0.206964 -0.844473 1 
0.0888 0.237 0.0444 -0.50238 -0.203668 -0.840318 1 
0.0891 0.237 0.0442 -0.527256 -0.178756 -0.830691 1 
0.0877 0.2335 0.045 -0.418744 -0.574325 -0.703424 1 
0.0877 0.2332 0.0454 -0.409388 -0.591706 -0.694468 1 
0.0883 0.2335 0.0456 -0.459466 -0.583104 -0.669985 1 
0.0885 0.2332 0.046 -0.510368 -0.560899 -0.651856 1 
0.0883 0.2335 0.0462 -0.456053 -0.589695 -0.666539 1 
0.0882 0.2332 0.0465 -0.481552 -0.592293 -0.645985 1 
0.0882 0.2334 0.0469 -0.517988 -0.675563 -0.524693 1 
0.0879 0.2344 0.0451 -0.433905 -0.476477 -0.764655 1 
0.0879 0.2337 0.0453 -0.41972 -0.575664 -0.701745 1 
0.0877 0.2344 0.0453 -0.40252 -0.493779 -0.770817 1 
0.0879 0.2346 0.045 -0.443386 -0.433641 -0.784452 1 
0.0879 0.2347 0.0451 -0.44064 -0.44064 -0.782095 1 
0.0879 0.235 0.045 -0.441603 -0.448121 -0.777286 1 
0.0877 0.2346 0.0454 -0.36472 -0.523576 -0.769965 1 
0.0876 0.2349 0.0454 -0.380092 -0.490076 -0.784446 1 
0.0879 0.2341 0.0459 -0.381648 -0.568377 -0.728898 1 
0.0882 0.2341 0.0451 -0.474046 -0.451082 -0.756178 1 
0.088 0.2343 0.0454 -0.430662 -0.489612 -0.758162 1 
0.0894 0.2338 0.0451 -0.579327 -0.492008 -0.649853 1 
0.0889 0.2344 0.0448 -0.551261 -0.341103 -0.76142 1 
0.0891 0.2341 0.0451 -0.576229 -0.379228 -0.72398 1 
0.0885 0.2344 0.0451 -0.506618 -0.414804 -0.755828 1 
0.0886 0.2346 0.0451 -0.513845 -0.421911 -0.746963 1 
0.0886 0.2349 0.0448 -0.511578 -0.406974 -0.756743 1 
0.0889 0.2346 0.0451 -0.576345 -0.34256 -0.741943 1 
0.0883 0.2341 0.0457 -0.433168 -0.552663 -0.711989 1 
0.088 0.2338 0.0462 -0.377938 -0.567725 -0.731335 1 
0.0871 0.2359 0.045 -0.453645 -0.38632 -0.803096 1 
0.0874 0.2353 0.0451 -0.412975 -0.42583 -0.80506 1 
0.0874 0.2356 0.045 -0.439089 -0.410138 -0.799367 1 
0.0865 0.2361 0.045 -0.451261 -0.313853 -0.83538 1 
0.0885 0.2358 0.0451 -0.465725 -0.498873 -0.730907 1 
0.0879 0.234 0.0465 -0.319093 -0.559615 -0.76486 1 
0.088 0.2338 0.0468 -0.368457 -0.581343 -0.725451 1 
0.0883 0.2338 0.0469 -0.495825 -0.586586 -0.64037 1 
0.0897 0.2332 0.0439 -0.558309 -0.37821 -0.738409 1 
0.0897 0.2335 0.0439 -0.549748 -0.370305 -0.748767 1 
0.09 0.2335 0.0439 -0.467746 -0.406243 -0.784972 1 
0.0906 0.2329 0.0439 -0.447994 -0.396611 -0.80125 1 
0.0898 0.2323 0.0442 -0.707106 -0.425588 -0.564691 1 
0.0898 0.2326 0.0441 -0.416975 -0.532343 -0.736711 1 
0.0901 0.2323 0.0445 -0.502775 -0.553221 -0.664201 1 
0.0898 0.2328 0.0447 -0.436704 -0.566221 -0.699059 1 
0.0907 0.2326 0.0442 -0.721913 -0.353623 -0.594804 1 
0.0897 0.2329 0.0441 -0.457144 -0.526963 -0.71647 1 
0.0898 0.2329 0.0444 -0.4864 -0.539887 -0.686977 1 
0.0897 0.2332 0.0441 -0.558309 -0.37821 -0.738409 1 
0.0897 0.2335 0.0444 -0.561354 -0.418946 -0.713698 1 
0.0898 0.2329 0.0447 -0.440589 -0.570272 -0.693304 1 
0.0897 0.2332 0.0445 -0.674267 -0.399259 -0.621254 1 
0.0906 0.2332 0.0444 -0.494284 -0.412719 -0.765079 1 
0.0906 0.2334 0.0441 -0.446185 -0.363617 -0.817742 1 
0.09 0.2344 0.0431 -0.453113 -0.300518 -0.839272 1 
0.0907 0.2343 0.043 -0.40177 -0.336618 -0.851628 1 
0.09 0.2346 0.0431 -0.460557 -0.28998 -0.838927 1 
0.0903 0.2347 0.043 -0.447523 -0.295768 -0.843946 1 
0.0906 0.2347 0.0425 -0.393803 -0.259042 -0.881939 1 
0.091 0.2347 0.0427 -0.403173 -0.270292 -0.874296 1 
0.0909 0.2344 0.0428 -0.391512 -0.300109 -0.869858 1 
0.0909 0.2347 0.0428 -0.395993 -0.269516 -0.87781 1 
0.0906 0.235 0.043 -0.419432 -0.276063 -0.864793 1 
0.0906 0.2352 0.043 -0.432347 -0.228889 -0.872173 1 
0.0907 0.2352 0.043 -0.414997 -0.244204 -0.876437 1 
0.0909 0.235 0.0428 -0.396187 -0.249673 -0.883572 1 
0.0918 0.2338 0.0424 -0.25347 -0.344309 -0.903994 1 
0.0927 0.234 0.0427 -0.212221 -0.270478 -0.939044 1 
0.0921 0.2343 0.0427 -0.261856 -0.35358 -0.898005 1 
0.0927 0.2341 0.043 -0.254124 -0.318017 -0.913393 1 
0.0919 0.2349 0.0428 -0.340158 -0.263586 -0.902671 1 
0.0916 0.2352 0.0428 -0.414209 -0.24075 -0.877764 1 
0.0919 0.235 0.0431 -0.416924 -0.303077 -0.856924 1 
0.0925 0.2344 0.0427 -0.20909 -0.198436 -0.957551 1 
0.0921 0.2347 0.043 -0.314636 -0.293956 -0.902548 1 
0.0921 0.235 0.0431 -0.340158 -0.263586 -0.902671 1 
0.0925 0.2349 0.043 -0.22867 -0.1279 -0.965066 1 
0.0901 0.2353 0.0431 -0.489875 -0.19625 -0.849417 1 
0.091 0.2353 0.0427 -0.41103 -0.227031 -0.882899 1 
0.091 0.2356 0.0424 -0.368572 -0.137693 -0.919345 1 
0.0904 0.2353 0.043 -0.457354 -0.204096 -0.865547 1 
0.0909 0.2353 0.0431 -0.406157 -0.217109 -0.887637 1 
0.091 0.2353 0.0431 -0.399487 -0.233158 -0.886593 1 
0.0906 0.2358 0.0431 -0.45068 -0.152159 -0.879622 1 
0.09 0.2365 0.0431 -0.510647 -0.107883 -0.852996 1 
0.0915 0.2353 0.0428 -0.442489 -0.223494 -0.868478 1 
0.0915 0.2356 0.0428 -0.392856 -0.167142 -0.904283 1 
0.0918 0.2356 0.0431 -0.411928 -0.184858 -0.892268 1 
0.0921 0.2355 0.0425 -0.201714 -0.0721281 -0.976785 1 
0.0903 0.2343 0.0439 -0.463734 -0.322256 -0.825289 1 
0.0897 0.2346 0.0433 -0.489716 -0.216809 -0.844495 1 
0.09 0.2346 0.0435 -0.481787 -0.240129 -0.842745 1 
0.09 0.235 0.0434 -0.487533 -0.212824 -0.846769 1 
0.0903 0.235 0.0434 -0.470018 -0.249553 -0.846644 1 
0.0897 0.2347 0.0436 -0.500389 -0.217494 -0.838038 1 
0.09 0.2347 0.0439 -0.506211 -0.217382 -0.834563 1 
0.09 0.2338 0.0442 -0.501167 -0.381147 -0.77689 1 
0.0903 0.2338 0.0442 -0.461025 -0.380707 -0.801573 1 
0.0897 0.2347 0.0441 -0.527016 -0.242644 -0.81448 1 
0.0898 0.2349 0.0442 -0.515556 -0.221827 -0.827644 1 
0.0898 0.2346 0.0447 -0.583955 -0.287999 -0.758982 1 
0.0921 0.2347 0.0433 -0.411457 -0.330719 -0.84931 1 
0.0901 0.2356 0.0433 -0.497213 -0.193778 -0.845712 1 
0.0897 0.2353 0.0439 -0.503944 -0.217716 -0.835847 1 
0.0906 0.2356 0.0433 -0.460548 -0.178039 -0.869596 1 
0.0909 0.2358 0.0433 -0.432702 -0.160635 -0.887111 1 
0.09 0.2362 0.0433 -0.50021 -0.157883 -0.851389 1 
0.0897 0.2353 0.0442 -0.524382 -0.245949 -0.815189 1 
0.0912 0.2362 0.0433 -0.460891 -0.204343 -0.863611 1 
0.0933 0.2349 0.0427 0.0293595 0.193773 -0.980607 1 
0.0906 0.2374 0.0427 -0.517894 -0.0513729 -0.853901 1 
0.0906 0.2371 0.0428 -0.499387 -0.0426474 -0.865329 1 
0.0906 0.2368 0.043 -0.429405 -0.027918 -0.902681 1 
0.0903 0.2377 0.0427 -0.56104 -0.150305 -0.814029 1 
0.0903 0.2377 0.043 -0.526202 -0.117417 -0.842214 1 
0.09 0.2335 0.045 -0.616589 -0.472102 -0.63003 1 
0.0903 0.2334 0.0454 -0.554326 -0.517258 -0.652049 1 
0.0901 0.2346 0.045 -0.576831 -0.301997 -0.758988 1 
0.09 0.235 0.045 -0.579271 -0.255884 -0.773931 1 
0.0909 0.2338 0.0457 -0.637011 -0.453097 -0.623635 1 
0.082 0.2358 0.0495 -0.305489 0.323371 -0.895605 1 
0.082 0.2364 0.0495 -0.296136 0.310869 -0.903141 1 
0.0823 0.2365 0.0495 -0.29765 0.345513 -0.889958 1 
0.0825 0.2368 0.0492 -0.298193 0.39912 -0.867055 1 
0.0829 0.2365 0.0489 -0.299091 0.356203 -0.885248 1 
0.0826 0.2362 0.0495 -0.302146 0.353255 -0.885392 1 
0.0826 0.2364 0.0495 -0.294208 0.366628 -0.882624 1 
0.0829 0.2362 0.0493 -0.294135 0.344899 -0.891364 1 
0.0832 0.2362 0.0493 -0.275879 0.362371 -0.890269 1 
0.0829 0.2368 0.0493 -0.276544 0.397437 -0.874967 1 
0.0831 0.2367 0.0493 -0.26672 0.396313 -0.878519 1 
0.0829 0.2364 0.0495 -0.292506 0.358507 -0.886517 1 
0.0809 0.2358 0.0501 -0.320964 0.237484 -0.916833 1 
0.0806 0.2362 0.0499 -0.318378 0.237703 -0.917678 1 
0.0806 0.2364 0.0499 -0.3165 0.227708 -0.920857 1 
0.0808 0.2367 0.0499 -0.334427 0.216732 -0.917162 1 
0.0806 0.2362 0.0501 -0.314951 0.237292 -0.918966 1 
0.0809 0.2362 0.0498 -0.346727 0.244318 -0.905587 1 
0.0814 0.2361 0.0496 -0.331865 0.278766 -0.901197 1 
0.0814 0.2364 0.0496 -0.312667 0.286244 -0.905706 1 
0.0808 0.2367 0.0498 -0.334427 0.216732 -0.917162 1 
0.0809 0.2368 0.0498 -0.33086 0.232614 -0.914561 1 
0.0813 0.2365 0.0496 -0.317863 0.297165 -0.900365 1 
0.0813 0.2364 0.0501 -0.315837 0.280581 -0.906378 1 
0.0808 0.2365 0.0502 -0.316083 0.208359 -0.925569 1 
0.0805 0.2362 0.0504 -0.293972 0.231485 -0.927359 1 
0.0808 0.2364 0.0504 -0.316083 0.208359 -0.925569 1 
0.0823 0.2359 0.0496 -0.295476 0.325172 -0.898308 1 
0.0819 0.2362 0.0499 -0.288203 0.276617 -0.916745 1 
0.0817 0.2365 0.0498 -0.296406 0.308204 -0.903966 1 
0.0822 0.2365 0.0498 -0.280801 0.321966 -0.904151 1 
0.0838 0.2352 0.0475 -0.0179757 -0.808904 0.587665 1 
0.0847 0.2347 0.0475 -0.852411 0.0231856 -0.522358 1 
0.0846 0.235 0.0475 -0.0200658 -0.886907 0.461513 1 
0.0844 0.2346 0.0477 -0.809503 -0.573582 -0.125333 1 
0.0841 0.2347 0.0478 -0.907267 -0.323919 -0.268223 1 
0.0843 0.2352 0.0477 0.0407016 -0.809822 0.585262 1 
0.0841 0.235 0.0478 -0.00136491 -0.806665 0.591008 1 
0.085 0.2344 0.0474 -0.806724 0.186868 -0.560604 1 
0.0852 0.2346 0.0477 -0.670084 -0.734884 -0.104563 1 
0.0852 0.2347 0.048 -0.793994 -0.59733 -0.113008 1 
0.084 0.2353 0.0478 0.00686231 -0.800146 0.599766 1 
0.0841 0.2356 0.0475 -0.878334 -0.3855 -0.2827 1 
0.0841 0.2356 0.0478 -0.844318 -0.455345 -0.282468 1 
0.0841 0.2358 0.0477 -0.851833 -0.449707 -0.268596 1 
0.0844 0.2358 0.0478 -0.85418 -0.455258 -0.251229 1 
0.0847 0.2359 0.048 -0.83084 -0.514908 -0.211128 1 
0.0837 0.2343 0.0483 -0.854296 -0.494282 -0.160826 1 
0.0838 0.2338 0.0486 -0.831835 -0.555009 0.00407097 1 
0.0843 0.2341 0.0484 -0.861589 -0.502944 -0.0686469 1 
0.0838 0.2346 0.0481 -0.893449 -0.374863 -0.247439 1 
0.084 0.2344 0.0483 -0.878893 -0.420858 -0.224556 1 
0.084 0.235 0.0481 -0.87849 -0.400952 -0.259793 1 
0.0838 0.235 0.0483 -0.822719 -0.549962 -0.143791 1 
0.0835 0.2344 0.0486 -0.816838 -0.523456 -0.242426 1 
0.0837 0.2347 0.0486 -0.825563 -0.443563 -0.348852 1 
0.0841 0.2347 0.0481 -0.90422 -0.362561 -0.225691 1 
0.0844 0.2346 0.0487 -0.835222 -0.547984 -0.0460139 1 
0.0844 0.2344 0.0484 -0.883966 -0.454005 -0.111733 1 
0.084 0.2341 0.0489 -0.778432 -0.621876 -0.085526 1 
0.0841 0.2341 0.0489 -0.806698 -0.585252 -0.081964 1 
0.084 0.2344 0.0492 -0.805199 -0.591603 -0.0407518 1 
0.0835 0.235 0.0489 0.304155 -0.318991 0.897627 1 
0.0856 0.2338 0.0481 -0.558076 -0.827977 -0.0548236 1 
0.0852 0.2352 0.0481 -0.8413 -0.513714 -0.16826 1 
0.0852 0.2347 0.0486 -0.759622 -0.648874 0.0440155 1 
0.0849 0.2347 0.0487 -0.797599 -0.602723 0.0236635 1 
0.0859 0.2346 0.0484 -0.547877 -0.836233 -0.0233431 1 
0.0838 0.2358 0.0483 -0.32689 -0.839905 0.433247 1 
0.0841 0.2356 0.0481 -0.816838 -0.523456 -0.242426 1 
0.0841 0.2358 0.0481 -0.836368 -0.456343 -0.303709 1 
0.0843 0.2359 0.0481 -0.821505 -0.507811 -0.259341 1 
0.0841 0.2358 0.0483 -0.824446 -0.455574 -0.335769 1 
0.0844 0.2358 0.0483 -0.809915 -0.546578 -0.212813 1 
0.0844 0.2355 0.0487 -0.809697 -0.503496 -0.301466 1 
0.0847 0.2353 0.0484 -0.850506 -0.493025 -0.183209 1 
0.0841 0.2358 0.0486 -0.805847 -0.480317 -0.346275 1 
0.0844 0.2358 0.0486 -0.814205 -0.465033 -0.347584 1 
0.0835 0.2361 0.0487 -0.330983 0.380245 -0.863634 1 
0.0838 0.2364 0.0487 -0.379826 0.355021 -0.854221 1 
0.0847 0.2361 0.0483 -0.802605 -0.557066 -0.213312 1 
0.0841 0.2361 0.0487 -0.582324 -0.790188 0.191051 1 
0.0843 0.2362 0.0487 -0.550919 -0.804002 0.223762 1 
0.0844 0.2362 0.0484 -0.831526 -0.257634 -0.492128 1 
0.0846 0.2361 0.0487 -0.832862 -0.363688 -0.417218 1 
0.0841 0.2367 0.0487 -0.530338 0.229045 -0.81626 1 
0.0841 0.2358 0.049 0.493293 -0.180327 0.850967 1 
0.0846 0.2355 0.0493 -0.791197 -0.412587 -0.451419 1 
0.0835 0.2364 0.0489 -0.303435 0.357781 -0.883131 1 
0.0834 0.2365 0.0489 -0.252473 0.39589 -0.882909 1 
0.0834 0.2364 0.049 -0.264043 0.377417 -0.887602 1 
0.0835 0.2368 0.0492 -0.233827 0.406591 -0.883181 1 
0.0838 0.2365 0.0489 -0.322281 0.368103 -0.872144 1 
0.0838 0.2364 0.0489 -0.340465 0.377438 -0.861176 1 
0.0838 0.2368 0.0489 -0.272629 0.393128 -0.878137 1 
0.0846 0.2364 0.0489 -0.684371 -0.0153321 -0.728973 1 
0.0843 0.2368 0.0489 -0.455583 0.300094 -0.838086 1 
0.0843 0.2368 0.049 -0.365225 0.352897 -0.861438 1 
0.0846 0.2365 0.0492 -0.38266 0.309482 -0.870513 1 
0.0843 0.2368 0.0495 -0.231691 0.420033 -0.877435 1 
0.085 0.2362 0.0481 -0.832895 -0.510091 -0.214695 1 
0.0849 0.2364 0.0483 -0.842803 -0.437759 -0.31313 1 
0.0852 0.2365 0.0483 -0.835585 -0.475927 -0.274394 1 
0.085 0.2361 0.0486 -0.840234 -0.438044 -0.319569 1 
0.0849 0.2362 0.0486 -0.849515 -0.408451 -0.333904 1 
0.084 0.235 0.0498 0.148238 -0.344966 0.926836 1 
0.0847 0.2349 0.0498 -0.525453 -0.47541 0.705609 1 
0.0855 0.2364 0.0499 -0.669816 -0.650164 0.358655 1 
0.0831 0.237 0.0487 -0.247424 0.450827 -0.857634 1 
0.0822 0.2368 0.0495 -0.290926 0.341651 -0.893665 1 
0.0825 0.237 0.0495 -0.293285 0.359463 -0.885873 1 
0.0825 0.237 0.0495 -0.293285 0.359463 -0.885873 1 
0.0831 0.237 0.0493 -0.261971 0.422485 -0.867685 1 
0.0832 0.237 0.0493 -0.263659 0.405281 -0.875347 1 
0.0831 0.237 0.0495 -0.269516 0.395993 -0.87781 1 
0.0829 0.237 0.0495 -0.27807 0.405708 -0.870677 1 
0.0826 0.2374 0.0495 -0.292041 0.354942 -0.888104 1 
0.0829 0.2373 0.0493 -0.289014 0.385856 -0.87612 1 
0.0811 0.237 0.0498 -0.305722 0.285243 -0.908389 1 
0.0813 0.2371 0.0498 -0.308204 0.296406 -0.903966 1 
0.0808 0.2368 0.0501 -0.334427 0.216732 -0.917162 1 
0.0813 0.2371 0.0501 -0.292414 0.304169 -0.906629 1 
0.0814 0.2368 0.0504 -0.296691 0.287922 -0.910536 1 
0.0819 0.2368 0.0496 -0.291205 0.323725 -0.900223 1 
0.0819 0.237 0.0496 -0.291205 0.323725 -0.900223 1 
0.0823 0.237 0.0498 -0.282298 0.308626 -0.908327 1 
0.0823 0.2376 0.0498 -0.277131 0.315255 -0.907641 1 
0.0823 0.2374 0.0498 -0.281758 0.328963 -0.90133 1 
0.0822 0.2374 0.0501 -0.276395 0.314418 -0.908156 1 
0.0828 0.2371 0.0496 -0.293285 0.359463 -0.885873 1 
0.0828 0.2376 0.0496 -0.283626 0.364661 -0.886893 1 
0.0822 0.2376 0.0499 -0.284261 0.322555 -0.902859 1 
0.0822 0.238 0.0499 -0.288002 0.320495 -0.902407 1 
0.082 0.2382 0.0499 -0.275188 0.301396 -0.912925 1 
0.0826 0.2377 0.0498 -0.279038 0.329236 -0.902076 1 
0.0825 0.2382 0.0499 -0.265881 0.336391 -0.903409 1 
0.0826 0.237 0.0505 -0.269323 0.283725 -0.920307 1 
0.082 0.2382 0.0504 -0.28155 0.299055 -0.911754 1 
0.0823 0.2386 0.0499 -0.253451 0.317176 -0.913872 1 
0.082 0.2386 0.0501 -0.256837 0.317782 -0.912715 1 
0.082 0.2388 0.0501 -0.256626 0.31172 -0.914863 1 
0.0823 0.2388 0.0501 -0.23222 0.327416 -0.9159 1 
0.0826 0.2391 0.0502 -0.206704 0.368598 -0.906316 1 
0.0823 0.2391 0.0504 -0.174374 0.322243 -0.930459 1 
0.0834 0.237 0.049 -0.228281 0.42523 -0.875824 1 
0.0837 0.2368 0.0492 -0.230766 0.41538 -0.87989 1 
0.0838 0.237 0.0492 -0.234485 0.41371 -0.879694 1 
0.0835 0.237 0.0493 -0.231084 0.418933 -0.87812 1 
0.084 0.237 0.0493 -0.218024 0.416768 -0.882479 1 
0.0835 0.2373 0.0493 -0.227219 0.446915 -0.865239 1 
0.0838 0.2374 0.0495 -0.212963 0.442308 -0.871212 1 
0.0844 0.237 0.0492 -0.209003 0.47364 -0.85556 1 
0.0841 0.2368 0.0493 -0.237598 0.410939 -0.880157 1 
0.0843 0.237 0.0493 -0.208225 0.468881 -0.858367 1 
0.0847 0.237 0.0493 -0.206063 0.479811 -0.85283 1 
0.0844 0.2374 0.0493 -0.108685 0.537628 -0.836148 1 
0.0841 0.2373 0.0495 -0.178709 0.465234 -0.86696 1 
0.0832 0.2376 0.0495 -0.237959 0.420544 -0.87551 1 
0.0835 0.2376 0.0495 -0.238282 0.424112 -0.8737 1 
0.085 0.2368 0.0487 -0.564551 0.227367 -0.793465 1 
0.085 0.237 0.049 -0.299174 0.484003 -0.822336 1 
0.0856 0.2371 0.0493 -0.779222 -0.324809 -0.536015 1 
0.0835 0.2373 0.0496 -0.233494 0.403037 -0.884897 1 
0.0838 0.2374 0.0496 -0.226712 0.407489 -0.884621 1 
0.0835 0.2376 0.0498 -0.231867 0.391367 -0.890545 1 
0.0834 0.2382 0.0498 -0.220945 0.376045 -0.899874 1 
0.0835 0.2379 0.0501 -0.213343 0.370085 -0.904169 1 
0.0834 0.2383 0.0501 -0.220605 0.372545 -0.901412 1 
0.0835 0.2374 0.0505 -0.212351 0.323514 -0.922088 1 
0.0835 0.2386 0.0504 -0.171047 0.398152 -0.901231 1 
0.0892 0.2281 0.0478 -0.504088 -0.632218 0.588384 1 
0.0888 0.2285 0.0477 -0.681074 -0.719993 0.133221 1 
0.0886 0.23 0.0465 -0.627826 -0.486439 -0.607628 1 
0.0892 0.2299 0.0468 -0.464392 -0.591806 -0.658867 1 
0.0886 0.2296 0.0475 -0.691093 -0.537145 -0.483598 1 
0.0892 0.2297 0.0474 -0.611546 -0.638354 -0.467456 1 
0.0894 0.2285 0.0481 -0.27587 -0.494072 0.824493 1 
0.0883 0.2293 0.0483 -0.5721 -0.704761 0.41954 1 
0.0894 0.2291 0.0483 -0.28664 -0.667759 0.686975 1 
0.0891 0.229 0.0484 -0.308041 -0.656401 0.688657 1 
0.0894 0.2291 0.0486 -0.255358 -0.674081 0.693114 1 
0.0892 0.2294 0.0487 -0.279639 -0.63438 0.720669 1 
0.088 0.2297 0.0483 -0.514965 -0.60614 0.60614 1 
0.0883 0.2299 0.0486 -0.427137 -0.599987 0.676439 1 
0.0886 0.2297 0.0487 -0.384753 -0.629146 0.675382 1 
0.0895 0.2297 0.0487 -0.279072 -0.636284 0.719209 1 
0.0891 0.2296 0.0489 -0.318384 -0.628687 0.709495 1 
0.0885 0.23 0.0489 -0.385653 -0.559607 0.733561 1 
0.0888 0.2303 0.0489 -0.391902 -0.620097 0.679627 1 
0.0892 0.2299 0.0489 -0.336148 -0.615458 0.712893 1 
0.0891 0.2302 0.0489 -0.362631 -0.621888 0.694085 1 
0.0873 0.2302 0.0496 0.44371 0.0587062 0.894246 1 
0.09 0.2291 0.0466 0.562943 -0.217465 -0.797373 1 
0.09 0.2302 0.0465 0.152185 -0.634356 -0.757913 1 
0.0898 0.2302 0.0471 0.809104 0.229631 -0.540944 1 
0.0897 0.2278 0.0481 -0.182818 -0.428526 0.884841 1 
0.0897 0.2282 0.0483 -0.182796 -0.39006 0.902463 1 
0.09 0.2281 0.0484 -0.143073 -0.406555 0.902354 1 
0.09 0.2284 0.0487 -0.140714 -0.4193 0.896876 1 
0.0903 0.2285 0.0484 -0.169789 -0.380955 0.90887 1 
0.0909 0.2284 0.0484 -0.0820721 -0.372688 0.92432 1 
0.0906 0.2287 0.0484 -0.17901 -0.382365 0.906506 1 
0.0912 0.2284 0.0484 -0.101586 -0.358937 0.927817 1 
0.0915 0.2272 0.0483 0.00337492 -0.163121 0.9866 1 
0.0919 0.2284 0.0481 -0.00617111 -0.307321 0.951586 1 
0.0916 0.2287 0.0483 -0.040056 -0.347583 0.936793 1 
0.0921 0.2281 0.0481 0.118689 -0.218234 0.968652 1 
0.0903 0.2291 0.0487 -0.241562 -0.571957 0.783909 1 
0.0912 0.2294 0.0486 -0.137269 -0.361891 0.922059 1 
0.09 0.2296 0.0487 -0.304812 -0.637041 0.708003 1 
0.0901 0.2297 0.0487 -0.344601 -0.63204 0.694101 1 
0.0909 0.2299 0.0486 -0.0230096 -0.496736 0.867597 1 
0.0912 0.2299 0.0487 0.190192 -0.358934 0.91378 1 
0.09 0.2299 0.0489 -0.274831 -0.611618 0.741884 1 
0.0903 0.2299 0.0489 0.0524723 -0.421124 0.905484 1 
0.09 0.2302 0.0493 -0.20593 -0.54457 0.813041 1 
0.0903 0.2303 0.0493 -0.162418 -0.528975 0.83295 1 
0.0906 0.2302 0.049 0.539187 0.0374243 0.841354 1 
0.0909 0.2302 0.0489 0.446748 -0.0673558 0.892121 1 
0.0909 0.2303 0.0492 0.147593 -0.375307 0.915074 1 
0.0919 0.229 0.0483 -0.0584093 -0.325794 0.943635 1 
0.0913 0.2296 0.0484 -0.212178 -0.387774 0.897002 1 
0.0915 0.2299 0.0487 0.017208 -0.443437 0.89614 1 
0.0918 0.2299 0.0484 -0.252796 -0.307689 0.91729 1 
0.0891 0.2314 0.0463 -0.725734 -0.393312 -0.56446 1 
0.0886 0.2326 0.0462 -0.634566 -0.510009 -0.580704 1 
0.0886 0.2319 0.0466 -0.588264 -0.520841 -0.618604 1 
0.0892 0.2317 0.0465 -0.63536 -0.471072 -0.61189 1 
0.0885 0.2311 0.0474 -0.67337 -0.545749 -0.49873 1 
0.0885 0.2305 0.0478 -0.721039 -0.573217 -0.389262 1 
0.0883 0.2317 0.0472 -0.650264 -0.589774 -0.478877 1 
0.0882 0.2314 0.0477 -0.812702 -0.419923 -0.403956 1 
0.0885 0.2323 0.0465 -0.63781 -0.509911 -0.577226 1 
0.0891 0.232 0.0468 -0.63211 -0.557942 -0.537715 1 
0.0894 0.232 0.0468 -0.731846 -0.513779 -0.447698 1 
0.0895 0.232 0.0466 -0.669761 -0.413823 -0.616579 1 
0.0885 0.2329 0.0468 -0.556701 -0.570238 -0.60408 1 
0.0871 0.2311 0.0483 -0.85338 -0.465342 -0.234945 1 
0.0874 0.2308 0.0486 0.649195 0.0410167 0.759515 1 
0.0876 0.2311 0.0486 -0.875205 -0.469726 -0.115647 1 
0.0877 0.2317 0.0481 -0.906464 -0.283546 -0.312929 1 
0.0873 0.2317 0.0486 -0.932334 -0.269404 -0.241194 1 
0.0868 0.2308 0.0489 0.518163 -0.0572633 0.853363 1 
0.0879 0.2306 0.0489 -0.751166 -0.655642 -0.0767086 1 
0.0876 0.2308 0.0489 -0.785791 -0.610195 0.100968 1 
0.0879 0.2308 0.0492 -0.215851 -0.475476 0.852837 1 
0.0876 0.2309 0.0493 -0.191146 -0.454898 0.869788 1 
0.0871 0.2314 0.0489 0.045545 -0.350046 0.935625 1 
0.0874 0.2313 0.049 -0.101918 -0.428616 0.89772 1 
0.0877 0.232 0.0489 -0.0453008 -0.492818 0.868952 1 
0.0882 0.2305 0.0487 -0.618448 -0.718562 0.318105 1 
0.0882 0.2306 0.049 -0.735573 -0.675817 -0.0469515 1 
0.0885 0.2309 0.0489 -0.895532 -0.359693 -0.261999 1 
0.0882 0.2308 0.0493 -0.170286 -0.496051 0.851431 1 
0.0885 0.2309 0.0493 -0.147426 -0.488988 0.859742 1 
0.0886 0.2311 0.0495 -0.156505 -0.472439 0.867357 1 
0.0891 0.2308 0.0492 -0.20687 -0.499809 0.841068 1 
0.0888 0.2311 0.0492 0.331893 -0.255865 0.907954 1 
0.0888 0.2311 0.0495 -0.169405 -0.47286 0.8647 1 
0.0885 0.2316 0.0489 -0.822857 -0.511005 0.248555 1 
0.0895 0.2314 0.0493 -0.179677 -0.488544 0.853839 1 
0.0892 0.2314 0.0493 -0.121993 -0.480797 0.868304 1 
0.0894 0.2317 0.0495 -0.185323 -0.472945 0.861382 1 
0.0895 0.2317 0.0495 -0.169405 -0.47286 0.8647 1 
0.0876 0.2305 0.0496 -0.241516 -0.509183 0.826077 1 
0.0894 0.2308 0.0502 -0.132199 -0.42787 0.89412 1 
0.0889 0.2316 0.0496 -0.190888 -0.457243 0.868614 1 
0.0894 0.2317 0.0499 -0.200474 -0.452922 0.868719 1 
0.09 0.2308 0.0451 -0.866268 -0.239542 -0.438407 1 
0.0897 0.2311 0.0463 -0.773781 -0.408882 -0.483817 1 
0.0897 0.2308 0.0471 -0.556434 -0.718245 -0.417738 1 
0.09 0.2314 0.0465 -0.714242 -0.407432 -0.569085 1 
0.0897 0.2317 0.0465 -0.711394 -0.426173 -0.558834 1 
0.0903 0.2317 0.0465 -0.674771 -0.412821 -0.61177 1 
0.0906 0.2305 0.0487 -0.718999 -0.676436 0.159609 1 
0.0897 0.2305 0.0489 -0.751308 -0.50142 -0.429084 1 
0.0897 0.2308 0.0504 -0.0118146 -0.43189 0.901849 1 
0.0898 0.2317 0.0498 -0.170824 -0.442391 0.880403 1 
0.0898 0.2316 0.0505 -0.156798 -0.427238 0.890439 1 
0.0897 0.232 0.0498 -0.220625 -0.448755 0.865993 1 
0.0859 0.2329 0.0498 -0.424916 -0.340246 0.838856 1 
0.0871 0.2332 0.0495 -0.40842 -0.370574 0.834187 1 
0.0879 0.2329 0.0495 -0.29392 -0.464984 0.835105 1 
0.0871 0.2326 0.0498 -0.271431 -0.41397 0.868881 1 
0.0868 0.2325 0.0498 -0.289014 -0.385856 0.87612 1 
0.087 0.2326 0.0499 -0.23664 -0.406306 0.882563 1 
0.0865 0.2326 0.0501 -0.31833 -0.370116 0.872743 1 
0.0867 0.2326 0.0501 -0.262055 -0.384847 0.884997 1 
0.0874 0.2328 0.0498 -0.236391 -0.435141 0.868776 1 
0.0871 0.2329 0.0499 -0.276471 -0.391289 0.877757 1 
0.0868 0.2335 0.0496 -0.51087 -0.418881 0.7507 1 
0.087 0.2335 0.0499 -0.353456 -0.445386 0.822618 1 
0.0865 0.2332 0.0501 -0.364484 -0.321783 0.873846 1 
0.0873 0.2334 0.0498 -0.30908 -0.439545 0.843368 1 
0.0879 0.2334 0.0496 -0.302268 -0.471412 0.828495 1 
0.0879 0.2335 0.0499 -0.261578 -0.490652 0.831167 1 
0.0894 0.2328 0.0504 -0.316366 -0.434808 0.843122 1 
0.0883 0.2332 0.0499 -0.268225 -0.45215 0.850656 1 
0.0883 0.2335 0.0501 -0.232283 -0.475193 0.848667 1 
0.088 0.2335 0.0502 -0.252488 -0.463659 0.849276 1 
0.0886 0.2334 0.0501 -0.259549 -0.465344 0.84622 1 
0.0886 0.2335 0.0502 -0.298854 -0.480357 0.824587 1 
0.0891 0.2329 0.0499 -0.306266 -0.439966 0.844175 1 
0.0894 0.2329 0.0499 -0.312733 -0.434092 0.844845 1 
0.0888 0.2332 0.0501 -0.284301 -0.43183 0.855976 1 
0.0889 0.2334 0.0504 -0.281432 -0.444448 0.850448 1 
0.0891 0.2332 0.0502 -0.285034 -0.439107 0.852021 1 
0.0891 0.2329 0.0505 -0.285034 -0.439107 0.852021 1 
0.0856 0.2341 0.0498 -0.406768 -0.872511 -0.270675 1 
0.0856 0.2341 0.0501 -0.323318 0.21507 0.921526 1 
0.0862 0.2338 0.0498 -0.289191 -0.897232 -0.333681 1 
0.0862 0.234 0.0501 -0.45456 -0.123971 0.882047 1 
0.0859 0.2344 0.0498 -0.336278 0.24311 0.909843 1 
0.0868 0.2341 0.0498 -0.194419 -0.941759 -0.274392 1 
0.0876 0.234 0.0499 -0.320329 -0.514758 0.795245 1 
0.0877 0.2337 0.0498 -0.327688 -0.482825 0.812096 1 
0.0877 0.2337 0.0501 -0.277666 -0.473117 0.836099 1 
0.0876 0.2341 0.0502 -0.277258 -0.47552 0.834871 1 
0.0873 0.2344 0.0502 -0.380351 -0.292461 0.877383 1 
0.0876 0.234 0.0505 -0.224297 -0.508102 0.831579 1 
0.0877 0.2338 0.0504 -0.230077 -0.492152 0.839554 1 
0.0873 0.2344 0.0505 -0.279995 -0.429938 0.858345 1 
0.0885 0.2338 0.0504 -0.263397 -0.469801 0.842561 1 
0.0888 0.2338 0.0505 -0.262784 -0.462561 0.846748 1 
0.0885 0.2338 0.0507 -0.265642 -0.462186 0.846061 1 
0.0888 0.2338 0.0508 -0.261836 -0.451705 0.85288 1 
0.0885 0.2338 0.051 -0.273965 -0.439262 0.855566 1 
0.0888 0.2341 0.051 -0.290673 -0.510641 0.80917 1 
0.0889 0.2338 0.0505 -0.265699 -0.456143 0.849316 1 
0.0889 0.234 0.0507 -0.293234 -0.457693 0.839363 1 
0.0894 0.2341 0.0506 -0.37308 -0.502286 0.780077 1 
0.0891 0.2341 0.051 -0.365286 -0.460994 0.808734 1 
0.0894 0.2341 0.051 -0.387642 -0.501178 0.773663 1 
0.0885 0.235 0.0511 -0.320241 -0.580939 0.748302 1 
0.0897 0.2328 0.0501 -0.352536 -0.444227 0.823638 1 
0.0891 0.2343 0.0513 -0.33335 -0.555583 0.761712 1 
0.0894 0.2341 0.0513 -0.388954 -0.506129 0.769771 1 
0.0894 0.2344 0.0516 -0.369809 -0.542496 0.754281 1 
0.0889 0.2347 0.0513 -0.348951 -0.559945 0.751462 1 
0.0891 0.235 0.0513 -0.369809 -0.542496 0.754281 1 
0.0882 0.2353 0.0513 -0.32763 -0.56972 0.753709 1 
0.0898 0.2341 0.0517 -0.350619 -0.541279 0.764253 1 
0.0906 0.2343 0.0517 -0.00682905 -0.575006 0.818121 1 
0.0888 0.2338 -0.0056 0.0324987 0.724863 -0.688126 0 
0.0889 0.2341 -0.0056 -0.0353315 0.750441 -0.659992 0 
0.0886 0.234 -0.0053 -0.138411 0.799211 -0.584897 0 
0.0886 0.234 -0.0052 -0.0606164 0.830303 -0.554005 0 
0.0886 0.234 -0.0049 -0.572944 0.774973 -0.266742 0 
0.0886 0.2343 -0.0049 -0.604102 0.757874 -0.246348 0 
0.0888 0.2341 -0.0053 -0.0606164 0.830303 -0.554005 0 
0.0891 0.2343 -0.0053 -0.0606164 0.830303 -0.554005 0 
0.0888 0.2341 -0.0052 -0.0606164 0.830303 -0.554005 0 
0.0888 0.2341 -0.0049 -0.819063 0.555423 -0.143669 0 
0.0888 0.2344 -0.005 -0.821402 0.551067 -0.14705 0 
0.0889 0.2347 -0.0052 -0.433661 0.811314 -0.392055 0 
0.0891 0.2347 -0.0049 -0.819063 0.555423 -0.143669 0 
0.0892 0.2346 -0.0049 -0.819063 0.555423 -0.143669 0 
0.0882 0.2343 -0.0047 -0.634 0.737319 -0.233249 0 
0.0885 0.2344 -0.0047 -0.634 0.737319 -0.233249 0 
0.0885 0.2344 -0.0047 -0.634 0.737319 -0.233249 0 
0.0883 0.2347 -0.0046 -0.660095 0.722221 -0.206571 0 
0.0886 0.2346 -0.0047 -0.652446 0.727189 -0.21333 0 
0.088 0.2346 -0.0043 -0.673534 0.713607 -0.192658 0 
0.0888 0.2347 -0.0043 -0.693405 0.70549 -0.146537 0 
0.0886 0.235 -0.0041 -0.678881 0.718192 -0.15271 0 
0.0888 0.2347 -0.0047 -0.661148 0.720263 -0.210012 0 
0.0892 0.2346 -0.0047 -0.819063 0.555423 -0.143669 0 
0.0894 0.2347 -0.0043 -0.790371 0.602676 -0.109977 0 
0.0895 0.2347 -0.0043 -0.932535 0.359858 -0.0296657 0 
0.0894 0.235 -0.0043 -0.932535 0.359858 -0.0296657 0 
0.0894 0.235 -0.0038 -0.713471 0.692791 -0.104879 0 
0.0886 0.2353 -0.0043 -0.693405 0.70549 -0.146537 0 
0.0888 0.2355 -0.0041 -0.693405 0.70549 -0.146537 0 
0.0889 0.2353 -0.0046 -0.856766 0.503727 -0.110504 0 
0.0889 0.2353 -0.0043 -0.693405 0.70549 -0.146537 0 
0.0894 0.2353 -0.0041 -0.790371 0.602676 -0.109977 0 
0.0888 0.2355 -0.0038 -0.681148 0.722699 -0.117235 0 
0.0888 0.2356 -0.0035 -0.663808 0.742589 -0.088994 0 
0.0888 0.2356 -0.0032 -0.656144 0.75132 -0.0706616 0 
0.0885 0.2356 -0.0035 -0.663808 0.742589 -0.088994 0 
0.0889 0.2353 -0.004 -0.705556 0.696568 -0.130326 0 
0.0891 0.2353 -0.0037 -0.681246 0.725387 -0.098582 0 
0.0891 0.2356 -0.0034 -0.663978 0.742779 -0.0860982 0 
0.0894 0.2353 -0.0035 -0.681246 0.725387 -0.098582 0 
0.0864 0.2347 -0.0002 -0.0486038 0.996919 -0.0615649 0 
0.0874 0.2344 -0.0025 -0.236928 0.970797 -0.0376655 0 
0.0876 0.2341 -0.0023 -0.183633 0.982842 0.0173239 0 
0.0876 0.2344 -0.0022 -0.16421 0.986394 0.00792739 0 
0.0876 0.2344 -0.0017 -0.0746214 0.994581 0.0723939 0 
0.0888 0.235 -0.0026 -0.427897 0.902743 -0.0442652 0 
0.0885 0.235 -0.0025 -0.378439 0.92434 -0.0487883 0 
0.0889 0.235 -0.0029 -0.656144 0.75132 -0.0706616 0 
0.0891 0.2347 -0.0025 -0.568151 0.822505 -0.0262649 0 
0.0894 0.235 -0.0025 -0.5669 0.823453 -0.0234484 0 
0.0885 0.2347 -0.0023 -0.301014 0.951717 -0.0602029 0 
0.0888 0.2347 -0.002 -0.141739 0.987488 0.0691125 0 
0.0888 0.2349 -0.0023 -0.339721 0.940277 -0.0216302 0 
0.0885 0.2349 -0.0019 -0.0763744 0.995081 0.0630919 0 
0.0889 0.2346 -0.0023 -0.42472 0.904372 -0.0415341 0 
0.0889 0.2347 -0.0019 -0.0827111 0.989038 0.122319 0 
0.0889 0.2347 -0.0017 -0.0784405 0.992443 0.094356 0 
0.0894 0.2344 -0.0019 -0.24542 0.956477 0.157865 0 
0.0888 0.2353 -0.0029 -0.63644 0.768612 -0.0646496 0 
0.0889 0.2353 -0.0031 -0.656144 0.75132 -0.0706616 0 
0.0894 0.2355 -0.0031 -0.63644 0.768612 -0.0646496 0 
0.0868 0.2347 -0.001 -0.053682 0.995857 -0.073402 0 
0.087 0.2344 -0.0007 -0.0488991 0.996455 -0.0684587 0 
0.0868 0.2347 -0.0005 -0.076543 0.995059 -0.0632312 0 
0.0865 0.2349 -0.0002 -0.0698902 0.995103 -0.0698902 0 
0.087 0.235 -0.0002 -0.0624525 0.995952 -0.0646438 0 
0.087 0.2352 -0.0001 -0.06258 0.99579 -0.0669716 0 
0.0885 0.2349 -0.0014 -0.0653178 0.995266 0.0719603 0 
0.0888 0.2349 -0.0011 -0.0984348 0.994302 0.0409223 0 
0.0889 0.2347 -0.0014 -0.0566822 0.994718 0.0855791 0 
0.0894 0.2344 -0.0014 -0.228688 0.967134 0.11115 0 
0.0891 0.2347 -0.0011 -0.119948 0.992091 0.0369932 0 
0.0888 0.235 -0.0008 -0.106647 0.994296 0.00107724 0 
0.0889 0.2347 -0.0008 -0.100676 0.994848 -0.0119079 0 
0.0897 0.2352 -0.0031 -0.63644 0.768612 -0.0646496 0 
0.0864 0.2347 0.0005 -0.098529 0.995035 -0.0140756 0 
0.0862 0.2341 0.003 -0.538688 0.840913 -0.05177 0 
0.0859 0.2346 0.0029 -0.550845 0.832607 -0.0577612 0 
0.0861 0.2344 0.0031 -0.554839 0.830152 -0.0547816 0 
0.0862 0.2347 0.0031 -0.553248 0.83058 -0.063673 0 
0.0859 0.2349 0.0029 -0.54067 0.839645 -0.051692 0 
0.0861 0.235 0.0028 -0.504328 0.863203 -0.0231094 0 
0.0865 0.2346 0.0002 -0.0412792 0.998111 -0.045513 0 
0.0868 0.235 0.0002 -0.0391657 0.998196 -0.0455169 0 
0.0879 0.235 0.0007 -0.0179114 0.997772 -0.0642704 0 
0.0879 0.2347 0.001 -0.0771395 0.996295 -0.0380265 0 
0.0876 0.2349 0.0008 -0.0848675 0.995264 -0.0473935 0 
0.0877 0.235 0.0011 -0.0997858 0.994568 -0.0296068 0 
0.0879 0.2347 0.0013 -0.0997858 0.994568 -0.0296068 0 
0.0876 0.2347 0.0014 -0.148938 0.988815 -0.00783885 0 
0.0885 0.2344 0.0007 -0.0220887 0.9982 -0.0557478 0 
0.0885 0.2347 0.001 -0.00730047 0.998078 -0.0615325 0 
0.0882 0.235 0.001 -0.0328082 0.998003 -0.0539747 0 
0.0883 0.2353 0.0007 -0.0179492 0.997762 -0.0644058 0 
0.0886 0.2353 0.0013 -0.024194 0.998267 -0.0536476 0 
0.0876 0.2347 0.0017 -0.185042 0.982676 -0.010344 0 
0.0879 0.2347 0.0016 -0.148609 0.988865 -0.00782153 0 
0.0876 0.2347 0.0019 -0.199236 0.979868 -0.0128163 0 
0.0879 0.2347 0.0019 -0.175594 0.984462 0.00113287 0 
0.0876 0.2347 0.0022 -0.249549 0.968344 -0.00597006 0 
0.0879 0.2347 0.0022 -0.228127 0.97342 -0.0203045 0 
0.0877 0.235 0.0025 -0.29091 0.955847 -0.0415586 0 
0.0877 0.235 0.0031 -0.533011 0.835491 -0.13362 0 
0.088 0.235 0.0025 -0.27512 0.958441 -0.075498 0 
0.0871 0.2353 0.003 -0.497302 0.863587 -0.0831185 0 
0.0879 0.2353 0.0028 -0.360444 0.923897 -0.128434 0 
0.0861 0.2335 0.0042 -0.763276 0.645634 -0.0238086 0 
0.0862 0.2335 0.0044 -0.773591 0.632167 -0.0438415 0 
0.0862 0.2335 0.0047 -0.774524 0.626303 -0.0886415 0 
0.0862 0.2335 0.0049 -0.800538 0.591323 -0.0973431 0 
0.0859 0.2335 0.0059 -0.895654 0.352023 -0.271815 0 
0.0862 0.2334 0.0063 -0.89895 0.321371 -0.297675 0 
0.0861 0.2343 0.0034 -0.604783 0.792424 -0.0793867 0 
0.0861 0.2343 0.0035 -0.605363 0.792293 -0.0762096 0 
0.0861 0.2343 0.0038 -0.645808 0.759006 -0.0827214 0 
0.0859 0.2346 0.0034 -0.594336 0.799678 -0.0853183 0 
0.0862 0.2347 0.0034 -0.591488 0.800761 -0.0944637 0 
0.0862 0.2344 0.0037 -0.621864 0.776965 -0.0980351 0 
0.0862 0.2344 0.0038 -0.640198 0.762696 -0.0918735 0 
0.0861 0.2337 0.0042 -0.747362 0.660961 -0.0676802 0 
0.0861 0.234 0.0043 -0.725381 0.685002 -0.0677792 0 
0.0861 0.2343 0.004 -0.671347 0.737759 -0.0707441 0 
0.0861 0.2343 0.0042 -0.690166 0.719225 -0.0799139 0 
0.0862 0.2338 0.0046 -0.774524 0.626303 -0.0886415 0 
0.0862 0.2338 0.0047 -0.772967 0.626848 -0.0978994 0 
0.0862 0.2341 0.0046 -0.774524 0.626303 -0.0886415 0 
0.0862 0.2341 0.0047 -0.779099 0.617093 -0.110458 0 
0.0862 0.2344 0.0041 -0.688042 0.720179 -0.0891094 0 
0.0862 0.2344 0.0043 -0.690166 0.719225 -0.0799139 0 
0.0862 0.2344 0.0046 -0.763122 0.636181 -0.113657 0 
0.0862 0.2338 0.005 -0.81867 0.559056 -0.131282 0 
0.0862 0.2344 0.0048 -0.779099 0.617093 -0.110458 0 
0.0862 0.2341 0.005 -0.832682 0.53498 -0.142956 0 
0.0862 0.2338 0.0052 -0.802269 0.583603 -0.125585 0 
0.0862 0.2338 0.0055 -0.839651 0.496503 -0.220162 0 
0.0862 0.2341 0.0052 -0.904511 0.38229 -0.188981 0 
0.0862 0.2344 0.0053 -0.947086 0.233697 -0.22003 0 
0.0862 0.2341 0.0054 -0.945035 0.237978 -0.224222 0 
0.0862 0.2344 0.0055 -0.94936 0.213844 -0.230189 0 
0.0862 0.2344 0.005 -0.832682 0.53498 -0.142956 0 
0.0862 0.2347 0.005 -0.858748 0.484611 -0.166447 0 
0.0864 0.2347 0.0053 -0.928171 0.300914 -0.218975 0 
0.0859 0.234 0.0058 -0.891809 0.367741 -0.263523 0 
0.0858 0.2341 0.0059 -0.895433 0.354906 -0.268778 0 
0.0859 0.2343 0.0059 -0.895433 0.354906 -0.268778 0 
0.0861 0.2343 0.0058 -0.895532 0.359693 -0.261999 0 
0.0859 0.2338 0.0061 -0.898117 0.331042 -0.289476 0 
0.0858 0.2341 0.0063 -0.895644 0.308483 -0.320405 0 
0.0859 0.2344 0.0063 -0.882213 0.33745 -0.328371 0 
0.0862 0.2344 0.0058 -0.901733 0.351573 -0.251544 0 
0.0859 0.2347 0.0063 -0.882213 0.33745 -0.328371 0 
0.0861 0.2344 0.006 -0.89586 0.349133 -0.274849 0 
0.0862 0.2347 0.006 -0.89586 0.349133 -0.274849 0 
0.0861 0.2347 0.0063 -0.883751 0.336883 -0.324797 0 
0.0871 0.2349 0.004 -0.621864 0.776965 -0.0980351 0 
0.0874 0.235 0.0034 -0.558761 0.822902 -0.103044 0 
0.0877 0.235 0.0034 -0.554405 0.82506 -0.109135 0 
0.0871 0.235 0.0042 -0.644487 0.756572 -0.11061 0 
0.0867 0.2352 0.0046 -0.725387 0.681246 -0.098582 0 
0.0871 0.235 0.0046 -0.705352 0.702419 -0.0953179 0 
0.0868 0.2352 0.0044 -0.678536 0.728364 -0.0952589 0 
0.087 0.235 0.0047 -0.713247 0.692573 -0.107799 0 
0.0874 0.2349 0.0041 -0.607982 0.786715 -0.106946 0 
0.0868 0.2353 0.0041 -0.638859 0.762225 -0.104274 0 
0.0868 0.235 0.005 -0.779372 0.613106 -0.129153 0 
0.0865 0.2346 0.0055 -0.93116 0.275533 -0.238795 0 
0.0868 0.235 0.0053 -0.894497 0.405796 -0.187626 0 
0.0876 0.235 0.005 -0.747437 0.656035 -0.104671 0 
0.0868 0.235 0.0056 -0.932453 0.246867 -0.263795 0 
0.0826 0.2326 0.0118 0.610012 -0.785555 -0.103863 0 
0.0829 0.2331 0.0115 0.677085 -0.73218 0.0739429 0 
0.0826 0.2329 0.0117 0.646373 -0.759163 -0.0766393 0 
0.0826 0.2329 0.0118 0.645096 -0.760549 -0.0736015 0 
0.0829 0.2335 0.0117 0.682544 -0.718546 0.133509 0 
0.0823 0.2326 0.0121 0.575121 -0.794796 0.193741 0 
0.0825 0.2328 0.012 0.625868 -0.779928 0.00137553 0 
0.0825 0.2325 0.0123 0.579014 -0.804104 0.134758 0 
0.0826 0.2326 0.0123 0.589348 -0.770686 0.242305 0 
0.082 0.2335 0.012 0.657089 -0.716682 0.233667 0 
0.0823 0.2335 0.0121 0.677115 -0.692899 0.247802 0 
0.0826 0.2329 0.0121 0.65201 -0.726703 0.216299 0 
0.0829 0.2329 0.012 0.673729 -0.724974 0.143186 0 
0.0862 0.2334 0.0064 -0.892758 0.324503 -0.31254 0 
0.0861 0.2335 0.0064 -0.89192 0.324199 -0.315235 0 
0.0856 0.2341 0.0064 -0.896937 0.298979 -0.325753 0 
0.0855 0.2343 0.007 -0.923328 0.179027 -0.339728 0 
0.0856 0.2341 0.0072 -0.925063 0.17266 -0.338301 0 
0.0858 0.2344 0.0064 -0.895549 0.30249 -0.326331 0 
0.0858 0.2344 0.0066 -0.892502 0.300491 -0.33637 0 
0.0858 0.2344 0.0072 -0.925063 0.17266 -0.338301 0 
0.0856 0.2344 0.007 -0.923328 0.179027 -0.339728 0 
0.0858 0.2347 0.0064 -0.894142 0.306009 -0.326907 0 
0.0858 0.2347 0.0067 -0.8726 0.346901 -0.343844 0 
0.0862 0.2347 0.0066 -0.864976 0.385629 -0.321101 0 
0.0861 0.2347 0.0067 -0.858976 0.390163 -0.331562 0 
0.0858 0.2347 0.007 -0.893891 0.269208 -0.358449 0 
0.0859 0.2349 0.007 -0.887737 0.285932 -0.360784 0 
0.0855 0.234 0.0073 -0.926836 0.148238 -0.344966 0 
0.0855 0.234 0.0076 -0.933593 0.0897428 -0.346916 0 
0.0855 0.2343 0.0078 -0.94067 0.100071 -0.324231 0 
0.0856 0.2341 0.0075 -0.928981 0.11868 -0.350585 0 
0.0856 0.2341 0.0076 -0.933593 0.0897428 -0.346916 0 
0.0856 0.235 0.0072 -0.924708 0.13684 -0.355232 0 
0.0855 0.2349 0.0075 -0.931771 0.115621 -0.344143 0 
0.0853 0.2352 0.0075 -0.928606 0.118982 -0.351475 0 
0.0852 0.2347 0.0076 -0.936608 0.0921911 -0.338034 0 
0.0853 0.2347 0.0078 -0.94041 0.0971003 -0.325885 0 
0.0853 0.2349 0.0076 -0.945382 0.0689206 -0.318595 0 
0.0853 0.2352 0.0076 -0.934272 0.0981322 -0.342791 0 
0.0853 0.2349 0.0079 -0.965017 -0.0691994 -0.252892 0 
0.0856 0.2347 0.0072 -0.927444 0.1396 -0.346928 0 
0.0856 0.2344 0.0075 -0.928981 0.11868 -0.350585 0 
0.0855 0.2353 0.0076 -0.93719 0.111923 -0.330376 0 
0.0859 0.2353 0.0078 -0.935642 0.12051 -0.33174 0 
0.0847 0.2344 0.0085 0.34474 -0.925354 0.157715 0 
0.0847 0.2352 0.009 0.316649 -0.94469 0.0854032 0 
0.085 0.2343 0.0082 -0.9644 -0.0691551 -0.255245 0 
0.0849 0.2344 0.0088 0.439058 -0.888127 0.135865 0 
0.0852 0.235 0.0082 -0.811331 -0.56808 -0.137941 0 
0.085 0.235 0.0084 0.284975 -0.948578 0.137805 0 
0.085 0.235 0.0087 0.225706 -0.967858 0.11094 0 
0.085 0.2343 0.009 0.56808 -0.811331 0.137941 0 
0.085 0.2341 0.0093 0.521853 -0.8489 0.0838946 0 
0.085 0.2341 0.0093 0.521853 -0.8489 0.0838946 0 
0.0849 0.2346 0.0088 0.435635 -0.889837 0.135689 0 
0.085 0.2347 0.0088 0.364561 -0.923095 0.122437 0 
0.085 0.2346 0.009 0.47534 -0.872171 0.115623 0 
0.085 0.2347 0.009 0.400093 -0.911551 0.0948673 0 
0.085 0.235 0.0088 0.241533 -0.964856 0.103514 0 
0.085 0.2344 0.0094 0.508496 -0.857822 0.0746545 0 
0.085 0.2347 0.0093 0.471977 -0.878517 0.0737899 0 
0.0844 0.2356 0.0088 0.411895 -0.899329 0.1468 0 
0.0847 0.2353 0.0094 0.470825 -0.879151 0.0736098 0 
0.0846 0.2353 0.0096 0.452864 -0.890946 0.0335953 0 
0.085 0.2353 0.0084 0.237768 -0.962767 0.128629 0 
0.0853 0.2353 0.0082 -0.710772 -0.696056 -0.101539 0 
0.0868 0.2353 0.009 -0.0716546 -0.995448 0.0628356 0 
0.0835 0.2335 0.0114 0.660972 -0.74118 0.117341 0 
0.0838 0.2335 0.0112 0.617587 -0.78247 0.0795487 0 
0.0835 0.2335 0.0117 0.657064 -0.745657 0.110741 0 
0.0844 0.2335 0.0114 0.580759 -0.813063 0.0405832 0 
0.0846 0.2343 0.01 0.507999 -0.860432 0.039924 0 
0.0847 0.2343 0.0102 0.495132 -0.868817 -0.00133459 0 
0.0844 0.2343 0.0102 0.520412 -0.853906 -0.0040342 0 
0.0847 0.2352 0.0097 0.476577 -0.878477 0.0339442 0 
0.084 0.2344 0.0108 0.556696 -0.830209 0.029009 0 
0.0847 0.2344 0.0105 0.516454 -0.856263 0.00943912 0 
0.0841 0.2337 0.0112 0.582466 -0.810325 0.0640855 0 
0.0841 0.2338 0.0111 0.583826 -0.810005 0.0551312 0 
0.0841 0.2343 0.0111 0.580774 -0.813639 0.0263358 0 
0.084 0.2346 0.0106 0.55562 -0.831382 0.00955611 0 
0.084 0.2346 0.0109 0.552321 -0.833302 0.0234151 0 
0.0843 0.2344 0.0105 0.549978 -0.835152 0.00678985 0 
0.0844 0.2346 0.0106 0.553126 -0.833087 0.0040771 0 
0.0847 0.2346 0.0105 0.499725 -0.866099 0.0121227 0 
0.0846 0.2347 0.0108 0.517649 -0.855541 0.00946095 0 
0.0847 0.2349 0.0105 0.483786 -0.875103 0.0120611 0 
0.0846 0.235 0.0108 0.521602 -0.853162 0.00673904 0 
0.0841 0.2347 0.0108 0.53273 -0.8461 0.0177122 0 
0.0841 0.2344 0.0112 0.5783 -0.815194 0.0320504 0 
0.0841 0.2347 0.0112 0.550839 -0.83389 0.0346876 0 
0.0843 0.2349 0.0109 0.510428 -0.85974 0.017601 0 
0.0843 0.2349 0.0112 0.534379 -0.844842 0.0261008 0 
0.0844 0.235 0.0109 0.495626 -0.868359 0.0175562 0 
0.0847 0.2352 0.0109 0.499441 -0.866322 0.00669492 0 
0.0847 0.235 0.0112 0.489354 -0.87162 0.0284666 0 
0.0849 0.2349 0.0097 0.484163 -0.873148 0.0565546 0 
0.0849 0.2349 0.01 0.47539 -0.879403 0.0255875 0 
0.085 0.2349 0.0102 0.473125 -0.880946 -0.00932923 0 
0.0852 0.235 0.0102 0.472016 -0.881541 -0.00930737 0 
0.0861 0.2349 0.0102 0.403581 -0.91487 -0.0116792 0 
0.085 0.235 0.0106 0.477411 -0.878597 0.0120356 0 
0.0849 0.2352 0.0108 0.479313 -0.877635 0.00398321 0 
0.085 0.2352 0.0108 0.4752 -0.879853 0.00665547 0 
0.0852 0.235 0.0106 0.477411 -0.878597 0.0120356 0 
0.0855 0.2349 0.0108 0.477411 -0.878597 0.0120356 0 
0.085 0.235 0.0109 0.481539 -0.876375 0.00933733 0 
0.0859 0.2347 0.0105 0.450893 -0.89253 -0.00925587 0 
0.0858 0.2347 0.0108 0.468854 -0.883251 -0.00664098 0 
0.0861 0.2347 0.0108 0.445579 -0.895124 0.0145441 0 
0.0859 0.2349 0.0105 0.450893 -0.89253 -0.00925587 0 
0.0864 0.2347 0.0109 0.412989 -0.91066 0.0117252 0 
0.0847 0.2353 0.0109 0.499441 -0.866322 0.00669492 0 
0.0844 0.2338 0.0112 0.578136 -0.814454 0.049233 0 
0.0844 0.2338 0.0115 0.575483 -0.813713 0.0818018 0 
0.0841 0.2343 0.0112 0.577415 -0.814592 0.0550591 0 
0.0844 0.2344 0.0114 0.557607 -0.827188 0.0695236 0 
0.0846 0.2344 0.0114 0.561309 -0.825786 0.0548648 0 
0.0844 0.2341 0.0115 0.575483 -0.813713 0.0818018 0 
0.0844 0.2341 0.0118 0.572533 -0.80924 0.131668 0 
0.0844 0.2343 0.0117 0.565406 -0.816697 0.115419 0 
0.0844 0.2343 0.0118 0.57368 -0.807895 0.134896 0 
0.0841 0.2347 0.0114 0.54079 -0.836289 0.0903708 0 
0.0844 0.2347 0.0114 0.533609 -0.843355 0.0633572 0 
0.0844 0.2344 0.0115 0.557607 -0.827188 0.0695236 0 
0.0844 0.235 0.0114 0.492818 -0.868952 0.0453008 0 
0.0846 0.2347 0.0117 0.523038 -0.845794 0.105184 0 
0.0844 0.2344 0.0118 0.552076 -0.822961 0.13397 0 
0.0847 0.2346 0.012 0.51605 -0.848518 0.117087 0 
0.0846 0.234 0.012 0.566653 -0.808863 0.156988 0 
0.0843 0.2344 0.0121 0.572425 -0.801999 0.17067 0 
0.0844 0.2341 0.0123 0.567906 -0.797518 0.203589 0 
0.0843 0.2344 0.0123 0.569284 -0.798218 0.196884 0 
0.0841 0.2344 0.0126 0.585501 -0.785278 0.201314 0 
0.0843 0.2341 0.0127 0.583111 -0.786199 0.204627 0 
0.0844 0.2344 0.012 0.561086 -0.815722 0.140642 0 
0.0847 0.2347 0.0121 0.461405 -0.875079 0.146088 0 
0.0844 0.2344 0.0123 0.566168 -0.801181 0.19381 0 
0.0846 0.2347 0.0123 0.484611 -0.858748 0.166447 0 
0.0847 0.2349 0.0121 0.459124 -0.876246 0.146282 0 
0.0847 0.2349 0.0123 0.460478 -0.872715 0.162264 0 
0.0844 0.2346 0.0126 0.540063 -0.816941 0.202334 0 
0.0844 0.2346 0.0127 0.54457 -0.813041 0.20593 0 
0.0844 0.2347 0.0126 0.515813 -0.833469 0.198157 0 
0.0847 0.235 0.0126 0.410014 -0.893918 0.181102 0 
0.0852 0.2349 0.0112 0.486956 -0.873302 0.0147563 0 
0.0849 0.235 0.0112 0.464727 -0.885002 0.0282877 0 
0.0852 0.2349 0.0115 0.461401 -0.886054 0.0449152 0 
