0.0873406 0.253285 0.034372 -0.393154 0.715574 0.577394 1 
0.0867659 0.252647 0.0357144 -0.949416 0.219306 0.224754 1 
0.086816 0.252959 0.0357277 -0.994497 -0.10348 0.0163389 1 
0.0872431 0.252892 0.0356706 -0.903401 -0.201561 -0.378471 1 
0.0869306 0.253295 0.0356688 -0.490989 0.717343 0.494317 1 
0.087224 0.253275 0.0357849 -0.46935 0.721439 0.509153 1 
0.0874197 0.253501 0.0357602 -0.463859 0.737882 0.490271 1 
0.0876225 0.253065 0.0362056 -0.521387 0.711284 0.471413 1 
0.0875867 0.253184 0.0358 0.0468635 0.756917 0.651829 1 
0.0875724 0.253471 0.0358858 -0.474239 0.735318 0.484153 1 
0.0876939 0.253066 0.035164 -0.968356 0.236765 -0.0789217 1 
0.0883096 0.25325 0.0360512 -0.492758 0.721717 0.486122 1 
0.0880805 0.253295 0.0358628 -0.444292 0.731678 0.516964 1 
0.0884169 0.25353 0.0358285 -0.484153 0.735318 0.474239 1 
0.0884933 0.253515 0.0358913 -0.474239 0.735318 0.484153 1 
0.086265 0.253598 0.0355948 -0.55065 0.700373 0.454161 1 
0.087804 0.253977 0.0366799 -0.419329 0.771761 0.478068 1 
0.087966 0.253676 0.0356154 -0.482407 0.745838 0.459357 1 
0.0883979 0.253913 0.0359429 -0.489625 0.746802 0.45006 1 
0.0885045 0.249006 0.0355988 -0.793821 -0.347998 -0.498744 1 
0.0884116 0.250274 0.0355363 -0.832469 -0.446806 -0.327657 1 
0.0881804 0.250965 0.0359821 -0.866681 -0.496234 0.0511439 1 
0.0888244 0.250495 0.0355649 -0.782078 -0.535779 -0.318269 1 
0.0887885 0.250614 0.0351593 -0.790679 -0.533986 -0.299476 1 
0.0892467 0.250524 0.0355362 -0.752758 -0.586544 -0.298866 1 
0.0885983 0.252287 0.037222 -0.992193 0.0947665 0.0810653 1 
0.0879017 0.252614 0.0367138 -0.876933 -0.422781 -0.22857 1 
0.0880236 0.254124 0.0369256 -0.330909 0.757056 0.563353 1 
0.0887081 0.253758 0.0361656 -0.457255 0.758814 0.46381 1 
0.0886104 0.254403 0.0364381 -0.436385 0.769802 0.465804 1 
0.0888249 0.253847 0.0358857 -0.497016 0.752905 0.431403 1 
0.0865031 0.254639 0.0328473 -0.580329 0.784605 0.218204 1 
0.0876269 0.254247 0.0332983 -0.591282 0.766941 0.249373 1 
0.0880444 0.254053 0.0340179 -0.563838 0.728222 0.38959 1 
0.0872262 0.254385 0.0338182 -0.515255 0.768819 0.378721 1 
0.0869327 0.254405 0.0337021 -0.512143 0.785072 0.348386 1 
0.0871451 0.254496 0.0337839 -0.485137 0.777193 0.400765 1 
0.0867538 0.254762 0.0335271 -0.524362 0.788934 0.320355 1 
0.0869065 0.254732 0.0336527 -0.489899 0.791869 0.364613 1 
0.0875841 0.25439 0.0338619 -0.502923 0.758479 0.414461 1 
0.0874146 0.254555 0.0336297 -0.504532 0.785007 0.359459 1 
0.0875863 0.254462 0.0329213 -0.696456 0.690279 0.19612 1 
0.0877247 0.254719 0.0331327 -0.598116 0.727789 0.335529 1 
0.0871402 0.254911 0.0330929 -0.527128 0.810129 0.256567 1 
0.0878941 0.254554 0.0333649 -0.558538 0.744174 0.366388 1 
0.0883617 0.254273 0.0336846 -0.573217 0.721039 0.389262 1 
0.0884119 0.254585 0.033698 -0.554445 0.713331 0.42866 1 
0.0890826 0.254665 0.0352898 -0.560737 0.746024 0.359197 1 
0.0885241 0.25445 0.0341664 -0.53602 0.74256 0.401605 1 
0.0887078 0.254716 0.0340065 -0.524562 0.729753 0.438514 1 
0.088474 0.254857 0.0338466 -0.53161 0.735696 0.419692 1 
0.0888724 0.254646 0.0342673 -0.53834 0.732603 0.416514 1 
0.0889321 0.254767 0.0342235 -0.575802 0.71439 0.397617 1 
0.0889417 0.254256 0.0348861 -0.556291 0.745528 0.367054 1 
0.0891707 0.254211 0.0350745 -0.557145 0.748816 0.358977 1 
0.0888963 0.254567 0.0345377 -0.540202 0.752366 0.376999 1 
0.0890872 0.254889 0.0345415 -0.540824 0.746697 0.387237 1 
0.0891207 0.254618 0.0347547 -0.540859 0.750013 0.380726 1 
0.0889132 0.25483 0.0350576 -0.540859 0.750013 0.380726 1 
0.0870469 0.254982 0.0317905 -0.858531 -0.416211 0.299488 1 
0.0870327 0.255269 0.0318762 -0.152579 0.983952 -0.0925083 1 
0.0873118 0.254818 0.0323845 -0.782597 -0.498603 0.372742 1 
0.0874264 0.255155 0.0323255 -0.468837 0.881304 0.0591202 1 
0.0874692 0.255012 0.0317618 -0.140594 0.98171 -0.128368 1 
0.0879632 0.254802 0.0325443 -0.740619 -0.466804 0.483299 1 
0.0885048 0.254754 0.0331478 -0.614384 0.680625 0.399101 1 
0.0883927 0.254568 0.0333991 -0.603133 0.705025 0.373055 1 
0.0883785 0.254856 0.0334849 -0.556058 0.72436 0.407556 1 
0.088555 0.255065 0.0331612 -0.559663 0.721453 0.407778 1 
0.0885191 0.255185 0.0327556 -0.522655 0.823067 0.222243 1 
0.0884763 0.255328 0.0333193 -0.538774 0.702241 0.465381 1 
0.0884286 0.255167 0.0334983 -0.532542 0.715033 0.452909 1 
0.0885049 0.255472 0.0328414 -0.529919 0.758191 0.379911 1 
0.0890394 0.255048 0.0340008 -0.541973 0.729769 0.416776 1 
0.0892638 0.255098 0.0342179 -0.537774 0.735123 0.412787 1 
0.0890252 0.255335 0.0340866 -0.544465 0.731984 0.409582 1 
0.0892495 0.255386 0.0343036 -0.530617 0.744178 0.405766 1 
0.0890109 0.255622 0.0341723 -0.53418 0.749813 0.390425 1 
0.0894332 0.255651 0.0341437 -0.588469 0.691244 0.419388 1 
0.0893401 0.255083 0.0342807 -0.536615 0.740101 0.405333 1 
0.0894594 0.255325 0.0341931 -0.558897 0.73263 0.388442 1 
0.0899103 0.255179 0.0344063 -0.646916 0.676396 0.352119 1 
0.0896623 0.255607 0.0343321 -0.616128 0.713668 0.333262 1 
0.0898913 0.255562 0.0345206 -0.656645 0.672939 0.340543 1 
0.089779 0.256015 0.0333326 -0.654401 0.621098 0.431272 1 
0.0893259 0.254333 0.0353925 -0.594618 0.730716 0.335384 1 
0.0897768 0.255943 0.0342732 -0.645568 0.642249 0.41323 1 
0.089877 0.255849 0.0346064 -0.659932 0.669709 0.340558 1 
0.090056 0.25621 0.034475 -0.667229 0.644164 0.373977 1 
0.0898817 0.256072 0.0338581 -0.663221 0.633451 0.398594 1 
0.0902276 0.256117 0.0337666 -0.667229 0.644164 0.373977 1 
0.0897337 0.256326 0.0329842 -0.653547 0.626939 0.424057 1 
0.0901635 0.256172 0.034972 -0.653184 0.649876 0.388603 1 
0.0909031 0.256102 0.0353298 -0.410472 0.643128 0.646451 1 
0.0919295 0.201406 0.0181799 0.521746 -0.485073 -0.701773 0 
0.0921991 0.201465 0.0180256 0.488147 -0.438839 -0.754409 0 
0.0918913 0.201773 0.0179952 0.435986 -0.341549 -0.832623 0 
0.0918866 0.201868 0.0180238 0.512673 -0.315857 -0.798373 0 
0.0918723 0.202155 0.0181096 0.0735782 0.0223934 -0.997038 0 
0.0920655 0.20223 0.0178925 0.0368248 0.0410334 -0.998479 0 
0.0921084 0.201768 0.0180485 0.512673 -0.315857 -0.798373 0 
0.0924663 0.201772 0.0180922 0.512673 -0.315857 -0.798373 0 
0.0921037 0.201863 0.0180771 0.512673 -0.315857 -0.798373 0 
0.0920894 0.20215 0.0181629 -0.26063 0.124421 -0.957388 0 
0.0922874 0.202129 0.0179172 -0.265672 0.119094 -0.956679 0 
0.0925664 0.201997 0.0177057 0.210475 -0.107128 -0.971712 0 
0.0927049 0.202254 0.0179171 -0.26063 0.124421 -0.957388 0 
0.0927169 0.202215 0.0180523 -0.26063 0.124421 -0.957388 0 
0.0917506 0.202481 0.0176984 0.00102833 0.0545017 -0.998513 0 
0.0920441 0.202461 0.0178145 0.00102833 0.0545017 -0.998513 0 
0.0920441 0.202461 0.0178145 0.00102833 0.0545017 -0.998513 0 
0.0920798 0.202661 0.0175003 -0.0292068 0.0811299 -0.996276 0 
0.0922492 0.202496 0.0177326 -0.0180555 0.07116 -0.997301 0 
0.0917721 0.202968 0.01747 -0.0499915 0.0944284 -0.994276 0 
0.0924473 0.202873 0.0179002 -0.0686803 0.136197 -0.988298 0 
0.0924783 0.203169 0.0176147 -0.0491064 0.131331 -0.990122 0 
0.0924663 0.202491 0.0177859 -0.0312441 0.0764943 -0.99658 0 
0.0927074 0.202406 0.0181095 -0.26063 0.124421 -0.957388 0 
0.0929054 0.202784 0.0182771 -0.207524 0.163148 -0.964529 0 
0.0929818 0.202769 0.0183399 -0.481475 0.19949 -0.853455 0 
0.0930987 0.202858 0.01806 -0.481475 0.19949 -0.853455 0 
0.0930749 0.203337 0.018203 -0.0914877 0.179316 -0.979528 0 
0.0926811 0.203052 0.0173404 -0.0686803 0.136197 -0.988298 0 
0.092953 0.203263 0.0173785 -0.0686803 0.136197 -0.988298 0 
0.0929244 0.20272 0.0174431 -0.325957 0.147162 -0.93386 0 
0.0929101 0.203007 0.0175288 -0.0686803 0.136197 -0.988298 0 
0.0932824 0.203124 0.0179001 -0.207524 0.163148 -0.964529 0 
0.0929388 0.20355 0.0174642 -0.0505553 0.170477 -0.984064 0 
0.0929889 0.203862 0.0174776 -0.0246424 0.198313 -0.979829 0 
0.0929747 0.20415 0.0175634 -0.0105521 0.214559 -0.976654 0 
0.0927599 0.203907 0.0172892 -0.0246424 0.198313 -0.979829 0 
0.0928959 0.203295 0.0176146 -0.0850899 0.156997 -0.983927 0 
0.0930343 0.203552 0.017826 -0.0487627 0.186726 -0.981201 0 
0.0932133 0.203913 0.0176947 -0.0223785 0.203762 -0.978765 0 
0.0932539 0.203698 0.0180716 -0.0487627 0.186726 -0.981201 0 
0.0904201 0.207157 0.0175647 0.607222 0.195233 -0.770172 0 
0.0910997 0.204731 0.0177524 0.445567 0.240153 -0.862436 0 
0.0910497 0.204818 0.0181523 0.49377 0.289992 -0.819815 0 
0.0912381 0.204989 0.0179638 0.507266 0.276265 -0.816308 0 
0.0912144 0.205467 0.0181068 0.578988 0.327394 -0.746717 0 
0.0925598 0.204575 0.0181691 0.256502 0.245289 -0.934901 0 
0.0923259 0.204716 0.0180093 0.305313 0.239377 -0.921674 0 
0.0926504 0.204273 0.0181462 -0.0105521 0.214559 -0.976654 0 
0.0925909 0.204551 0.0186032 0.0940563 0.264131 -0.95989 0 
0.0930131 0.204581 0.0185746 0.0995844 0.267714 -0.958338 0 
0.0921233 0.204833 0.0182835 0.386323 0.224743 -0.894564 0 
0.092338 0.205075 0.0185578 0.526679 0.331376 -0.782815 0 
0.0924811 0.204837 0.0183273 0.346268 0.263753 -0.900296 0 
0.092233 0.205265 0.0182531 0.577404 0.320065 -0.751108 0 
0.0923643 0.204748 0.0186071 0.260984 0.249699 -0.93249 0 
0.0924096 0.205155 0.0186492 0.568426 0.375128 -0.732237 0 
0.0924001 0.205347 0.0187063 0.576436 0.349109 -0.738813 0 
0.0925982 0.205006 0.0191803 0.423093 0.42631 -0.799533 0 
0.0927672 0.204362 0.0178662 0.0153933 0.223795 -0.974515 0 
0.0928531 0.204156 0.0178719 -0.0105521 0.214559 -0.976654 0 
0.0933636 0.204131 0.0180413 0.0153933 0.223795 -0.974515 0 
0.0907635 0.206331 0.0175873 0.602547 0.184578 -0.776446 0 
0.0907087 0.206514 0.0180157 0.605064 0.188412 -0.773562 0 
0.0907397 0.20681 0.0177302 0.585403 0.194115 -0.787161 0 
0.0906252 0.207191 0.0174828 0.5915 0.187996 -0.784082 0 
0.0910714 0.207141 0.0177245 0.597051 0.194924 -0.778161 0 
0.0911954 0.207287 0.0176084 0.597051 0.194924 -0.778161 0 
0.0922093 0.205744 0.0183961 0.586667 0.324849 -0.741819 0 
0.0924241 0.205986 0.0186703 0.564031 0.301988 -0.768552 0 
0.0923859 0.205634 0.0187921 0.594618 0.335384 -0.730716 0 
0.0925744 0.205485 0.0193233 0.443045 0.382266 -0.810916 0 
0.0925243 0.205891 0.0190035 0.545292 0.297288 -0.783758 0 
0.0924742 0.206298 0.0186837 0.557887 0.262443 -0.787328 0 
0.0923574 0.206208 0.0189636 0.56172 0.255043 -0.787034 0 
0.0933995 0.204011 0.0184468 0.0153933 0.223795 -0.974515 0 
0.0903868 0.207827 0.0177649 0.564745 0.248738 -0.786888 0 
0.0897289 0.210101 0.018788 0.131512 0.238284 -0.96225 0 
0.0898266 0.210174 0.0182092 0.119822 0.233202 -0.965018 0 
0.0898409 0.210286 0.0185367 0.114598 0.23821 -0.964429 0 
0.0901105 0.210345 0.0183825 0.113954 0.229188 -0.966689 0 
0.0900198 0.210248 0.0179921 0.131512 0.238284 -0.96225 0 
0.0902416 0.210148 0.0180168 0.169069 0.269158 -0.94814 0 
0.090413 0.2075 0.0178142 0.614847 0.209079 -0.760427 0 
0.0908997 0.207554 0.0177132 0.614446 0.212038 -0.759932 0 
0.0917158 0.207868 0.0185471 0.632553 0.185324 -0.752018 0 
0.0915083 0.208081 0.01885 0.585814 0.225313 -0.778496 0 
0.0914176 0.207984 0.0184596 0.579309 0.214731 -0.786315 0 
0.0915441 0.208281 0.0185359 0.565537 0.230863 -0.791752 0 
0.0914941 0.208368 0.0189358 0.565537 0.230863 -0.791752 0 
0.0912602 0.208509 0.0187759 0.524877 0.256987 -0.811457 0 
0.0917875 0.207629 0.0193583 0.627344 0.195756 -0.753737 0 
0.0919664 0.207991 0.0192269 0.638402 0.189213 -0.746084 0 
0.0919306 0.20811 0.0188214 0.621361 0.201981 -0.757043 0 
0.0922144 0.207883 0.0185813 0.632553 0.185324 -0.752018 0 
0.0924149 0.208412 0.0189413 0.62803 0.202142 -0.751476 0 
0.091246 0.208796 0.0188617 0.493393 0.258296 -0.83057 0 
0.0914798 0.208655 0.0190216 0.524877 0.256987 -0.811457 0 
0.0912365 0.208987 0.0189189 0.479809 0.260732 -0.837737 0 
0.0914655 0.208942 0.0191073 0.500467 0.27284 -0.821639 0 
0.0912222 0.209274 0.0190046 0.434862 0.270072 -0.859044 0 
0.0914513 0.209229 0.0191931 0.453316 0.257947 -0.85321 0 
0.0914775 0.209621 0.0189361 0.392885 0.238696 -0.888068 0 
0.091449 0.210195 0.0191076 0.138191 0.1606 -0.977298 0 
0.0917066 0.209576 0.0191246 0.413213 0.207342 -0.886716 0 
0.0911889 0.210264 0.018485 0.181052 0.210126 -0.960764 0 
0.0918092 0.209952 0.0189304 0.321999 0.161691 -0.93283 0 
0.0892091 0.211115 0.0195025 -0.167507 0.253271 -0.952783 0 
0.0892759 0.211292 0.0196225 -0.180501 0.231309 -0.955989 0 
0.0892617 0.211579 0.0197083 -0.183747 0.183747 -0.965647 0 
0.0892522 0.21177 0.0197654 -0.223684 0.170741 -0.95959 0 
0.0889756 0.212772 0.0198629 -0.447457 -0.0362803 -0.893569 0 
0.0891213 0.213085 0.020238 -0.466466 -0.0705928 -0.881718 0 
0.0897623 0.210548 0.0186948 0.0520991 0.214454 -0.975344 0 
0.0897576 0.210644 0.0187234 0.0471525 0.214 -0.975695 0 
0.0897433 0.210931 0.0188092 0.00115567 0.204554 -0.978855 0 
0.0898028 0.210652 0.0183522 0.0644533 0.205521 -0.976528 0 
0.0900963 0.210632 0.0184682 0.0668144 0.198014 -0.97792 0 
0.0898888 0.210845 0.0187711 0.0317936 0.191939 -0.980892 0 
0.0898841 0.210941 0.0187997 0.00810075 0.19789 -0.980191 0 
0.0893379 0.211165 0.0193578 -0.140432 0.210004 -0.967563 0 
0.0895263 0.211335 0.0191693 -0.112382 0.210874 -0.971032 0 
0.0897338 0.211122 0.0188664 -0.0347968 0.21718 -0.975511 0 
0.0897243 0.211314 0.0189236 -0.0618836 0.205065 -0.97679 0 
0.0894596 0.211558 0.0194626 -0.183747 0.183747 -0.965647 0 
0.0894549 0.211653 0.0194912 -0.182622 0.174851 -0.96751 0 
0.0896528 0.211632 0.0192455 -0.183747 0.183747 -0.965647 0 
0.0896481 0.211728 0.019274 -0.192865 0.166977 -0.966914 0 
0.0898698 0.211228 0.0188854 -0.0565917 0.196265 -0.978916 0 
0.0898603 0.211419 0.0189426 -0.0618836 0.205065 -0.97679 0 
0.089846 0.211706 0.0190284 -0.166843 0.166843 -0.971765 0 
0.0894406 0.21194 0.0195769 -0.260443 0.136171 -0.955838 0 
0.0898365 0.211898 0.0190856 -0.192865 0.166977 -0.966914 0 
0.0896338 0.212015 0.0193598 -0.28756 0.12059 -0.950141 0 
0.0894311 0.212132 0.0196341 -0.231145 0.142343 -0.96245 0 
0.0894169 0.212419 0.0197199 -0.310653 0.0393071 -0.94971 0 
0.0896243 0.212206 0.019417 -0.433112 0.0499226 -0.899956 0 
0.0898128 0.212376 0.0192285 -0.563166 -0.0123321 -0.826252 0 
0.0896148 0.212398 0.0194742 -0.556846 -0.0150499 -0.83048 0 
0.0898033 0.212568 0.0192857 -0.577625 -0.0263186 -0.815878 0 
0.0898271 0.212089 0.0191427 -0.28756 0.12059 -0.950141 0 
0.0900202 0.212164 0.0189256 -0.337271 0.0893169 -0.937161 0 
0.0901587 0.212421 0.0191371 -0.501457 0.00133722 -0.865181 0 
0.0893024 0.212801 0.0194725 -0.428406 -0.0252004 -0.903235 0 
0.0892857 0.212936 0.0193658 -0.444234 -0.0362366 -0.895178 0 
0.0894908 0.212971 0.0192839 -0.444234 -0.0362366 -0.895178 0 
0.0896483 0.212845 0.019381 -0.437995 -0.0252945 -0.898622 0 
0.0891593 0.213038 0.019703 -0.457869 -0.0618742 -0.886864 0 
0.0892667 0.213319 0.0194802 -0.468131 -0.0941886 -0.878625 0 
0.0895362 0.213378 0.0193259 -0.439974 -0.0991687 -0.892518 0 
0.089789 0.212855 0.0193714 -0.451931 -0.0145784 -0.891934 0 
0.0897294 0.213453 0.0191088 -0.439974 -0.0991687 -0.892518 0 
0.0897032 0.213061 0.0193658 -0.443049 -0.0417463 -0.895525 0 
0.0899727 0.213121 0.0192115 -0.443049 -0.0417463 -0.895525 0 
0.0898821 0.213423 0.0192345 -0.442343 -0.0962828 -0.891663 0 
0.0908837 0.211121 0.0190604 0.0317936 0.191939 -0.980892 0 
0.0912057 0.210527 0.0190049 0.107932 0.18733 -0.976349 0 
0.0914348 0.210482 0.0191934 0.110702 0.185333 -0.97642 0 
0.0909386 0.211338 0.0190452 0.00341244 0.178584 -0.983919 0 
0.090743 0.21183 0.0187636 -0.107769 0.182093 -0.977358 0 
0.0909196 0.21172 0.0191596 -0.0814941 0.186098 -0.979146 0 
0.0908289 0.211624 0.0187692 -0.0439554 0.193641 -0.980087 0 
0.0908385 0.211831 0.0191253 -0.0941721 0.177337 -0.979634 0 
0.091108 0.211172 0.0192774 0.0462813 0.186312 -0.9814 0 
0.0909076 0.211361 0.018611 0.00801596 0.179787 -0.983673 0 
0.0906716 0.212148 0.0190855 -0.195535 0.144415 -0.970006 0 
0.0901611 0.212572 0.0193294 -0.519159 -0.0231646 -0.854364 0 
0.0906573 0.212435 0.0191712 -0.413375 0.0552064 -0.908886 0 
0.0912824 0.212029 0.019588 -0.142472 0.172732 -0.97461 0 
0.0906431 0.212723 0.019257 -0.538688 -0.05177 -0.840913 0 
0.085596 0.21869 0.0201279 -0.0407679 -0.385323 0.921881 0 
0.0861613 0.218482 0.0198687 0.0421049 -0.215337 0.975632 0 
0.0857939 0.218669 0.0198822 0.0088955 -0.357091 0.934027 0 
0.0857892 0.218764 0.0199108 0.00632401 -0.35541 0.934689 0 
0.0864094 0.218772 0.0196365 0.0548819 -0.152969 0.986706 0 
0.0853527 0.219022 0.0200252 -0.0812132 -0.0995148 0.991716 0 
0.0856389 0.218946 0.0199775 -0.0260826 -0.286908 0.957603 0 
0.0854314 0.219159 0.0202803 -0.0826783 -0.159365 0.983751 0 
0.0855722 0.219168 0.0202708 -0.0571361 -0.0485118 0.997187 0 
0.085708 0.219194 0.0191569 0.0284615 -0.0516523 0.998259 0 
0.0859323 0.219245 0.0193739 0.0565542 -0.0373471 0.997701 0 
0.0857749 0.219051 0.0199965 0.0179846 -0.0666487 0.997614 0 
0.0860087 0.218911 0.0201564 0.0400144 -0.142908 0.988927 0 
0.0891165 0.213181 0.0202666 -0.458474 -0.0822187 -0.884896 0 
0.0891046 0.213221 0.0201314 -0.456052 -0.0878632 -0.885605 0 
0.0891092 0.213445 0.0193832 -0.474733 -0.100615 -0.87436 0 
0.0891331 0.214083 0.0193472 -0.569213 -0.141189 -0.809977 0 
0.0890712 0.21421 0.0196119 -0.579329 -0.141481 -0.802721 0 
0.0894551 0.213489 0.0192917 -0.472396 -0.103558 -0.875281 0 
0.0894456 0.21368 0.0193489 -0.471947 -0.115492 -0.874029 0 
0.0894171 0.214255 0.0195204 -0.579329 -0.141481 -0.802721 0 
0.0892739 0.214093 0.0193376 -0.569213 -0.141189 -0.809977 0 
0.0896483 0.213564 0.0190746 -0.471362 -0.100501 -0.876195 0 
0.0896341 0.213851 0.0191604 -0.42553 -0.116564 -0.897406 0 
0.0899442 0.213695 0.0193831 -0.398881 -0.0803207 -0.913478 0 
0.0898631 0.213806 0.0193488 -0.389297 -0.0915189 -0.916555 0 
0.0896198 0.214138 0.0192462 -0.490587 -0.138296 -0.860348 0 
0.089825 0.214172 0.0191642 -0.476828 -0.137686 -0.868146 0 
0.0889257 0.214296 0.01965 -0.595903 -0.154605 -0.788033 0 
0.0889114 0.214583 0.0197358 -0.638278 -0.16909 -0.751005 0 
0.0890951 0.214849 0.0195759 -0.638507 -0.14573 -0.755692 0 
0.0890569 0.214497 0.0196976 -0.617078 -0.168294 -0.768695 0 
0.0890522 0.214593 0.0197262 -0.638278 -0.16909 -0.751005 0 
0.0896508 0.214434 0.0189606 -0.600703 -0.164928 -0.782275 0 
0.0894958 0.214711 0.0190559 -0.621733 -0.158837 -0.766955 0 
0.0895363 0.214815 0.0187132 -0.617078 -0.168294 -0.768695 0 
0.0891332 0.214802 0.0190408 -0.643146 -0.158895 -0.749076 0 
0.0892 0.214978 0.0191608 -0.641732 -0.14578 -0.752946 0 
0.0893383 0.214836 0.0189588 -0.662345 -0.14635 -0.734766 0 
0.0895315 0.214911 0.0187417 -0.634549 -0.162045 -0.755704 0 
0.0893241 0.215124 0.0190446 -0.76959 -0.116694 -0.627785 0 
0.0894576 0.214359 0.0191777 -0.604001 -0.155142 -0.781737 0 
0.0892501 0.214572 0.0194805 -0.617078 -0.168294 -0.768695 0 
0.0897487 0.214906 0.018795 -0.626681 -0.14878 -0.764941 0 
0.0900446 0.215037 0.0191035 -0.623411 -0.148717 -0.767621 0 
0.0885154 0.215664 0.0192011 -0.341363 -0.130239 0.930865 0 
0.0890069 0.216341 0.0187651 -0.371529 -0.200944 0.906415 0 
0.0886944 0.215307 0.0193761 -0.769543 -0.120102 -0.6272 0 
0.0886539 0.215921 0.0194125 -0.242925 -0.157967 0.957097 0 
0.0892979 0.215451 0.0189952 -0.978319 -0.152514 -0.140114 0 
0.0891356 0.215672 0.0189268 -0.399092 -0.149127 0.904703 0 
0.0891214 0.215959 0.0190125 -0.457949 -0.16533 0.873469 0 
0.0886563 0.216072 0.0196048 -0.0976949 -0.155588 0.982979 0 
0.0885133 0.21631 0.0198353 -0.157181 -0.209142 0.96517 0 
0.0885133 0.21631 0.0198353 -0.157181 -0.209142 0.96517 0 
0.0887827 0.21597 0.0192677 -0.248014 -0.155175 0.956248 0 
0.0889234 0.21598 0.0192582 -0.323371 -0.167931 0.931252 0 
0.0888495 0.216147 0.0193877 -0.206122 -0.177239 0.962341 0 
0.0889139 0.216172 0.0193154 -0.287355 -0.198511 0.937027 0 
0.0891167 0.216055 0.0190411 -0.440725 -0.177168 0.879985 0 
0.0887017 0.21648 0.0196468 -0.166667 -0.216536 0.961943 0 
0.0888997 0.216459 0.0194012 -0.211618 -0.21701 0.952956 0 
0.089045 0.216293 0.01823 -0.271022 -0.142854 0.951914 0 
0.0890523 0.216748 0.0188071 -0.211618 -0.21701 0.952956 0 
0.0889665 0.216955 0.0188014 -0.232699 -0.25778 0.937763 0 
0.0893289 0.215746 0.0187096 -0.446083 -0.151582 0.882062 0 
0.0895674 0.21551 0.0188409 -0.986326 -0.162278 0.0287726 0 
0.0906747 0.216051 0.0200119 -0.699504 -0.172963 0.693381 0 
0.0868818 0.218396 0.0199276 0.0241443 -0.16901 0.985318 0 
0.0871203 0.218159 0.0200589 -0.0370766 -0.209303 0.977148 0 
0.0868675 0.218683 0.0200134 0.0149254 -0.177956 0.983925 0 
0.087569 0.218261 0.020493 -0.082407 -0.249757 0.964796 0 
0.0883034 0.217089 0.0196394 -0.167193 -0.250121 0.95367 0 
0.0883703 0.217266 0.0197594 -0.181044 -0.294369 0.938387 0 
0.0881412 0.217311 0.019571 -0.150446 -0.291405 0.944695 0 
0.0889736 0.217011 0.0189652 -0.204834 -0.257073 0.944434 0 
0.0878717 0.21797 0.0194189 -0.110787 -0.264584 0.957978 0 
0.0884204 0.217578 0.0197728 -0.155305 -0.28225 0.946686 0 
0.0874782 0.218164 0.0201026 -0.0810082 -0.225577 0.970852 0 
0.0875474 0.218093 0.0200017 -0.0789217 -0.236765 0.968356 0 
0.0878694 0.218217 0.0196398 -0.0830942 -0.26718 0.960057 0 
0.08801 0.217828 0.019217 -0.1117 -0.282534 0.952732 0 
0.0879957 0.218115 0.0193027 -0.119094 -0.265672 0.956679 0 
0.088115 0.217638 0.0195215 -0.120681 -0.285126 0.950862 0 
0.0883154 0.217768 0.0194682 -0.115273 -0.29017 0.950007 0 
0.0885492 0.217627 0.0196281 -0.176311 -0.27745 0.944424 0 
0.088523 0.217954 0.0195787 -0.155305 -0.28225 0.946686 0 
0.0887424 0.217702 0.019411 -0.194419 -0.274392 0.941759 0 
0.0887162 0.218029 0.0193616 -0.149644 -0.281761 0.947743 0 
0.0881412 0.218029 0.0192646 -0.136821 -0.272313 0.952431 0 
0.087929 0.218338 0.019596 -0.0826513 -0.258126 0.962569 0 
0.0881222 0.218412 0.0193789 -0.1158 -0.258924 0.958931 0 
0.088418 0.218145 0.0192741 -0.163687 -0.271909 0.9483 0 
0.0884037 0.218432 0.0193598 -0.136076 -0.262905 0.955177 0 
0.0885587 0.218154 0.0192645 -0.184515 -0.271989 0.944445 0 
0.0889166 0.218159 0.0193083 -0.173707 -0.285864 0.942395 0 
0.0887736 0.218397 0.0195388 -0.187081 -0.263552 0.94633 0 
0.0889331 0.216906 0.0193079 -0.193155 -0.236379 0.952269 0 
0.0889189 0.217193 0.0193937 -0.202433 -0.263026 0.943312 0 
0.0889857 0.21737 0.0195137 -0.206002 -0.298493 0.931915 0 
0.0892028 0.217365 0.019567 -0.206002 -0.298493 0.931915 0 
0.0898256 0.217205 0.0202047 -0.281045 -0.295607 0.913033 0 
0.0890311 0.217777 0.0195557 -0.204158 -0.281933 0.937461 0 
0.0890741 0.218033 0.0194053 -0.198511 -0.287355 0.937027 0 
0.0891504 0.218019 0.0194681 -0.204158 -0.281933 0.937461 0 
0.0891838 0.217748 0.0196813 -0.204158 -0.281933 0.937461 0 
0.089339 0.217869 0.0199993 -0.204158 -0.281933 0.937461 0 
0.0890169 0.218065 0.0196414 -0.198308 -0.281514 0.938842 0 
0.0895298 0.217473 0.0203096 -0.231704 -0.299935 0.925393 0 
0.0894392 0.217775 0.0203325 -0.209405 -0.296539 0.93178 0 
0.0896683 0.21773 0.0205209 -0.235324 -0.277597 0.93143 0 
0.0896587 0.217522 0.0201648 -0.231704 -0.299935 0.925393 0 
0.0898926 0.217781 0.020738 -0.27171 -0.277461 0.921515 0 
0.088981 0.218184 0.0192359 -0.173707 -0.285864 0.942395 0 
0.0877717 0.218144 0.0202187 -0.0821077 -0.243797 0.966344 0 
0.0877574 0.218431 0.0203044 -0.0879093 -0.206773 0.974432 0 
0.0878646 0.218313 0.0196684 -0.0845128 -0.238402 0.967482 0 
0.0881486 0.218484 0.0198417 -0.11073 -0.222733 0.96857 0 
0.0883013 0.218454 0.0199673 -0.103193 -0.233139 0.966953 0 
0.0879506 0.218505 0.0200873 -0.0879093 -0.206773 0.974432 0 
0.0879364 0.218792 0.0201731 -0.0928423 -0.160364 0.982682 0 
0.0880699 0.218746 0.0199998 -0.101925 -0.178062 0.978726 0 
0.0880652 0.218842 0.0200284 -0.0899126 -0.152252 0.984243 0 
0.0881127 0.218603 0.0194361 -0.131082 -0.199805 0.971028 0 
0.0883418 0.218559 0.0196246 -0.139166 -0.227608 0.963757 0 
0.0881438 0.21858 0.0198703 -0.11073 -0.222733 0.96857 0 
0.088535 0.218633 0.0194075 -0.184974 -0.244382 0.951873 0 
0.0884802 0.218816 0.019836 -0.149634 -0.188002 0.970703 0 
0.0881296 0.218867 0.019956 -0.116298 -0.157921 0.980579 0 
0.0884779 0.219063 0.0200569 -0.156638 -0.177013 0.971664 0 
0.0880152 0.218929 0.0204283 -0.0961367 -0.134117 0.986291 0 
0.088039 0.219169 0.019979 -0.0852448 -0.120277 0.989074 0 
0.0879126 0.219271 0.020316 -0.0902032 -0.0856359 0.992235 0 
0.0880295 0.21936 0.0200361 -0.0907447 -0.0953394 0.9913 0 
0.0878625 0.219677 0.0199963 -0.0686316 -0.0911338 0.993471 0 
0.0878173 0.219669 0.0203676 -0.0683663 -0.0840569 0.994113 0 
0.0881201 0.219058 0.0200132 -0.105393 -0.15385 0.982457 0 
0.0885376 0.219184 0.0200132 -0.216376 -0.14641 0.96527 0 
0.0881058 0.219345 0.020099 -0.0938343 -0.100785 0.990473 0 
0.0884517 0.21939 0.0200075 -0.188133 -0.130052 0.973495 0 
0.0886664 0.219233 0.0198684 -0.222502 -0.144431 0.964175 0 
0.0886569 0.219425 0.0199256 -0.214153 -0.129518 0.968176 0 
0.0882203 0.219682 0.02004 -0.120506 -0.090087 0.988617 0 
0.0882156 0.219778 0.0200686 -0.120506 -0.090087 0.988617 0 
0.0882848 0.219707 0.0199676 -0.152906 -0.0951145 0.983653 0 
0.0887071 0.219737 0.019939 -0.273193 -0.111107 0.955521 0 
0.0890909 0.218297 0.0199252 -0.187982 -0.275799 0.942655 0 
0.0889263 0.218367 0.0196644 -0.214225 -0.261216 0.941209 0 
0.0890767 0.218584 0.020011 -0.21855 -0.24604 0.944299 0 
0.0889167 0.218558 0.0197216 -0.214225 -0.261216 0.941209 0 
0.0887856 0.218756 0.0200873 -0.214867 -0.214867 0.952714 0 
0.0888238 0.219108 0.0199655 -0.280356 -0.191968 0.940505 0 
0.0890624 0.218871 0.0200967 -0.242339 -0.214956 0.946079 0 
0.0891387 0.218856 0.0201596 -0.247173 -0.222317 0.943123 0 
0.0892962 0.218731 0.0202566 -0.20353 -0.249973 0.94662 0 
0.0896159 0.218384 0.0204221 -0.257176 -0.245933 0.934547 0 
0.0896016 0.218671 0.0205079 -0.24126 -0.246838 0.938544 0 
0.0895874 0.218958 0.0205936 -0.250903 -0.250903 0.93493 0 
0.0899475 0.218715 0.0204164 -0.27437 -0.277243 0.920792 0 
0.0890481 0.219158 0.0201825 -0.259783 -0.202054 0.944292 0 
0.0891031 0.219375 0.0201673 -0.291148 -0.168128 0.941789 0 
0.0894084 0.219315 0.0204186 -0.27766 -0.194776 0.940727 0 
0.0884733 0.219558 0.0204988 -0.210933 -0.109887 0.971304 0 
0.0889456 0.2195 0.0200703 -0.286321 -0.141144 0.947681 0 
0.0889361 0.219692 0.0201274 -0.286296 -0.114782 0.951241 0 
0.0891746 0.219455 0.0202587 -0.284354 -0.146894 0.947399 0 
0.0893942 0.219602 0.0205044 -0.34311 -0.179321 0.922019 0 
0.0891604 0.219742 0.0203445 -0.286886 -0.103489 0.952358 0 
0.0895731 0.219245 0.0206794 -0.283902 -0.230229 0.930803 0 
0.0896328 0.219365 0.0206356 -0.288384 -0.237242 0.927659 0 
0.0897473 0.219702 0.0205767 -0.330637 -0.235344 0.913943 0 
0.0852936 0.222972 0.0200834 0.40424 0.271007 -0.873582 0 
0.0876216 0.221199 0.0190599 -0.219707 -0.113028 0.968996 0 
0.0878077 0.221617 0.0190923 -0.320071 -0.149733 0.935486 0 
0.0854894 0.222879 0.0207783 0.225093 0.244426 -0.94318 0 
0.0853152 0.22314 0.0205747 0.333988 0.0918135 -0.938095 0 
0.085678 0.223448 0.0210031 0.180671 0.162732 -0.969988 0 
0.0856014 0.223383 0.0198073 0.345354 0.0643435 -0.936264 0 
0.0857016 0.223289 0.0201405 0.266998 0.154295 -0.951265 0 
0.0856205 0.223399 0.0201062 0.331297 0.105961 -0.937558 0 
0.0856826 0.223671 0.0202548 0.275003 0.119738 -0.953958 0 
0.0870498 0.224783 0.020609 -0.248132 -0.170339 0.953632 0 
0.0871214 0.224864 0.0207004 -0.242822 -0.160554 0.956692 0 
0.0872145 0.225432 0.0205634 -0.298516 -0.154029 0.941893 0 
0.0872861 0.225512 0.0206548 -0.363112 -0.165308 0.916964 0 
0.0872671 0.225895 0.0207692 -0.455404 -0.184225 0.871016 0 
0.0866898 0.226143 0.0208931 -0.443103 -0.16126 0.881847 0 
0.0867996 0.225857 0.0211691 -0.346793 -0.142309 0.927083 0 
0.0870691 0.225916 0.0210149 -0.456325 -0.187551 0.869823 0 
0.0869833 0.226123 0.0210093 -0.478627 -0.16936 0.861529 0 
0.087198 0.225966 0.0208701 -0.462418 -0.184672 0.867218 0 
0.0874603 0.22597 0.0205521 -0.449552 -0.184243 0.874047 0 
0.0874556 0.226065 0.0205807 -0.462418 -0.184672 0.867218 0 
0.0877935 0.220147 0.0205105 -0.0840174 -0.104734 0.990945 0 
0.087662 0.220585 0.0190235 -0.126225 -0.0955538 0.987389 0 
0.0882705 0.219994 0.0200534 -0.164897 -0.103824 0.980831 0 
0.0881655 0.220184 0.0197488 -0.16108 -0.116814 0.980004 0 
0.0884637 0.220069 0.0198363 -0.243199 -0.109375 0.96379 0 
0.0874762 0.220966 0.0198177 -0.151123 -0.105182 0.982903 0 
0.0875358 0.221086 0.0197739 -0.187734 -0.110651 0.975967 0 
0.0875215 0.221373 0.0198597 -0.191037 -0.13031 0.972895 0 
0.0874811 0.221269 0.0202024 -0.194364 -0.133387 0.971818 0 
0.0877148 0.221448 0.0196426 -0.335524 -0.13284 0.932619 0 
0.0895088 0.219939 0.0204454 -0.348842 -0.124489 0.928877 0 
0.0884231 0.220284 0.0194593 -0.22217 -0.124569 0.967018 0 
0.0888096 0.220113 0.0197448 -0.267674 -0.110987 0.957096 0 
0.0893393 0.220104 0.0202131 -0.362954 -0.116419 0.924506 0 
0.0895684 0.220059 0.0204016 -0.365556 -0.110899 0.924159 0 
0.0876648 0.221535 0.0200425 -0.201866 -0.147864 0.968187 0 
0.0878557 0.221856 0.0200463 -0.184063 -0.163468 0.969226 0 
0.0879058 0.222168 0.0200597 -0.153122 -0.194298 0.968918 0 
0.0874957 0.222498 0.0206369 -0.116769 -0.229689 0.966234 0 
0.0874861 0.222689 0.020694 -0.153711 -0.232537 0.960364 0 
0.0876172 0.222492 0.0203284 -0.136272 -0.22712 0.964285 0 
0.0878271 0.222431 0.0202179 -0.0946865 -0.231035 0.968327 0 
0.0878915 0.222455 0.0201455 -0.0943335 -0.225143 0.969748 0 
0.0878868 0.222551 0.0201741 -0.0947415 -0.228643 0.968889 0 
0.0876841 0.222668 0.0204484 -0.137226 -0.241778 0.960579 0 
0.0876841 0.222668 0.0204484 -0.137226 -0.241778 0.960579 0 
0.0875935 0.22297 0.0204714 -0.170308 -0.223117 0.959799 0 
0.0878773 0.222743 0.0202313 -0.101108 -0.24701 0.963724 0 
0.0877986 0.223005 0.0203894 -0.161371 -0.221721 0.961665 0 
0.087863 0.22303 0.0203171 -0.142071 -0.228096 0.963217 0 
0.0882352 0.222747 0.020275 -0.175324 -0.242241 0.954244 0 
0.0882209 0.223034 0.0203608 -0.174426 -0.230349 0.957348 0 
0.0887456 0.222323 0.020031 -0.269875 -0.19042 0.943879 0 
0.0883091 0.222581 0.0201455 -0.182732 -0.228081 0.956341 0 
0.088884 0.22258 0.0202424 -0.248915 -0.213159 0.944777 0 
0.0885239 0.222823 0.0204197 -0.191892 -0.251773 0.948572 0 
0.0890534 0.222415 0.0204747 -0.279373 -0.204317 0.938192 0 
0.0889104 0.222652 0.0207052 -0.205631 -0.238314 0.949169 0 
0.0891347 0.222703 0.0209222 -0.200528 -0.222061 0.954189 0 
0.0888961 0.222939 0.0207909 -0.174319 -0.232869 0.956758 0 
0.0873955 0.222992 0.020717 -0.167318 -0.222652 0.960433 0 
0.0876651 0.223051 0.0205627 -0.167318 -0.222652 0.960433 0 
0.0880015 0.223287 0.0205284 -0.136191 -0.229579 0.963714 0 
0.0879872 0.223574 0.0206142 -0.160201 -0.20709 0.965116 0 
0.0879825 0.22367 0.0206428 -0.157266 -0.206655 0.965692 0 
0.0879491 0.223941 0.0204296 -0.172051 -0.208826 0.962699 0 
0.0882067 0.223322 0.0204465 -0.180851 -0.234436 0.955161 0 
0.0881924 0.223609 0.0205323 -0.179098 -0.218898 0.95917 0 
0.0881877 0.223704 0.0205609 -0.177942 -0.212212 0.960886 0 
0.0869139 0.224358 0.0213097 -0.188866 -0.181051 0.965169 0 
0.0871214 0.224145 0.0210068 -0.206958 -0.201618 0.95735 0 
0.0870356 0.224352 0.0210012 -0.218342 -0.178643 0.959382 0 
0.0873837 0.224149 0.0206887 -0.190889 -0.193522 0.962346 0 
0.087973 0.223861 0.0207 -0.18663 -0.210455 0.959624 0 
0.0877416 0.224153 0.0207325 -0.204586 -0.209935 0.956071 0 
0.087806 0.224178 0.0206601 -0.206958 -0.201618 0.95735 0 
0.0873695 0.224436 0.0207745 -0.219694 -0.187739 0.957334 0 
0.0872288 0.224426 0.0207841 -0.219694 -0.187739 0.957334 0 
0.0873647 0.224532 0.0208031 -0.222905 -0.185531 0.957022 0 
0.0875078 0.224294 0.0205726 -0.2092 -0.195875 0.958055 0 
0.0874935 0.224581 0.0206584 -0.221879 -0.182021 0.957934 0 
0.0877154 0.22448 0.0206831 -0.303055 -0.212844 0.9289 0 
0.0877106 0.224576 0.0207116 -0.328801 -0.209237 0.920929 0 
0.0885621 0.223175 0.0202979 -0.232486 -0.229735 0.945078 0 
0.0885478 0.223462 0.0203837 -0.221896 -0.224619 0.948846 0 
0.0885096 0.22311 0.0205055 -0.232486 -0.229735 0.945078 0 
0.0884954 0.223397 0.0205912 -0.221896 -0.224619 0.948846 0 
0.0887626 0.223704 0.0206579 -0.228675 -0.207026 0.951235 0 
0.0881662 0.223936 0.0204829 -0.18397 -0.213088 0.959556 0 
0.0879993 0.224253 0.020443 -0.236419 -0.217287 0.947044 0 
0.0881924 0.224327 0.0202259 -0.197749 -0.200404 0.959549 0 
0.0881377 0.22451 0.0206544 -0.340334 -0.233165 0.910937 0 
0.0879802 0.224635 0.0205574 -0.292607 -0.205805 0.933823 0 
0.0883905 0.223986 0.0206999 -0.349298 -0.24407 0.904666 0 
0.0888128 0.224016 0.0206713 -0.35347 -0.247869 0.902009 0 
0.0885742 0.224252 0.02054 -0.349298 -0.24407 0.904666 0 
0.0883762 0.224273 0.0207857 -0.396937 -0.253141 0.882248 0 
0.0883428 0.224544 0.0205725 -0.411727 -0.241047 0.87885 0 
0.088362 0.224561 0.0208714 -0.411727 -0.241047 0.87885 0 
0.0887843 0.22459 0.0208428 -0.402567 -0.246928 0.881457 0 
0.0885599 0.224539 0.0206258 -0.402567 -0.246928 0.881457 0 
0.0887985 0.224303 0.020757 -0.400205 -0.256311 0.879852 0 
0.0887651 0.224574 0.0205439 -0.399757 -0.250035 0.88186 0 
0.0889677 0.22302 0.0208823 -0.183441 -0.234322 0.954695 0 
0.0888819 0.223227 0.0208767 -0.194996 -0.229961 0.953464 0 
0.0889535 0.223307 0.0209681 -0.179098 -0.218898 0.95917 0 
0.0891873 0.223167 0.021128 -0.157576 -0.209668 0.964992 0 
0.0889917 0.223659 0.0208463 -0.284463 -0.233515 0.929813 0 
0.0892207 0.223614 0.0210348 -0.348205 -0.274119 0.896444 0 
0.0890323 0.224162 0.0209169 -0.411259 -0.254589 0.875243 0 
0.0892471 0.224405 0.0211911 -0.411259 -0.254589 0.875243 0 
0.0892232 0.224484 0.0209208 -0.412984 -0.250794 0.875526 0 
0.087255 0.224817 0.0205271 -0.24344 -0.160963 0.956466 0 
0.087484 0.224773 0.0207155 -0.294985 -0.184192 0.93758 0 
0.087539 0.224989 0.0207004 -0.350441 -0.185862 0.917958 0 
0.0876725 0.224943 0.020527 -0.316915 -0.180097 0.931198 0 
0.0876917 0.224959 0.020826 -0.351895 -0.192331 0.916067 0 
0.0872407 0.225105 0.0206129 -0.286682 -0.161683 0.944284 0 
0.087663 0.225134 0.0205842 -0.333684 -0.181625 0.925023 0 
0.0874436 0.225387 0.0207519 -0.395532 -0.174034 0.901813 0 
0.0881354 0.224757 0.0208754 -0.423598 -0.232006 0.875636 0 
0.0881164 0.22514 0.0209897 -0.456495 -0.214029 0.863599 0 
0.0872861 0.225512 0.0206548 -0.363112 -0.165308 0.916964 0 
0.0872766 0.225704 0.020712 -0.409167 -0.177836 0.894962 0 
0.0876631 0.225533 0.0209975 -0.478583 -0.205535 0.853647 0 
0.087198 0.225966 0.0208701 -0.462418 -0.184672 0.867218 0 
0.0874151 0.225961 0.0209234 -0.511 -0.197466 0.836592 0 
0.0872529 0.226182 0.020855 -0.467544 -0.178463 0.865768 0 
0.0876441 0.225916 0.0211119 -0.50238 -0.203668 0.840318 0 
0.0878398 0.226142 0.0210871 -0.511 -0.197466 0.836592 0 
0.0881021 0.225427 0.0210755 -0.475968 -0.208705 0.85434 0 
0.0880831 0.22581 0.0211898 -0.497225 -0.210074 0.841806 0 
0.0882358 0.22578 0.0213155 -0.502039 -0.210826 0.838754 0 
0.0881023 0.225826 0.0214888 -0.497225 -0.210074 0.841806 0 
0.0887319 0.224925 0.0214637 -0.419669 -0.245183 0.873935 0 
0.0888035 0.225005 0.0215551 -0.442817 -0.243323 0.862964 0 
0.088749 0.225267 0.0231166 -0.687685 -0.390843 0.611826 0 
0.0884699 0.225719 0.0226083 -0.46302 -0.221707 0.858171 0 
0.0892381 0.225793 0.0224882 -0.618448 -0.318105 0.718562 0 
0.087966 0.224923 0.0206431 -0.40781 -0.213475 0.887761 0 
0.0881592 0.224997 0.020426 -0.385983 -0.208285 0.898685 0 
0.0874841 0.225491 0.0204092 -0.373042 -0.17866 0.910451 0 
0.0879565 0.225114 0.0207003 -0.448519 -0.210104 0.868727 0 
0.0880949 0.225371 0.0209117 -0.477192 -0.209242 0.853526 0 
0.0883286 0.224832 0.0206583 -0.423598 -0.232006 0.875636 0 
0.088195 0.224878 0.0208316 -0.423858 -0.218622 0.878948 0 
0.0883477 0.224848 0.0209572 -0.423598 -0.232006 0.875636 0 
0.0887056 0.224852 0.0210009 -0.412911 -0.231051 0.880976 0 
0.088393 0.224856 0.0205859 -0.423598 -0.232006 0.875636 0 
0.0888511 0.224767 0.0209628 -0.40353 -0.239735 0.883001 0 
0.0889799 0.224816 0.0208181 -0.412208 -0.247325 0.876878 0 
0.0883335 0.225135 0.021043 -0.445192 -0.220348 0.8679 0 
0.0885625 0.22509 0.0212314 -0.435362 -0.222917 0.87222 0 
0.0874793 0.225587 0.0204377 -0.401483 -0.184074 0.897178 0 
0.0883192 0.225422 0.0211288 -0.470701 -0.215049 0.855684 0 
0.0885483 0.225377 0.0213172 -0.45232 -0.2209 0.864066 0 
0.0881333 0.226122 0.0212032 -0.501714 -0.197371 0.842216 0 
0.088286 0.226092 0.0213288 -0.49885 -0.203458 0.842469 0 
0.0894313 0.225867 0.0222711 -0.625926 -0.315389 0.713265 0 
0.0867495 0.226263 0.0208494 -0.47718 -0.153223 0.865345 0 
0.0867757 0.226655 0.0205924 -0.476527 -0.115912 0.871485 0 
0.0869546 0.226298 0.0207675 -0.460478 -0.162264 0.872715 0 
0.0870931 0.226555 0.0209789 -0.48209 -0.147103 0.863684 0 
0.0871575 0.22658 0.0209065 -0.48209 -0.147103 0.863684 0 
0.0866851 0.226957 0.0206153 -0.522877 -0.108033 0.845534 0 
0.0866757 0.227148 0.0206725 -0.575187 -0.1063 0.811086 0 
0.0869953 0.226801 0.020838 -0.544394 -0.11822 0.830457 0 
0.0872243 0.226756 0.0210265 -0.521291 -0.142437 0.841408 0 
0.0871193 0.226947 0.0207219 -0.556783 -0.124872 0.821218 0 
0.086647 0.227324 0.0204308 -0.590511 -0.0790221 0.803152 0 
0.0866327 0.227611 0.0205165 -0.605463 -0.0612586 0.793512 0 
0.0866328 0.227291 0.0212362 -0.581664 -0.0942846 0.807947 0 
0.0867187 0.227803 0.0209355 -0.605463 -0.0612586 0.793512 0 
0.0869547 0.227016 0.0204611 -0.535215 -0.114585 0.836908 0 
0.0874128 0.226927 0.020838 -0.543012 -0.136857 0.828498 0 
0.0868641 0.227319 0.020484 -0.584575 -0.0851603 0.806858 0 
0.0870932 0.227274 0.0206725 -0.592158 -0.0912125 0.800643 0 
0.0868546 0.22751 0.0205412 -0.592509 -0.0760363 0.801967 0 
0.0870597 0.227545 0.0204593 -0.594493 -0.0730582 0.800775 0 
0.0875918 0.227288 0.0207066 -0.597526 -0.110109 0.794254 0 
0.0869167 0.227782 0.0206898 -0.601726 -0.0643176 0.796108 0 
0.0870455 0.227832 0.0205451 -0.601726 -0.0643176 0.796108 0 
0.0868356 0.227893 0.0206556 -0.601613 -0.0671635 0.795959 0 
0.0869119 0.227878 0.0207184 -0.605463 -0.0612586 0.793512 0 
0.0875632 0.227862 0.0208782 -0.586315 -0.0610449 0.80778 0 
0.0860175 0.229343 0.0205628 -0.617163 -0.205721 0.759466 0 
0.0865947 0.228376 0.0207452 -0.59272 -0.0611198 0.803086 0 
0.0865899 0.228472 0.0207738 -0.579564 -0.0758442 0.81139 0 
0.0867092 0.227995 0.0209926 -0.604115 -0.0731826 0.793529 0 
0.0861104 0.228793 0.0203189 -0.560064 -0.115522 0.820355 0 
0.0859028 0.229325 0.0199021 -0.568026 -0.157369 0.807825 0 
0.0859959 0.229175 0.0200715 -0.586105 -0.151398 0.795964 0 
0.0862846 0.22925 0.0202162 -0.601785 -0.17825 0.778512 0 
0.0856954 0.229538 0.0202049 -0.599543 -0.218438 0.769956 0 
0.0858481 0.229508 0.0203306 -0.614446 -0.212038 0.759932 0 
0.0862703 0.229538 0.0203019 -0.622213 -0.21568 0.752551 0 
0.0864039 0.229492 0.0201286 -0.610597 -0.195329 0.767475 0 
0.0863896 0.229779 0.0202144 -0.633448 -0.22679 0.739804 0 
0.0863155 0.228828 0.020237 -0.567577 -0.112348 0.815619 0 
0.0866449 0.228688 0.0207586 -0.572985 -0.0971898 0.813783 0 
0.0868977 0.228165 0.0208041 -0.588798 -0.067006 0.805498 0 
0.0874893 0.228029 0.0210077 -0.610625 -0.0704015 0.788784 0 
0.0868071 0.228467 0.0208271 -0.595859 -0.0732261 0.799744 0 
0.0869263 0.228708 0.0207395 -0.574928 -0.0970282 0.81243 0 
0.0874703 0.228412 0.0211221 -0.593495 -0.0524088 0.80313 0 
0.0872962 0.228673 0.0209184 -0.599434 -0.0852207 0.795875 0 
0.0874608 0.228603 0.0211793 -0.604115 -0.0731826 0.793529 0 
0.0861725 0.229065 0.0204675 -0.592554 -0.154514 0.790572 0 
0.0863013 0.229115 0.0203228 -0.598449 -0.15828 0.78537 0 
0.0865303 0.22907 0.0205112 -0.605139 -0.158453 0.780192 0 
0.0865137 0.229206 0.0204046 -0.607406 -0.175067 0.774861 0 
0.0863873 0.229308 0.0207417 -0.61959 -0.192181 0.761035 0 
0.0866164 0.229263 0.0209301 -0.623721 -0.188495 0.758579 0 
0.0867093 0.229432 0.0203799 -0.620671 -0.195596 0.759282 0 
0.086695 0.229719 0.0204656 -0.629654 -0.229675 0.742149 0 
0.086466 0.229764 0.0202772 -0.629654 -0.229675 0.742149 0 
0.0868048 0.229433 0.0207416 -0.629208 -0.195377 0.75228 0 
0.0869216 0.228804 0.0207681 -0.591944 -0.116039 0.797582 0 
0.0872819 0.22896 0.0210042 -0.62905 -0.142625 0.764169 0 
0.0874466 0.22889 0.021265 -0.639025 -0.129592 0.75819 0 
0.0870481 0.229101 0.0208443 -0.629144 -0.165245 0.759521 0 
0.0872677 0.229247 0.02109 -0.629144 -0.165245 0.759521 0 
0.0874323 0.229178 0.0213508 -0.643146 -0.158895 0.749076 0 
0.0874825 0.229489 0.0213642 -0.641255 -0.20242 0.740147 0 
0.0871627 0.229438 0.0207854 -0.631436 -0.192043 0.751271 0 
0.0868883 0.229793 0.0202486 -0.630964 -0.222785 0.743136 0 
0.0857694 0.22977 0.0204887 -0.621131 -0.254458 0.741247 0 
0.0852829 0.230833 0.0206966 -0.374396 -0.343582 0.861266 0 
0.0855739 0.230662 0.0206204 -0.483325 -0.324857 0.812936 0 
0.0857314 0.230536 0.0207174 -0.524101 -0.313824 0.791728 0 
0.085586 0.231021 0.0211688 -0.43049 -0.336565 0.837498 0 
0.0856505 0.231046 0.0210965 -0.434845 -0.340655 0.833585 0 
0.085932 0.231065 0.0210774 -0.462712 -0.330058 0.822775 0 
0.0858338 0.229795 0.0204163 -0.621131 -0.254458 0.741247 0 
0.0859007 0.229972 0.0205363 -0.618681 -0.257916 0.742101 0 
0.0861034 0.229855 0.0202621 -0.620171 -0.250909 0.743258 0 
0.0862322 0.229904 0.0201173 -0.620171 -0.250909 0.743258 0 
0.0860939 0.230046 0.0203193 -0.620629 -0.257411 0.740648 0 
0.0856573 0.230304 0.0204336 -0.547249 -0.311118 0.776997 0 
0.0858864 0.230259 0.0206221 -0.58971 -0.278165 0.758199 0 
0.0860344 0.230325 0.0207763 -0.597041 -0.284987 0.749883 0 
0.0862276 0.230399 0.0205592 -0.582705 -0.277857 0.763709 0 
0.0860796 0.230333 0.020405 -0.589187 -0.281094 0.757526 0 
0.0862179 0.230191 0.0202031 -0.596493 -0.264229 0.757878 0 
0.0863564 0.230449 0.0204145 -0.584796 -0.277342 0.762295 0 
0.0865781 0.229949 0.0200259 -0.62452 -0.246977 0.74093 0 
0.0864039 0.23021 0.0198222 -0.593441 -0.270609 0.758022 0 
0.0866091 0.230245 0.0197403 -0.596911 -0.270748 0.755243 0 
0.0858674 0.230642 0.0207364 -0.521259 -0.317219 0.792251 0 
0.0856241 0.230974 0.0206337 -0.435309 -0.337875 0.834474 0 
0.0860058 0.230899 0.0209478 -0.509032 -0.315568 0.800814 0 
0.0866665 0.230293 0.0206372 -0.623026 -0.261576 0.737168 0 
0.0868908 0.230344 0.0208542 -0.629272 -0.264706 0.730717 0 
0.0872487 0.22963 0.0212043 -0.638058 -0.219966 0.7379 0 
0.087368 0.229871 0.0211168 -0.641647 -0.236892 0.729501 0 
0.0870054 0.229962 0.0211016 -0.639796 -0.237369 0.73097 0 
0.0871199 0.230299 0.0210427 -0.630765 -0.257681 0.73194 0 
0.0867188 0.229959 0.0200163 -0.62452 -0.246977 0.74093 0 
0.087177 0.229869 0.0203932 -0.63312 -0.237224 0.736807 0 
0.0868476 0.230008 0.0198716 -0.632645 -0.240185 0.736255 0 
0.0873057 0.229918 0.0202485 -0.633448 -0.22679 0.739804 0 
0.0872653 0.229814 0.0205912 -0.636781 -0.226863 0.736914 0 
0.0873416 0.229799 0.0206541 -0.634734 -0.219895 0.740783 0 
0.0873154 0.230126 0.0206046 -0.636065 -0.247797 0.730765 0 
0.0863303 0.230456 0.0210848 -0.599623 -0.281521 0.749132 0 
0.0862253 0.230646 0.0207802 -0.546431 -0.307467 0.779023 0 
0.0864232 0.230625 0.0205345 -0.555516 -0.300838 0.775176 0 
0.0862802 0.230863 0.020765 -0.526929 -0.310427 0.79119 0 
0.0867478 0.230581 0.0210847 -0.60452 -0.282322 0.744883 0 
0.086211 0.230933 0.0208659 -0.509032 -0.315568 0.800814 0 
0.0862015 0.231125 0.0209231 -0.493582 -0.322177 0.807824 0 
0.0862659 0.23115 0.0208507 -0.489914 -0.321853 0.810182 0 
0.086495 0.231105 0.0210392 -0.50091 -0.322809 0.803046 0 
0.0871056 0.230586 0.0211284 -0.612521 -0.278419 0.739798 0 
0.0870914 0.230873 0.0212142 -0.57513 -0.294734 0.763123 0 
0.085765 0.231382 0.0210375 -0.385346 -0.345109 0.855808 0 
0.0857222 0.232244 0.0212948 -0.404444 -0.312175 0.859635 0 
0.0858749 0.232214 0.0214204 -0.394579 -0.311671 0.864389 0 
0.0855386 0.232377 0.0218681 -0.36757 -0.280553 0.886669 0 
0.0853812 0.232503 0.021771 -0.378419 -0.264744 0.886967 0 
0.0856316 0.232546 0.0213178 -0.387695 -0.276063 0.879478 0 
0.085994 0.231338 0.021226 -0.435516 -0.344325 0.831725 0 
0.0857866 0.23155 0.0215288 -0.373668 -0.361264 0.854319 0 
0.0857723 0.231837 0.0216146 -0.33933 -0.345416 0.874953 0 
0.085832 0.231958 0.0215708 -0.383499 -0.334214 0.860947 0 
0.0858247 0.231503 0.0209937 -0.354327 -0.351259 0.866643 0 
0.0858104 0.23179 0.0210795 -0.326392 -0.347646 0.878982 0 
0.0859536 0.231952 0.0212623 -0.333218 -0.351477 0.874888 0 
0.0861468 0.232026 0.0210452 -0.337877 -0.359281 0.869918 0 
0.0857724 0.232556 0.0213082 -0.384478 -0.281951 0.879022 0 
0.0861183 0.2326 0.0212168 -0.388069 -0.282369 0.877308 0 
0.0857676 0.232652 0.0213368 -0.385563 -0.265543 0.883645 0 
0.0859608 0.232726 0.0211197 -0.397768 -0.273749 0.875695 0 
0.0861872 0.231412 0.0210089 -0.438314 -0.334627 0.83421 0 
0.0864355 0.231383 0.0214963 -0.45746 -0.340325 0.821529 0 
0.0864139 0.231215 0.021005 -0.485748 -0.324359 0.81169 0 
0.0864807 0.231392 0.021125 -0.461153 -0.340714 0.819299 0 
0.0867193 0.231156 0.0212562 -0.522045 -0.32089 0.790252 0 
0.086705 0.231443 0.021342 -0.488485 -0.332552 0.806717 0 
0.0861969 0.23162 0.021365 -0.382295 -0.348244 0.855907 0 
0.0860299 0.231937 0.0213251 -0.320267 -0.35366 0.878837 0 
0.0861682 0.231795 0.0211232 -0.336814 -0.352054 0.873278 0 
0.0865023 0.23156 0.0216163 -0.43618 -0.348 0.829845 0 
0.0864665 0.231679 0.0212107 -0.411028 -0.348514 0.842374 0 
0.0864522 0.231966 0.0212965 -0.359074 -0.359074 0.86147 0 
0.0866908 0.23173 0.0214278 -0.441021 -0.34934 0.826718 0 
0.0870771 0.23116 0.0213 -0.52799 -0.320622 0.786402 0 
0.0869341 0.231398 0.0215304 -0.485018 -0.338718 0.806243 0 
0.0869604 0.23147 0.0219932 -0.486264 -0.339588 0.805126 0 
0.0869198 0.231685 0.0216162 -0.454641 -0.350089 0.818987 0 
0.0861445 0.232273 0.0212662 -0.390163 -0.331562 0.858976 0 
0.0866765 0.232017 0.0215135 -0.398775 -0.361243 0.842901 0 
0.0864427 0.232158 0.0213537 -0.341863 -0.357193 0.86922 0 
0.0862041 0.232394 0.0212224 -0.402543 -0.316173 0.859066 0 
0.0863187 0.232731 0.0211634 -0.389543 -0.272229 0.879856 0 
0.0864237 0.23254 0.021468 -0.363693 -0.282872 0.887531 0 
0.0866623 0.232304 0.0215993 -0.342568 -0.300682 0.890077 0 
0.086648 0.232591 0.0216851 -0.361705 -0.272395 0.891611 0 
0.08676 0.232058 0.0217401 -0.382295 -0.348244 0.855907 0 
0.0869056 0.231972 0.021702 -0.405534 -0.358561 0.840818 0 
0.0868913 0.232259 0.0217877 -0.34582 -0.29492 0.890748 0 
0.0868127 0.232521 0.0219459 -0.333966 -0.286469 0.897999 0 
0.0871837 0.226253 0.0209559 -0.478627 -0.16936 0.861529 0 
0.0873866 0.226535 0.021095 -0.503441 -0.160924 0.848911 0 
0.0875917 0.22657 0.0210131 -0.490571 -0.163524 0.855921 0 
0.0875775 0.226857 0.0210988 -0.53823 -0.152721 0.828845 0 
0.0881263 0.226864 0.0218661 -0.587014 -0.18449 0.788276 0 
0.0886583 0.225889 0.0224198 -0.466589 -0.22197 0.856168 0 
0.087594 0.226322 0.0207921 -0.466595 -0.175157 0.866954 0 
0.0875798 0.22661 0.0208778 -0.49674 -0.157719 0.853449 0 
0.0878136 0.226469 0.0210377 -0.514311 -0.181433 0.838192 0 
0.0876324 0.227073 0.0210836 -0.566715 -0.13761 0.812341 0 
0.0876943 0.226946 0.0208189 -0.540573 -0.149583 0.827892 0 
0.0877994 0.226756 0.0211235 -0.540383 -0.159286 0.826205 0 
0.0879139 0.227093 0.0210645 -0.55217 -0.150321 0.820069 0 
0.088119 0.226409 0.021289 -0.515322 -0.184795 0.836836 0 
0.0882717 0.226379 0.0214146 -0.510013 -0.194076 0.837986 0 
0.0881048 0.226696 0.0213747 -0.535602 -0.172533 0.826658 0 
0.0882574 0.226666 0.0215004 -0.527995 -0.185024 0.828847 0 
0.0880905 0.226983 0.0214605 -0.57815 -0.167558 0.798541 0 
0.0878208 0.227243 0.0208951 -0.570019 -0.128144 0.811577 0 
0.0878066 0.22753 0.0209809 -0.621864 -0.0980351 0.776965 0 
0.0877923 0.227818 0.0210666 -0.644337 -0.0645772 0.762011 0 
0.0879617 0.227652 0.0212989 -0.617587 -0.0795487 0.78247 0 
0.0880762 0.22727 0.0215463 -0.607334 -0.155224 0.779135 0 
0.088062 0.227558 0.0216321 -0.597003 -0.103636 0.795517 0 
0.0877257 0.228439 0.0217733 -0.588962 -0.0522581 0.806469 0 
0.0875085 0.228045 0.0213067 -0.609899 -0.064275 0.789869 0 
0.0878187 0.22789 0.0215293 -0.625664 -0.0644277 0.777427 0 
0.0878044 0.228177 0.0216151 -0.626064 -0.0409839 0.778694 0 
0.0875706 0.228317 0.0214553 -0.581957 -0.0552222 0.811342 0 
0.0875564 0.228604 0.021541 -0.609364 -0.0673884 0.790022 0 
0.0875421 0.228892 0.0216268 -0.630426 -0.120152 0.766894 0 
0.0876566 0.229228 0.0215678 -0.660656 -0.159469 0.733556 0 
0.0879572 0.229584 0.021128 -0.663279 -0.18621 0.724836 0 
0.0875136 0.229466 0.0217983 -0.660783 -0.202723 0.722682 0 
