0.100112 0.238139 0.0394497 -0.946025 0.110436 -0.304697 1 
0.100317 0.238189 0.0396854 -0.944307 0.153094 -0.291285 1 
0.10034 0.238119 0.0392558 -0.870313 0.181131 -0.457982 1 
0.100748 0.238236 0.0392585 -0.887846 0.198114 -0.415307 1 
0.100497 0.238327 0.039882 -0.959424 0.11295 -0.258356 1 
0.10058 0.238303 0.039518 -0.846881 0.33844 -0.410184 1 
0.100747 0.23746 0.0398041 -0.896068 0.113943 -0.429044 1 
0.100719 0.237308 0.0394782 -0.879859 0.0422878 -0.47335 1 
0.100729 0.237311 0.037942 -0.845085 0.0344651 -0.53352 1 
0.10077 0.236652 0.0382146 -0.86677 -0.0120945 -0.498561 1 
0.100881 0.237297 0.0378128 -0.838268 0.043095 -0.543553 1 
0.100973 0.236979 0.0377998 -0.843988 0.0289131 -0.535582 1 
0.100749 0.236483 0.0375893 -0.825202 -0.0375724 -0.563587 1 
0.10097 0.236221 0.0378766 -0.830273 -0.0262482 -0.556739 1 
0.100777 0.236376 0.038097 -0.847185 -0.0316834 -0.530352 1 
0.101005 0.236356 0.0379031 -0.829619 -0.0347412 -0.557248 1 
0.101277 0.236693 0.0377231 -0.834309 -0.00952718 -0.551215 1 
0.101429 0.236679 0.0375938 -0.805702 -0.00410374 -0.592307 1 
0.101454 0.23659 0.0376329 -0.814678 -0.0207473 -0.579542 1 
0.101233 0.236335 0.0377092 -0.817573 -0.0405292 -0.574397 1 
0.100309 0.235436 0.0385742 -0.867368 -0.168777 -0.468173 1 
0.100868 0.234764 0.0389933 -0.822253 -0.229001 -0.521016 1 
0.100944 0.235275 0.0385649 -0.873045 -0.155953 -0.462029 1 
0.101123 0.234895 0.0391253 -0.852247 -0.173414 -0.493562 1 
0.101409 0.235457 0.0381646 -0.827479 -0.0967559 -0.553097 1 
0.101562 0.235702 0.0378534 -0.813372 -0.0207141 -0.581375 1 
0.101665 0.235588 0.0382966 -0.849278 -0.00405061 -0.52793 1 
0.101121 0.234914 0.0386566 -0.777441 -0.242461 -0.580343 1 
0.101428 0.235385 0.0385031 -0.844333 -0.117309 -0.52282 1 
0.101716 0.235411 0.0383747 -0.827479 -0.0967559 -0.553097 1 
0.101681 0.235018 0.0385301 -0.733483 -0.229898 -0.639648 1 
0.101438 0.237161 0.0373994 -0.78119 0.0554944 -0.621822 1 
0.101426 0.23618 0.0374888 -0.803547 -0.02646 -0.594653 1 
0.101475 0.236021 0.0370983 -0.748247 -0.0860557 -0.657815 1 
0.101454 0.236849 0.0374511 -0.790269 0.0180554 -0.612494 1 
0.10164 0.236453 0.037712 -0.799006 -0.0349828 -0.600304 1 
0.101666 0.236364 0.037751 -0.810874 -0.0378128 -0.583998 1 
0.101945 0.236684 0.0372716 -0.755045 0.00414101 -0.65566 1 
0.102325 0.237167 0.0365848 -0.721192 0.0679279 -0.689396 1 
0.101612 0.235783 0.0377498 -0.801445 0.00962284 -0.597991 1 
0.10184 0.235763 0.0375559 -0.767253 -0.0585799 -0.638663 1 
0.102096 0.235635 0.0378697 -0.777297 -0.0323288 -0.628303 1 
0.101736 0.235101 0.0376583 -0.689558 -0.26595 -0.673633 1 
0.101208 0.23742 0.0386482 -0.855002 0.0542197 -0.515782 1 
0.100925 0.237655 0.0378266 -0.793648 0.0584193 -0.605566 1 
0.101121 0.237481 0.0380749 -0.809029 0.0552577 -0.585165 1 
0.101365 0.237408 0.0377509 -0.789843 0.0583488 -0.610527 1 
0.101441 0.237142 0.0378681 -0.81561 0.0435179 -0.576963 1 
0.101181 0.237786 0.0379586 -0.792463 0.0733496 -0.605493 1 
0.101436 0.237658 0.0382725 -0.791041 0.0792482 -0.606609 1 
0.100932 0.237858 0.0390508 -0.882204 0.111869 -0.457386 1 
0.101008 0.237592 0.039168 -0.885958 0.0675147 -0.458824 1 
0.10148 0.238016 0.0382864 -0.805319 0.106694 -0.583162 1 
0.101717 0.23796 0.0382617 -0.79472 0.0915308 -0.600035 1 
0.101789 0.23821 0.0387834 -0.821007 0.185974 -0.539778 1 
0.101607 0.235523 0.0386997 -0.86402 -0.00133543 -0.503455 1 
0.101786 0.237232 0.0373366 -0.781336 0.064514 -0.620768 1 
0.101816 0.237883 0.0377675 -0.793672 0.0763423 -0.603537 1 
0.101912 0.23679 0.037532 -0.773167 0.0208964 -0.633858 1 
0.10214 0.23651 0.0375199 -0.76301 -0.0125084 -0.646265 1 
0.102217 0.23728 0.0369098 -0.756894 0.061758 -0.650613 1 
0.101996 0.238021 0.0379641 -0.80659 0.103559 -0.58197 1 
0.10252 0.236217 0.0373786 -0.788022 0.0264999 -0.615076 1 
0.101703 0.234171 0.038646 -0.431733 -0.49083 -0.756764 1 
0.102921 0.23639 0.0359754 -0.682033 0.0677707 -0.728175 1 
0.102753 0.236457 0.0362348 -0.678772 0.0469591 -0.732846 1 
0.102645 0.236569 0.0365598 -0.669158 -0.0324013 -0.742413 1 
0.103073 0.236635 0.0356642 -0.745908 0.130048 -0.65323 1 
0.103253 0.236773 0.0358609 -0.727425 0.0860081 -0.680776 1 
0.101183 0.238247 0.0397691 -0.8926 0.287599 -0.347205 1 
0.101422 0.238172 0.0402131 -0.924375 0.223616 -0.309074 1 
0.102044 0.238083 0.0390972 -0.829305 0.182116 -0.528287 1 
0.102323 0.238144 0.0387996 -0.804037 0.173479 -0.568709 1 
0.102057 0.237752 0.0403856 -0.878351 0.307954 -0.3656 1 
0.103605 0.247242 0.0381064 -0.365731 -0.16239 -0.916445 1 
0.104061 0.247201 0.0377187 -0.378138 -0.175513 -0.908959 1 
0.104213 0.246928 0.0377713 -0.345043 -0.173226 -0.922463 1 
0.104312 0.246593 0.0374589 -0.290662 -0.162389 -0.942945 1 
0.104005 0.246121 0.0376124 -0.335999 -0.165908 -0.927135 1 
0.10406 0.246683 0.0380824 -0.336153 -0.163195 -0.92756 1 
0.104212 0.24667 0.0379531 -0.323371 -0.167931 -0.931252 1 
0.104016 0.246326 0.0380685 -0.345043 -0.173226 -0.922463 1 
0.104092 0.24606 0.0381857 -0.328149 -0.190129 -0.925294 1 
0.104472 0.246285 0.0376807 -0.291545 -0.186533 -0.938193 1 
0.104447 0.246114 0.0378235 -0.296667 -0.196385 -0.93457 1 
0.104288 0.246404 0.0380703 -0.332285 -0.175256 -0.926753 1 
0.103686 0.248492 0.03807 -0.448166 -0.15519 -0.880377 1 
0.103795 0.248638 0.0375631 -0.448166 -0.15519 -0.880377 1 
0.103947 0.248624 0.0374339 -0.461817 -0.158795 -0.872645 1 
0.104225 0.248426 0.0373181 -0.470948 -0.14056 -0.870891 1 
0.103915 0.24873 0.0376942 -0.450048 -0.161668 -0.878249 1 
0.103811 0.248326 0.0376148 -0.443995 -0.129915 -0.886561 1 
0.103741 0.247798 0.0377437 -0.410126 -0.140493 -0.901143 1 
0.103969 0.247778 0.0375498 -0.405092 -0.158888 -0.900364 1 
0.104165 0.24838 0.0372526 -0.470948 -0.14056 -0.870891 1 
0.104267 0.248285 0.037227 -0.45374 -0.139723 -0.880112 1 
0.10402 0.247859 0.0374461 -0.393116 -0.151853 -0.906863 1 
0.104243 0.248096 0.0378385 -0.411101 -0.156132 -0.89812 1 
0.104253 0.248578 0.037644 -0.47569 -0.159539 -0.865024 1 
0.104069 0.248956 0.0378518 -0.451899 -0.183998 -0.872887 1 
0.104297 0.248677 0.0378398 -0.47569 -0.159539 -0.865024 1 
0.103817 0.247015 0.0382246 -0.364653 -0.171685 -0.915179 1 
0.104123 0.247487 0.0380711 -0.411705 -0.187668 -0.891785 1 
0.104241 0.247597 0.0377335 -0.38256 -0.176235 -0.906967 1 
0.104367 0.247155 0.0379288 -0.365805 -0.190792 -0.910925 1 
0.102406 0.244769 0.0378866 -0.267032 0.340797 0.901416 1 
0.102253 0.244007 0.0385614 -0.509863 0.513206 -0.690405 1 
0.102456 0.244075 0.0383284 -0.403902 0.291114 0.867246 1 
0.102221 0.244371 0.0386399 -0.715236 0.698373 -0.0266984 1 
0.102281 0.244676 0.0385236 -0.636904 0.701729 -0.319263 1 
0.102652 0.244419 0.038213 -0.253229 0.290426 0.922783 1 
0.102509 0.244655 0.0383297 -0.26157 0.328789 0.907457 1 
0.102041 0.243716 0.0388069 -0.396721 0.441694 -0.804686 1 
0.102423 0.243663 0.0389525 -0.789947 0.59582 0.144849 1 
0.102679 0.243794 0.0390845 -0.722131 0.691755 0.00138075 1 
0.102712 0.244723 0.0380967 -0.247558 0.322839 0.913504 1 
0.102786 0.244476 0.0377453 -0.683576 0.673971 -0.280154 1 
0.102965 0.244614 0.0379419 -0.729158 0.647967 -0.220153 1 
0.103057 0.244554 0.0377471 -0.719285 0.659995 -0.216878 1 
0.103193 0.244335 0.0379299 -0.71177 0.671452 -0.206243 1 
0.103465 0.244155 0.0381136 -0.727483 0.673706 -0.129961 1 
0.102176 0.245287 0.0389536 -0.688449 0.715214 -0.120441 1 
0.102001 0.245371 0.0395124 -0.629618 0.776106 0.0352135 1 
0.102235 0.244816 0.0393828 -0.638768 0.767379 -0.0557314 1 
0.102309 0.245086 0.0386676 -0.658289 0.702918 -0.269372 1 
0.102327 0.245015 0.0390061 -0.679234 0.701095 -0.217043 1 
0.102664 0.244882 0.0384873 -0.682178 0.685344 -0.254828 1 
0.102733 0.245151 0.0385402 -0.711481 0.699982 -0.0618054 1 
0.102381 0.245596 0.0390074 -0.747916 0.648993 -0.139391 1 
0.102659 0.245398 0.0388917 -0.755092 0.599958 -0.264361 1 
0.102461 0.244814 0.0387203 -0.639342 0.721838 -0.264938 1 
0.10282 0.244831 0.0392954 -0.65566 0.755045 -0.00414101 1 
0.102488 0.244707 0.039228 -0.636057 0.761183 -0.126616 1 
0.102459 0.245312 0.0395933 -0.720488 0.692067 0.0440535 1 
0.102484 0.245223 0.0396324 -0.698706 0.715375 0.00694539 1 
0.102866 0.245429 0.0395961 -0.676192 0.735731 0.038275 1 
0.103016 0.245693 0.0388163 0.372354 0.165648 0.913188 1 
0.102156 0.243548 0.039888 -0.802576 0.52615 0.281137 1 
0.103119 0.243806 0.0388269 -0.704461 0.701507 -0.107811 1 
0.103038 0.24407 0.0394778 -0.658339 0.737037 0.152856 1 
0.103022 0.244382 0.0394261 -0.644592 0.758601 0.0950078 1 
0.103019 0.243365 0.0396848 -0.787328 0.532838 0.310159 1 
0.103341 0.245096 0.0380232 -0.461327 0.547929 0.697819 1 
0.103145 0.244752 0.0381386 -0.747916 0.648993 -0.139391 1 
0.103297 0.244739 0.0380093 -0.74074 0.631117 -0.230209 1 
0.103423 0.244555 0.0380228 -0.74884 0.642514 -0.162527 1 
0.103417 0.244831 0.0381404 -0.755943 0.605068 -0.249885 1 
0.103493 0.244565 0.0382576 -0.748734 0.654591 -0.10444 1 
0.103504 0.24477 0.0387137 -0.766759 0.613713 -0.188246 1 
0.103248 0.24438 0.0387635 -0.700772 0.700772 -0.133552 1 
0.103596 0.244969 0.0383371 -0.77616 0.586398 -0.231759 1 
0.103672 0.244703 0.0384542 -0.766112 0.593776 -0.245971 1 
0.103733 0.245525 0.0379743 -0.311883 -0.130964 -0.941051 1 
0.104037 0.245239 0.0378976 -0.334986 -0.0807674 -0.938755 1 
0.103796 0.244279 0.038181 -0.753231 0.65085 -0.095068 1 
0.103884 0.244994 0.0382087 -0.632549 0.659113 0.406757 1 
0.104011 0.24481 0.0382222 -0.617798 0.644586 0.450373 1 
0.103856 0.244584 0.0380646 -0.702805 0.525852 -0.479109 1 
0.104011 0.244552 0.0384041 -0.736045 0.572842 -0.360679 1 
0.10434 0.244953 0.0378209 -0.448682 0.0759307 -0.89046 1 
0.103836 0.245153 0.0385992 0.498053 -0.0341132 0.866475 1 
0.103914 0.244869 0.0391851 -0.785072 0.518565 -0.338753 1 
0.10408 0.245597 0.0379115 -0.332813 -0.162925 -0.928812 1 
0.104131 0.245678 0.0378078 -0.289705 -0.211331 -0.933494 1 
0.104115 0.245731 0.037938 -0.310792 -0.198288 -0.929564 1 
0.104564 0.245707 0.0378496 -0.280007 -0.226538 -0.932886 1 
0.104232 0.245324 0.0379641 -0.321268 -0.140811 -0.936461 1 
0.104156 0.245331 0.0380287 -0.313151 -0.119616 -0.94214 1 
0.10446 0.245304 0.0377702 -0.296214 -0.190523 -0.935926 1 
0.104358 0.244623 0.0383413 -0.618998 0.272104 -0.73675 1 
0.104587 0.244861 0.0379655 -0.391437 -0.0038502 -0.920197 1 
0.104646 0.244907 0.0380311 -0.33956 -0.0979758 -0.935468 1 
0.104614 0.244754 0.0384733 -0.383396 -0.0826401 -0.919879 1 
0.104946 0.245137 0.0383588 -0.263999 -0.227681 -0.937265 1 
0.103828 0.243915 0.0381024 -0.728124 0.671075 -0.13962 1 
0.104075 0.244081 0.0380652 -0.733118 0.632216 -0.250679 1 
0.104227 0.243809 0.0381178 -0.736712 0.647133 -0.196148 1 
0.104052 0.244152 0.0384948 -0.735455 0.627904 -0.254641 1 
0.104102 0.244233 0.0383911 -0.725259 0.625996 -0.286581 1 
0.103682 0.245664 0.0396016 0.32918 0.320161 0.888334 1 
0.103783 0.245051 0.0399397 -0.0726249 0.821658 0.565335 1 
0.105184 0.244287 0.0393484 -0.447408 0.80341 0.392885 1 
0.104316 0.245818 0.0372363 -0.235002 -0.207834 -0.949515 1 
0.104415 0.246996 0.0375383 -0.348983 -0.179437 -0.91979 1 
0.104643 0.246717 0.0375263 -0.331424 -0.174802 -0.927148 1 
0.104643 0.246717 0.0375263 -0.331424 -0.174802 -0.927148 1 
0.104675 0.246094 0.0376296 -0.265189 -0.196487 -0.943964 1 
0.1047 0.246005 0.0376687 -0.280935 -0.195132 -0.93968 1 
0.104795 0.246186 0.0377607 -0.292754 -0.192857 -0.936537 1 
0.104744 0.246363 0.0376825 -0.285137 -0.183204 -0.940815 1 
0.104972 0.246601 0.0373068 -0.334939 -0.172375 -0.926338 1 
0.104852 0.24625 0.0373576 -0.305652 -0.17288 -0.936317 1 
0.104469 0.248094 0.0371759 -0.404212 -0.168302 -0.899048 1 
0.104596 0.24791 0.0371894 -0.393042 -0.164363 -0.904711 1 
0.104421 0.248512 0.0373846 -0.470948 -0.14056 -0.870891 1 
0.104775 0.248049 0.0373861 -0.38336 -0.179476 -0.905993 1 
0.104752 0.248119 0.0378157 -0.402242 -0.177332 -0.898195 1 
0.1044 0.247308 0.0374867 -0.368838 -0.175163 -0.91284 1 
0.104552 0.247294 0.0373574 -0.368838 -0.175163 -0.91284 1 
0.104772 0.247032 0.0376448 -0.381294 -0.188489 -0.905034 1 
0.105228 0.246991 0.037257 -0.372698 -0.191386 -0.908002 1 
0.105076 0.247005 0.0373863 -0.361616 -0.18724 -0.913332 1 
0.105231 0.247231 0.0375438 -0.373255 -0.197436 -0.906477 1 
0.104855 0.246491 0.0376444 -0.331424 -0.174802 -0.927148 1 
0.105235 0.246456 0.0373213 -0.323601 -0.180712 -0.928776 1 
0.105263 0.247126 0.0372835 -0.367526 -0.187338 -0.91095 1 
0.105567 0.247098 0.037025 -0.370386 -0.181618 -0.91095 1 
0.105668 0.247262 0.0368175 -0.386331 -0.195336 -0.901439 1 
0.10538 0.246719 0.0373096 -0.361422 -0.189996 -0.912839 1 
0.105795 0.246819 0.0370129 -0.35135 -0.205073 -0.913509 1 
0.105267 0.247089 0.0382208 -0.405611 -0.200609 -0.89176 1 
0.105968 0.247492 0.0371453 -0.391673 -0.189333 -0.900414 1 
0.106048 0.246969 0.0366762 -0.368314 -0.216912 -0.904043 1 
0.106092 0.247326 0.0366901 -0.367347 -0.216343 -0.904573 1 
0.106244 0.247313 0.0365609 -0.377049 -0.214001 -0.901132 1 
0.10632 0.247047 0.0366781 -0.359355 -0.239081 -0.902055 1 
0.106684 0.246807 0.036667 -0.315169 -0.257073 -0.913554 1 
0.106728 0.247165 0.0366808 -0.355574 -0.295562 -0.886685 1 
0.104571 0.24569 0.0375502 -0.26123 -0.230497 -0.937353 1 
0.104615 0.24553 0.0379278 -0.267823 -0.231365 -0.935276 1 
0.104792 0.245428 0.0378376 -0.273193 -0.228361 -0.934461 1 
0.104776 0.24574 0.0377859 -0.266595 -0.227513 -0.936571 1 
0.104902 0.245297 0.0379812 -0.265902 -0.243392 -0.932768 1 
0.105004 0.245719 0.037592 -0.237831 -0.226833 -0.944449 1 
0.105276 0.245539 0.0377757 -0.240794 -0.243578 -0.939515 1 
0.104943 0.244897 0.038072 -0.205631 -0.238314 -0.949169 1 
0.104776 0.245222 0.0381496 -0.27541 -0.222285 -0.935275 1 
0.104978 0.245032 0.0380985 -0.2122 -0.245057 -0.946001 1 
0.105079 0.244678 0.0382548 -0.197016 -0.243213 -0.949754 1 
0.105307 0.244916 0.037879 -0.120114 -0.325252 -0.937968 1 
0.105275 0.24528 0.0379575 -0.20957 -0.270636 -0.939594 1 
0.105276 0.246056 0.037412 -0.265537 -0.221049 -0.938417 1 
0.105352 0.245791 0.0375292 -0.259677 -0.220795 -0.940116 1 
0.104644 0.24415 0.038108 -0.446937 0.117764 -0.88678 1 
0.104975 0.244274 0.0381753 -0.198902 -0.147572 -0.968845 1 
0.105382 0.243874 0.0385418 -0.763787 0.466123 -0.446496 1 
0.105184 0.245857 0.0377887 -0.283157 -0.229625 -0.931179 1 
0.105335 0.245585 0.0378412 -0.274272 -0.234889 -0.932525 1 
0.105531 0.245929 0.0377259 -0.29339 -0.228192 -0.928359 1 
0.105962 0.245976 0.037299 -0.30851 -0.242503 -0.91979 1 
0.105939 0.246046 0.0377286 -0.317176 -0.253451 -0.913872 1 
0.106218 0.246108 0.037431 -0.309927 -0.2465 -0.91825 1 
0.105799 0.246265 0.038314 -0.359693 -0.261999 -0.895532 1 
0.106651 0.246137 0.0374728 -0.280031 -0.288736 -0.91554 1 
0.0985534 0.240613 0.0447818 -0.256606 0.760372 0.596648 1 
0.0986964 0.240894 0.0443014 -0.638052 0.71481 0.286244 1 
0.0990674 0.240416 0.0424673 -0.891841 0.309231 -0.330145 1 
0.0993226 0.24003 0.042963 -0.961327 0.148199 -0.232135 1 
0.0993622 0.240903 0.0433813 -0.871637 0.426033 -0.242372 1 
0.0995299 0.240319 0.0434855 -0.919519 0.370304 -0.131756 1 
0.0990875 0.240546 0.0447981 0.04689 0.657881 0.751661 1 
0.0995375 0.241558 0.0439823 -0.428718 0.747382 0.507563 1 
0.0996633 0.240597 0.0445414 -0.168294 0.617078 0.768695 1 
0.0995714 0.240916 0.0445543 -0.165689 0.633874 0.755481 1 
0.0998429 0.240736 0.044738 -0.161317 0.589485 0.791508 1 
0.10008 0.240938 0.0445315 -0.122915 0.6205 0.774514 1 
0.0997657 0.241796 0.0436066 -0.225446 0.775845 0.589269 1 
0.100173 0.241655 0.0437912 -0.159502 0.730673 0.663834 1 
0.100157 0.241449 0.0441032 -0.169268 0.693847 0.699946 1 
0.100384 0.240652 0.0444549 -0.122915 0.6205 0.774514 1 
0.100327 0.241105 0.0444943 -0.132947 0.649799 0.748389 1 
0.100479 0.241609 0.0440013 -0.0829735 0.717648 0.691446 1 
0.100783 0.241323 0.0439247 -0.162985 0.702206 0.693067 1 
0.10058 0.240996 0.0443395 -0.126977 0.667748 0.733477 1 
0.100783 0.241064 0.0441065 -0.149771 0.682292 0.715574 1 
0.100747 0.242979 0.0438621 0.69149 0.0153664 0.722223 1 
0.0987969 0.239284 0.0436615 -0.501232 -0.850172 -0.161163 1 
0.099573 0.239163 0.0428851 -0.898043 -0.439014 -0.0280222 1 
0.0998818 0.239616 0.0432002 0.0512549 -0.980995 -0.18714 1 
0.0986313 0.240329 0.0453677 0.157906 0.597034 0.786521 1 
0.0990551 0.240394 0.0452402 0.198087 0.603474 0.772386 1 
0.0991147 0.240181 0.0454876 0.193947 0.569624 0.798695 1 
0.0995224 0.240298 0.0454904 0.183753 0.566446 0.803351 1 
0.0994945 0.239888 0.0453463 0.211902 0.595491 0.774912 1 
0.09957 0.239364 0.0456454 0.249886 0.523053 0.814845 1 
0.0997223 0.239609 0.0453343 0.208671 0.601281 0.771309 1 
0.0996458 0.239098 0.0457626 0.258079 0.542748 0.799262 1 
0.0987497 0.238869 0.0465898 0.467989 0.461421 0.753709 1 
0.099643 0.23834 0.0458395 0.333733 0.46343 0.820887 1 
0.0999149 0.238677 0.0456595 0.286082 0.489309 0.823853 1 
0.0994655 0.238184 0.0461115 0.444886 0.356225 0.821693 1 
0.10013 0.239985 0.0451552 -0.0265454 0.613337 0.789375 1 
0.100526 0.239122 0.0452474 0.241562 0.571957 0.783909 1 
0.100434 0.240216 0.0447148 -0.136318 0.639644 0.756487 1 
0.100536 0.240121 0.0446893 -0.152953 0.667842 0.728418 1 
0.10083 0.239353 0.0448071 0.13655 0.452772 0.881108 1 
0.100965 0.239134 0.0449898 0.322231 0.278089 0.904894 1 
0.100782 0.240288 0.044652 -0.0918978 0.62578 0.774567 1 
0.100858 0.240022 0.0447693 0.235963 0.399209 0.885976 1 
0.10125 0.240451 0.0447204 0.0208111 0.595198 0.803309 1 
0.101401 0.240179 0.044773 0.0549925 0.562616 0.824888 1 
0.101222 0.239782 0.0447582 0.666515 -0.0922866 0.739758 1 
0.101237 0.239471 0.0448098 0.595693 0.0179675 0.803011 1 
0.101493 0.239602 0.0449418 0.300137 0.314922 0.900412 1 
0.100219 0.238391 0.0455828 0.3054 0.507945 0.805433 1 
0.100583 0.238927 0.0450261 0.188572 0.627039 0.755819 1 
0.101041 0.238868 0.0451071 0.202282 0.426711 0.881476 1 
0.100937 0.238464 0.0450276 0.251788 0.666684 0.701523 1 
0.100138 0.239785 0.0416267 -0.820177 0.409292 -0.399737 1 
0.100864 0.2401 0.0405903 -0.896065 0.328409 -0.298688 1 
0.100571 0.240332 0.0413049 -0.915402 0.271284 -0.297397 1 
0.100511 0.239768 0.041603 -0.885158 0.315159 -0.342301 1 
0.100417 0.240843 0.0423072 -0.883628 0.403817 -0.236926 1 
0.100201 0.241068 0.0429572 -0.850604 0.498528 -0.167162 1 
0.100703 0.240887 0.0417102 -0.899329 0.395357 -0.186817 1 
0.100749 0.241226 0.0421928 -0.766359 0.56157 -0.311983 1 
0.10079 0.240347 0.0409417 -0.893903 0.335773 -0.296973 1 
0.100893 0.239974 0.0415667 -0.90438 0.352109 -0.241071 1 
0.100969 0.239709 0.0416839 -0.843321 0.475994 -0.249476 1 
0.100875 0.239528 0.0415919 -0.852687 0.337037 -0.399163 1 
0.101426 0.240444 0.0407506 -0.93557 0.25388 -0.245464 1 
0.100602 0.242497 0.0423501 -0.709951 0.679151 -0.186343 1 
0.10063 0.24239 0.0428579 0.650011 -0.227112 0.725193 1 
0.100908 0.242192 0.0427421 -0.646935 0.753524 -0.116952 1 
0.10109 0.241832 0.0420657 -0.631313 0.677467 -0.377469 1 
0.101289 0.242417 0.0422371 -0.583522 0.73306 -0.349463 1 
0.100658 0.243059 0.0428201 0.597167 -0.0641349 0.799549 1 
0.100784 0.242099 0.0433791 -0.736065 0.672185 0.0798492 1 
0.10086 0.242351 0.0431326 -0.599522 0.785839 0.151759 1 
0.101115 0.242223 0.0434465 0.094659 0.616012 0.782029 1 
0.101175 0.242528 0.0433302 0.125965 0.600188 0.789878 1 
0.10119 0.242752 0.0425495 0.306259 0.413988 0.857216 1 
0.101249 0.242539 0.0427969 0.185353 0.534962 0.824294 1 
0.101797 0.24218 0.0423962 0.134348 0.472384 0.871094 1 
0.100664 0.241748 0.0434299 -0.511771 0.742151 0.432784 1 
0.100919 0.241879 0.0435619 -0.729632 0.673163 0.120367 1 
0.101163 0.241547 0.0434197 -0.656148 0.697859 -0.287165 1 
0.101251 0.242004 0.0436293 0.0909195 0.575823 0.812503 1 
0.101403 0.241731 0.0436819 0.105915 0.558591 0.822653 1 
0.1017 0.241721 0.0437228 0.121846 0.57106 0.811815 1 
0.101419 0.241161 0.0439154 0.0702053 0.606058 0.792316 1 
0.101571 0.241406 0.0436043 0.434076 0.141827 0.889642 1 
0.10175 0.241544 0.0438009 0.116018 0.580088 0.806249 1 
0.101695 0.241499 0.0429673 -0.444735 0.879264 0.170603 1 
0.102035 0.240812 0.0437494 0.0943458 0.584944 0.805568 1 
0.10196 0.241077 0.0436322 0.124167 0.541951 0.831187 1 
0.102358 0.240972 0.0436476 0.109978 0.59095 0.799176 1 
0.102383 0.240883 0.0436866 0.116018 0.580088 0.806249 1 
0.101051 0.242693 0.0437854 0.046831 0.628671 0.77626 1 
0.102093 0.241356 0.0446881 0.176445 0.559495 0.809835 1 
0.102216 0.241467 0.0435824 0.125965 0.600188 0.789878 1 
0.102597 0.241156 0.0439098 0.122959 0.608872 0.783681 1 
0.0991907 0.238477 0.0415796 -0.662585 0.582068 -0.471358 1 
0.100061 0.239275 0.0420551 -0.795736 0.491531 -0.353838 1 
0.100313 0.239663 0.0427733 -0.9373 0.347481 -0.0269266 1 
0.100485 0.239081 0.0421095 -0.829431 0.399707 -0.390228 1 
0.100637 0.239326 0.0417984 -0.838213 0.401021 -0.369569 1 
0.100789 0.238795 0.0420328 -0.851085 0.343857 -0.396758 1 
0.10127 0.239624 0.0443676 -0.599022 0.757075 0.260788 1 
0.101162 0.240512 0.0441471 -0.828693 0.501537 -0.248454 1 
0.102289 0.241182 0.0449364 0.207767 0.455891 0.865446 1 
0.102639 0.240756 0.0440005 0.148113 0.584971 0.797416 1 
0.102982 0.241085 0.044524 0.17049 0.577855 0.798134 1 
0.102841 0.240824 0.0437676 0.123252 0.625169 0.770696 1 
0.102566 0.244126 0.0417012 0.138574 0.785254 0.603468 1 
0.102917 0.242905 0.0417795 0.11352 0.771052 0.626572 1 
0.102891 0.242218 0.0422859 0.0709074 0.675791 0.733675 1 
0.102641 0.243084 0.0423639 0.136649 0.668229 0.731298 1 
0.102489 0.243357 0.0423113 0.156353 0.684615 0.711939 1 
0.102675 0.243219 0.0423904 0.159204 0.641366 0.750535 1 
0.102669 0.243753 0.0423261 0.159668 0.707099 0.688852 1 
0.102719 0.243576 0.0424043 0.172451 0.666913 0.724905 1 
0.102868 0.242805 0.0423518 0.129886 0.64047 0.75692 1 
0.102929 0.24311 0.0422356 0.15926 0.674959 0.720462 1 
0.103129 0.243196 0.0415339 0.001359 0.827633 0.561268 1 
0.103359 0.243157 0.0418087 0.0619176 0.721412 0.689733 1 
0.103125 0.243712 0.0419383 0.185453 0.74641 0.639123 1 
0.103299 0.242853 0.041925 0.0922075 0.692288 0.715706 1 
0.103331 0.242229 0.0420283 0.061896 0.680856 0.729797 1 
0.103587 0.242361 0.0421604 0.0586402 0.647903 0.759462 1 
0.103733 0.241311 0.0435266 0.0953129 0.696518 0.711181 1 
0.10346 0.242027 0.0425105 0.0984508 0.659767 0.744993 1 
0.103807 0.242099 0.0424477 0.088679 0.629475 0.771943 1 
0.103791 0.24241 0.0423961 0.0919361 0.646472 0.757379 1 
0.103807 0.24184 0.0426296 0.0860074 0.651615 0.753658 1 
0.103943 0.241879 0.0426305 0.0529509 0.676912 0.734157 1 
0.103434 0.241339 0.043017 0.0953015 0.690569 0.71696 1 
0.103509 0.241074 0.0431342 0.0984185 0.694805 0.712432 1 
0.103706 0.241676 0.042837 0.11112 0.677089 0.727463 1 
0.104063 0.241712 0.0429434 0.101648 0.670288 0.735107 1 
0.103841 0.241457 0.0430198 0.104599 0.67621 0.729246 1 
0.103793 0.241616 0.0434103 0.104599 0.67621 0.729246 1 
0.103402 0.244309 0.0408084 -0.928359 0.29339 0.228192 1 
0.103581 0.244447 0.041005 0.633269 0.695131 0.34024 1 
0.103325 0.243799 0.0412367 -0.954983 0.161162 0.249068 1 
0.103657 0.243923 0.0413041 0.320362 0.815897 0.481332 1 
0.103706 0.244023 0.0407317 0.646462 0.69805 0.307916 1 
0.103705 0.243247 0.0412773 -0.928439 0.110108 0.354792 1 
0.103891 0.242592 0.04172 0.00138309 0.68463 0.728889 1 
0.103628 0.242478 0.0418874 0.0354014 0.698116 0.715109 1 
0.103808 0.242616 0.0420841 0.0708505 0.663681 0.744653 1 
0.104146 0.242723 0.041852 0.067826 0.662386 0.746086 1 
0.104299 0.242968 0.0415409 0.205238 0.760771 0.615715 1 
0.10425 0.242868 0.0421133 0.0526072 0.615646 0.786264 1 
0.104063 0.242747 0.0422161 0.0704102 0.62507 0.777386 1 
0.104478 0.243106 0.0417376 0.117182 0.671942 0.731275 1 
0.104266 0.242039 0.0425287 0.0827731 0.652019 0.753671 1 
0.104401 0.24182 0.0427114 0.0889002 0.651449 0.753466 1 
0.104445 0.242177 0.0427253 0.0858681 0.656381 0.749527 1 
0.104581 0.241958 0.0429081 0.101529 0.654789 0.748961 1 
0.104625 0.242315 0.0429219 0.107899 0.666609 0.737557 1 
0.104929 0.242029 0.0428452 0.0237991 0.662175 0.748971 1 
0.104426 0.241731 0.0427505 0.0951217 0.657071 0.747803 1 
0.104698 0.241809 0.0427523 0.0800336 0.676648 0.731944 1 
0.104841 0.241314 0.0428175 -0.00972129 0.723542 0.690212 1 
0.105004 0.241764 0.0429625 0.0411234 0.727459 0.684918 1 
0.10508 0.241498 0.0430797 -0.0153592 0.733055 0.679996 1 
0.105597 0.242279 0.0422119 -0.0739019 0.668016 0.740469 1 
0.103629 0.240907 0.0434472 0.0679279 0.721192 0.689396 1 
0.105336 0.241888 0.0430299 -0.0499091 0.683041 0.728673 1 
0.10526 0.241636 0.0432763 -0.0238726 0.734433 0.678262 1 
0.105667 0.241754 0.0432791 -0.0529926 0.711819 0.700361 1 
0.10559 0.242038 0.0426932 -0.0617993 0.694164 0.717159 1 
0.105868 0.24184 0.0425775 -0.0529926 0.711819 0.700361 1 
0.105869 0.242616 0.0420319 -0.0647427 0.674763 0.735189 1 
0.1056 0.241466 0.0436948 -0.0412233 0.700797 0.712169 1 
0.105954 0.240744 0.0438781 0.0524723 0.421124 0.905484 1 
0.0708078 0.216003 0.00593936 0.145762 -0.39483 -0.907118 0 
0.0710611 0.215894 0.00578453 0.167931 -0.323371 -0.931252 0 
0.071089 0.216304 0.00592858 0.222061 -0.200528 -0.954189 0 
0.0711489 0.21635 0.00599414 0.281584 -0.255856 -0.924796 0 
0.0713285 0.216488 0.00619078 0.282985 0.333359 -0.899328 0 
0.0715565 0.216468 0.0059969 0.273976 0.369792 -0.887801 0 
0.0712155 0.21612 0.00594211 0.281584 -0.255856 -0.924796 0 
0.0714433 0.215841 0.00593006 0.281584 -0.255856 -0.924796 0 
0.0712754 0.216166 0.00600766 0.281584 -0.255856 -0.924796 0 
0.071455 0.216304 0.00620431 0.129574 0.621062 -0.772976 0 
0.0716232 0.216238 0.00594484 0.123198 0.621925 -0.773325 0 
0.0717566 0.216037 0.00565894 0.274673 0.148725 -0.949966 0 
0.0719868 0.215998 0.00593374 0.129574 0.621062 -0.772976 0 
0.0719361 0.215916 0.00603744 0.129574 0.621062 -0.772976 0 
0.0715752 0.216914 0.0059717 0.260164 0.404532 -0.876737 0 
0.071727 0.216641 0.00602427 0.260164 0.404532 -0.876737 0 
0.071727 0.216641 0.00602427 0.260164 0.404532 -0.876737 0 
0.0719644 0.216844 0.00581779 0.260172 0.439706 -0.859633 0 
0.0719043 0.216539 0.00593412 0.259159 0.428901 -0.865379 0 
0.0719922 0.217254 0.00596185 0.255711 0.460892 -0.849818 0 
0.0722703 0.216539 0.00620981 0.272565 0.496847 -0.823925 0 
0.0725676 0.216788 0.00606887 0.281874 0.481211 -0.83005 0 
0.0720308 0.216355 0.00594763 0.253818 0.439243 -0.861767 0 
0.0720558 0.216008 0.00616853 0.129574 0.621062 -0.772976 0 
0.0724218 0.216008 0.00644426 0.194772 0.605786 -0.771419 0 
0.0724471 0.21592 0.00648331 0.0180641 0.787875 -0.615571 0 
0.0726499 0.215988 0.00625034 0.0180641 0.787875 -0.615571 0 
0.0729493 0.216218 0.00657807 0.285223 0.534202 -0.795787 0 
0.0726758 0.216675 0.00574388 0.272565 0.496847 -0.823925 0 
0.0729981 0.216577 0.00582387 0.272565 0.496847 -0.823925 0 
0.072572 0.216272 0.00566445 0.0983413 0.673711 -0.732422 0 
0.0727516 0.21641 0.0058611 0.272565 0.496847 -0.823925 0 
0.0729976 0.216059 0.00618754 0.194772 0.605786 -0.771419 0 
0.0731777 0.216715 0.00602051 0.307675 0.50017 -0.809423 0 
0.0734334 0.216846 0.00615251 0.343964 0.494348 -0.798316 0 
0.073613 0.216984 0.00634915 0.364964 0.493585 -0.789415 0 
0.0733576 0.217111 0.00603531 0.343964 0.494348 -0.798316 0 
0.0729313 0.216548 0.00605773 0.27415 0.518534 -0.809916 0 
0.0731614 0.216509 0.00633252 0.319745 0.507456 -0.800157 0 
0.0735691 0.216626 0.00633528 0.347114 0.497477 -0.795003 0 
0.0733569 0.216335 0.00658084 0.319745 0.507456 -0.800157 0 
0.0741192 0.220551 0.00795952 0.707545 -0.0528872 -0.704686 0 
0.0727666 0.218627 0.00703651 0.65519 0.126859 -0.744737 0 
0.0727088 0.218563 0.00743965 0.712229 0.101747 -0.694534 0 
0.0729967 0.218588 0.00731131 0.71191 0.0829833 -0.697351 0 
0.0732961 0.218819 0.00763904 0.779775 0.032315 -0.625225 0 
0.0735163 0.217301 0.00713022 0.5511 0.29699 -0.779798 0 
0.0735004 0.217613 0.00707854 0.574829 0.252173 -0.778447 0 
0.0733619 0.217075 0.00697266 0.364964 0.493585 -0.789415 0 
0.073424 0.217102 0.00750686 0.465804 0.436385 -0.769802 0 
0.0737277 0.216816 0.00743021 0.469022 0.43307 -0.76972 0 
0.0733922 0.217725 0.00740354 0.610756 0.175155 -0.772203 0 
0.0736476 0.217598 0.00771741 0.754897 0.0890691 -0.649767 0 
0.07362 0.217446 0.00739149 0.615182 0.225826 -0.75535 0 
0.0737837 0.217896 0.00753646 0.77462 0.0294159 -0.631743 0 
0.0734172 0.217378 0.00762444 0.558768 0.294507 -0.77527 0 
0.0737327 0.217555 0.00782202 0.804439 0.0612228 -0.590871 0 
0.0738525 0.217647 0.00795311 0.792231 0.0437775 -0.608648 0 
0.073631 0.217133 0.00821126 0.761417 0.222664 -0.608822 0 
0.0735647 0.217143 0.00673968 0.386441 0.480221 -0.787433 0 
0.0734702 0.216962 0.00664766 0.364964 0.493585 -0.789415 0 
0.0737484 0.216506 0.00671378 0.386441 0.480221 -0.787433 0 
0.0737412 0.219828 0.00759142 0.697468 -0.0529904 -0.714654 0 
0.0737434 0.21981 0.00806009 0.703133 -0.0558497 -0.708861 0 
0.0740406 0.220058 0.00791918 0.698282 -0.0296241 -0.71521 0 
0.0742965 0.220448 0.00786933 0.696587 -0.0383052 -0.716449 0 
0.0744988 0.219999 0.00800005 0.702132 -0.0441503 -0.710677 0 
0.0747107 0.220031 0.00793634 0.702132 -0.0441503 -0.710677 0 
0.0740831 0.218126 0.0078642 0.78323 0.0237342 -0.621279 0 
0.0743385 0.217998 0.00817805 0.755605 0.0381333 -0.653916 0 
0.0740321 0.217785 0.00814974 0.79265 0.0180463 -0.60941 0 
0.0739304 0.217363 0.00853899 0.744619 0.188842 -0.640219 0 
0.0742623 0.217746 0.00842454 0.744904 0.0557606 -0.664837 0 
0.0745942 0.218129 0.00831007 0.728971 0.0266868 -0.684025 0 
0.0743914 0.218061 0.00854302 0.724915 0.0181578 -0.688599 0 
0.0735962 0.216261 0.00702486 0.386441 0.480221 -0.787433 0 
0.0745384 0.220873 0.00841837 0.723583 0.0125477 -0.690123 0 
0.0755289 0.222241 0.0103666 0.470904 0.396466 -0.788076 0 
0.0757733 0.222427 0.00986075 0.459733 0.401661 -0.792031 0 
0.0757915 0.222355 0.0101992 0.460876 0.409129 -0.787532 0 
0.0760448 0.222246 0.0100445 0.454028 0.405555 -0.793337 0 
0.0760013 0.222406 0.00966685 0.470904 0.396466 -0.788076 0 
0.0760679 0.222176 0.00961483 0.515255 0.378721 -0.768819 0 
0.074308 0.220653 0.00832541 0.720288 -0.0529834 -0.691648 0 
0.0746878 0.22036 0.00818411 0.721662 -0.0528742 -0.690223 0 
0.075265 0.219616 0.00894161 0.714785 -0.0829791 -0.694404 0 
0.0752167 0.219775 0.00933217 0.716702 -0.018162 -0.697143 0 
0.0751732 0.219935 0.00895458 0.707024 -0.0153398 -0.707024 0 
0.0754541 0.219978 0.00912569 0.712624 0.00694566 -0.701511 0 
0.0753963 0.219913 0.00952881 0.712624 0.00694566 -0.701511 0 
0.0753804 0.220225 0.00947715 0.708747 0.0589424 -0.702996 0 
0.0749606 0.219126 0.00956383 0.718104 -0.0739865 -0.691991 0 
0.0753682 0.219244 0.00956661 0.720179 -0.0891094 -0.688042 0 
0.0755205 0.219489 0.00925549 0.71846 -0.064791 -0.692544 0 
0.0755941 0.219242 0.00890401 0.714785 -0.0829791 -0.694404 0 
0.0760292 0.219252 0.00941452 0.720945 -0.0739803 -0.689032 0 
0.0755601 0.220363 0.0096738 0.692472 0.089304 -0.715896 0 
0.075576 0.220051 0.00972545 0.708747 0.0589424 -0.702996 0 
0.0756799 0.220455 0.00980488 0.686774 0.104862 -0.719267 0 
0.0757556 0.220189 0.00992208 0.705752 0.0891322 -0.70283 0 
0.0758595 0.220593 0.0100015 0.669821 0.149689 -0.727278 0 
0.0759353 0.220327 0.0101187 0.670862 0.127001 -0.730627 0 
0.0762924 0.220622 0.0100433 0.625935 0.17514 -0.759955 0 
0.0766517 0.220898 0.0104366 0.420134 0.354045 -0.835547 0 
0.0763682 0.220356 0.0101606 0.614524 0.142043 -0.776005 0 
0.0766683 0.221362 0.00994276 0.482057 0.342054 -0.80661 0 
0.0767506 0.220562 0.0101242 0.532056 0.198574 -0.823095 0 
0.0757663 0.222923 0.0115019 0.282884 0.621705 -0.730383 0 
0.0759113 0.222927 0.0116721 0.260965 0.621572 -0.738611 0 
0.0760909 0.223065 0.0118687 0.22582 0.59959 -0.767787 0 
0.0762107 0.223157 0.0119998 0.188856 0.621843 -0.76003 0 
0.0767337 0.223882 0.0125381 -0.120369 0.646427 -0.753421 0 
0.076973 0.223808 0.0129821 -0.162103 0.637806 -0.752945 0 
0.0758952 0.2225 0.0104605 0.403613 0.445421 -0.799185 0 
0.0759551 0.222546 0.010526 0.401369 0.449727 -0.797903 0 
0.0761347 0.222684 0.0107227 0.364455 0.480053 -0.797948 0 
0.0760727 0.222657 0.0101885 0.406497 0.432204 -0.80496 0 
0.0762244 0.222384 0.0102411 0.402275 0.427918 -0.809358 0 
0.0761761 0.222543 0.0106316 0.375166 0.451796 -0.809401 0 
0.076236 0.222589 0.0106971 0.363698 0.472648 -0.8027 0 
0.0759182 0.222909 0.0113727 0.27375 0.583894 -0.764284 0 
0.0762061 0.222935 0.0112443 0.294179 0.564506 -0.771227 0 
0.0762545 0.222776 0.0108538 0.348386 0.512143 -0.785072 0 
0.0763743 0.222868 0.0109849 0.324024 0.525142 -0.786915 0 
0.076259 0.222998 0.0116093 0.22582 0.59959 -0.767787 0 
0.0763189 0.223044 0.0116749 0.222208 0.595143 -0.772288 0 
0.076487 0.222978 0.0114154 0.22582 0.59959 -0.767787 0 
0.0765469 0.223024 0.0114809 0.208559 0.59787 -0.773986 0 
0.0764156 0.222727 0.0108938 0.320612 0.518403 -0.792758 0 
0.0765354 0.222819 0.0110249 0.324024 0.525142 -0.786915 0 
0.076715 0.222957 0.0112215 0.224631 0.580942 -0.782335 0 
0.0764985 0.223182 0.0118715 0.139042 0.626435 -0.766972 0 
0.0768348 0.223049 0.0113526 0.208559 0.59787 -0.773986 0 
0.0767266 0.223162 0.0116776 0.10758 0.635164 -0.764849 0 
0.0766183 0.223274 0.0120026 0.164882 0.612634 -0.772977 0 
0.0767979 0.223412 0.0121992 0.0350987 0.607909 -0.79323 0 
0.0768463 0.223254 0.0118087 -0.0500186 0.687399 -0.724556 0 
0.0771342 0.223279 0.0116803 -0.193 0.721047 -0.665464 0 
0.0769661 0.223346 0.0119398 -0.192633 0.716594 -0.670362 0 
0.077254 0.223371 0.0118115 -0.216392 0.720786 -0.658515 0 
0.0769546 0.223141 0.0114837 0.10758 0.635164 -0.764849 0 
0.0771826 0.223121 0.0112898 0.052838 0.649765 -0.758297 0 
0.0774127 0.223082 0.0115646 -0.136785 0.698956 -0.701962 0 
0.0770538 0.223802 0.0121494 -0.101403 0.642217 -0.759786 0 
0.0771645 0.22393 0.0121112 -0.116914 0.643765 -0.756239 0 
0.0773417 0.223828 0.0120211 -0.116914 0.643765 -0.756239 0 
0.0773324 0.223605 0.0120336 -0.10773 0.647854 -0.754108 0 
0.0770815 0.223954 0.0124753 -0.149294 0.637892 -0.755517 0 
0.077404 0.224114 0.0123734 -0.182148 0.622978 -0.760737 0 
0.0776572 0.224005 0.0122186 -0.161773 0.606272 -0.778629 0 
0.0774336 0.223509 0.0120081 -0.110769 0.660184 -0.742891 0 
0.0778852 0.223984 0.0120247 -0.161773 0.606272 -0.778629 0 
0.0775281 0.22369 0.0121001 -0.123492 0.641265 -0.757317 0 
0.0777813 0.223581 0.0119453 -0.123492 0.641265 -0.757317 0 
0.0779358 0.223807 0.0121029 -0.161856 0.609608 -0.776003 0 
0.0769631 0.22185 0.0108567 0.375166 0.451796 -0.809401 0 
0.0767556 0.221302 0.010516 0.422492 0.390606 -0.81788 0 
0.0768313 0.221036 0.0106333 0.420814 0.385878 -0.820984 0 
0.0771589 0.221935 0.0109232 0.347584 0.465033 -0.814205 0 
0.0774493 0.22246 0.0108999 0.275522 0.549469 -0.788779 0 
0.0773984 0.222119 0.0111854 0.296342 0.530881 -0.793944 0 
0.0773548 0.222279 0.0108078 0.326266 0.507702 -0.797363 0 
0.077433 0.222254 0.0112119 0.281847 0.536927 -0.795155 0 
0.0770987 0.221631 0.0110395 0.381354 0.435605 -0.815363 0 
0.0772512 0.222134 0.0105466 0.351795 0.463224 -0.813427 0 
0.0775621 0.222569 0.0113304 0.190829 0.587752 -0.786214 0 
0.0774817 0.223092 0.0117994 -0.169268 0.693847 -0.699946 0 
0.0777418 0.222707 0.011527 -0.0296026 0.678041 -0.734427 0 
0.0777642 0.221861 0.0116429 0.245364 0.567307 -0.786104 0 
0.0779214 0.222845 0.0117237 -0.206762 0.685581 -0.698017 0 
0.0787492 0.22958 0.0156977 -0.507599 -0.531052 0.678474 0 
0.0790253 0.229142 0.0152951 -0.342158 -0.515646 0.785517 0 
0.0789173 0.229514 0.0154382 -0.459138 -0.555975 0.692881 0 
0.0789772 0.22956 0.0155038 -0.458923 -0.552377 0.695895 0 
0.0794491 0.229207 0.0151677 -0.293612 -0.494587 0.818031 0 
0.078853 0.229984 0.0157771 -0.342543 -0.36712 0.864805 0 
0.0789957 0.229747 0.0156604 -0.436212 -0.498764 0.748968 0 
0.0789473 0.229906 0.016051 -0.385998 -0.395451 0.833441 0 
0.0790486 0.22981 0.0160254 -0.292506 -0.358507 0.886517 0 
0.0794014 0.230142 0.0150127 -0.238907 -0.425225 0.872988 0 
0.0795371 0.229922 0.0151954 -0.209302 -0.437902 0.874319 0 
0.0791568 0.229698 0.0157004 -0.255987 -0.425635 0.867932 0 
0.0791727 0.229386 0.0157521 -0.295236 -0.479564 0.82635 0 
0.0770329 0.223854 0.0130477 -0.165492 0.62401 -0.763691 0 
0.0770836 0.223935 0.012944 -0.168762 0.621834 -0.76475 0 
0.0774133 0.224337 0.0123608 -0.191894 0.624807 -0.756831 0 
0.0778994 0.224688 0.0125858 -0.297152 0.647309 -0.70192 0 
0.0778924 0.224705 0.0128852 -0.305041 0.650431 -0.695622 0 
0.0776919 0.224139 0.0122451 -0.191815 0.621479 -0.759586 0 
0.0778116 0.224231 0.0123762 -0.198846 0.615036 -0.763014 0 
0.0781709 0.224508 0.0127695 -0.305041 0.650431 -0.695622 0 
0.0780006 0.224593 0.0125602 -0.297152 0.647309 -0.70192 0 
0.0779198 0.224119 0.0120512 -0.188856 0.621843 -0.76003 0 
0.0780995 0.224257 0.0122478 -0.164251 0.589196 -0.791119 0 
0.0781406 0.223857 0.0123386 -0.119214 0.593128 -0.796233 0 
0.0781753 0.223991 0.0123651 -0.119196 0.581263 -0.804939 0 
0.0782792 0.224395 0.0124445 -0.233055 0.608446 -0.758603 0 
0.0784564 0.224293 0.0123543 -0.222444 0.601999 -0.766887 0 
0.077851 0.224847 0.0129763 -0.329635 0.65115 -0.683626 0 
0.0780307 0.224985 0.013173 -0.374018 0.66071 -0.650824 0 
0.0783784 0.225056 0.0131102 -0.354983 0.675614 -0.646168 0 
0.078072 0.224843 0.0130819 -0.355037 0.652809 -0.66917 0 
0.0781319 0.224889 0.0131474 -0.374018 0.66071 -0.650824 0 
0.0785764 0.224644 0.0123036 -0.340456 0.646704 -0.682542 0 
0.0786548 0.224877 0.0125257 -0.352195 0.66016 -0.663436 0 
0.0788323 0.225034 0.0122537 -0.355037 0.652809 -0.66917 0 
0.0784869 0.225202 0.0126033 -0.369537 0.668451 -0.645458 0 
0.0786319 0.225206 0.0127735 -0.358593 0.676251 -0.643503 0 
0.0786642 0.2251 0.0125131 -0.376488 0.685571 -0.623097 0 
0.0788922 0.22508 0.0123193 -0.366735 0.662755 -0.652887 0 
0.0788438 0.225238 0.0127098 -0.446336 0.742795 -0.49904 0 
0.0783484 0.224664 0.0124974 -0.334001 0.653338 -0.679406 0 
0.0783 0.224823 0.012888 -0.355037 0.652809 -0.66917 0 
0.0790187 0.224896 0.0123328 -0.348548 0.669278 -0.656187 0 
0.0792395 0.224634 0.0126202 -0.344182 0.667159 -0.660634 0 
0.0786715 0.22608 0.0131918 -0.522839 -0.168321 0.835648 0 
0.079579 0.226255 0.0130025 -0.587149 -0.174476 0.790452 0 
0.0784917 0.225683 0.013177 -0.450064 0.740216 -0.499522 0 
0.0789017 0.226041 0.0134666 -0.484279 -0.264574 0.833951 0 
0.0790742 0.225458 0.0128027 -0.719159 0.693627 -0.0411353 0 
0.0791434 0.225727 0.0128557 -0.566876 -0.125155 0.814241 0 
0.0793231 0.225865 0.0130523 -0.611198 -0.0794702 0.787478 0 
0.0789707 0.226051 0.0137014 -0.39223 -0.382779 0.836442 0 
0.0789983 0.226203 0.0140273 -0.465237 -0.362917 0.80737 0 
0.0789983 0.226203 0.0140273 -0.465237 -0.362917 0.80737 0 
0.0790537 0.226027 0.0133373 -0.485786 -0.260628 0.834317 0 
0.0791549 0.225932 0.0133118 -0.537903 -0.202666 0.818283 0 
0.0791987 0.22603 0.0135075 -0.475849 -0.306239 0.824491 0 
0.0792747 0.226024 0.0134429 -0.535992 -0.250129 0.806318 0 
0.079383 0.225911 0.0131179 -0.610195 -0.100968 0.785791 0 
0.0792862 0.226228 0.0138989 -0.478703 -0.357026 0.802107 0 
0.0794543 0.226162 0.0136395 -0.50457 -0.323116 0.800628 0 
0.0796874 0.226401 0.0124957 -0.490395 -0.236795 0.838714 0 
0.0798945 0.226432 0.0132001 -0.50457 -0.323116 0.800628 0 
0.079989 0.226613 0.0132921 -0.543804 -0.322432 0.7748 0 
0.0793715 0.225706 0.0126618 -0.596202 -0.0851717 0.798304 0 
0.0793275 0.225349 0.0126479 -0.768942 0.630738 0.104388 0 
0.0801854 0.224389 0.0137584 -0.736064 0.162389 0.657145 0 
0.079421 0.228538 0.0152055 -0.324022 -0.482082 0.814007 0 
0.079377 0.22818 0.0151916 -0.391048 -0.455418 0.799798 0 
0.0796006 0.228676 0.0154021 -0.335198 -0.478174 0.811783 0 
0.0796483 0.227741 0.0155571 -0.447627 -0.437861 0.779685 0 
0.0794685 0.226865 0.0142006 -0.499865 -0.373685 0.781342 0 
0.0796135 0.226869 0.0143707 -0.537218 -0.380462 0.752759 0 
0.0795377 0.227134 0.0142535 -0.518337 -0.403878 0.753796 0 
0.0799981 0.226577 0.0134613 -0.52734 -0.346722 0.77569 0 
0.079872 0.227758 0.0144259 -0.47489 -0.422669 0.771901 0 
0.0798692 0.227 0.0145027 -0.513461 -0.396098 0.761226 0 
0.0796048 0.227901 0.0151795 -0.428426 -0.43166 0.793801 0 
0.0796209 0.227848 0.0150494 -0.435294 -0.435294 0.78806 0 
0.0800009 0.227814 0.0147262 -0.458669 -0.445611 0.768801 0 
0.0799042 0.227652 0.0141655 -0.485905 -0.430279 0.76076 0 
0.0800839 0.22779 0.0143622 -0.480579 -0.418674 0.770556 0 
0.0797681 0.227354 0.0143464 -0.493475 -0.424618 0.759066 0 
0.0800053 0.227298 0.0143218 -0.493316 -0.431037 0.755544 0 
0.0800212 0.226986 0.0143735 -0.524958 -0.378685 0.762245 0 
0.0802515 0.227206 0.0144664 -0.513461 -0.396098 0.761226 0 
0.0802492 0.226966 0.0141796 -0.536156 -0.361217 0.762928 0 
0.0804795 0.227185 0.0142725 -0.51166 -0.400501 0.760134 0 
0.0801253 0.227649 0.0142711 -0.496828 -0.405607 0.767232 0 
0.0801368 0.227853 0.0147272 -0.45186 -0.442073 0.774851 0 
0.0803648 0.227833 0.0145333 -0.473149 -0.417867 0.775575 0 
0.0803877 0.227504 0.0142855 -0.512867 -0.385871 0.766858 0 
0.0805673 0.227642 0.0144821 -0.490073 -0.402153 0.773371 0 
0.0804889 0.227409 0.0142599 -0.52426 -0.368443 0.767725 0 
0.0807167 0.227129 0.0142479 -0.529261 -0.382696 0.75725 0 
0.0807443 0.227281 0.0145738 -0.522272 -0.363812 0.77128 0 
0.0798206 0.226421 0.0137334 -0.507761 -0.34438 0.789672 0 
0.0800003 0.226559 0.01393 -0.530389 -0.349831 0.772208 0 
0.0801453 0.226562 0.0141002 -0.555599 -0.363339 0.74786 0 
0.0802718 0.226378 0.0141137 -0.555599 -0.363339 0.74786 0 
0.0804231 0.225588 0.0145299 -0.598455 -0.30003 0.742855 0 
0.0804608 0.226739 0.0142977 -0.542709 -0.358026 0.759792 0 
0.0807073 0.226906 0.0142605 -0.544749 -0.362624 0.756144 0 
0.0807326 0.226818 0.0142996 -0.542709 -0.358026 0.759792 0 
0.0805114 0.226562 0.0143759 -0.542709 -0.358026 0.759792 0 
0.0806309 0.226396 0.0146888 -0.542709 -0.358026 0.759792 0 
0.0806405 0.226877 0.0144944 -0.541119 -0.362371 0.758866 0 
0.0804003 0.225917 0.0147777 -0.571402 -0.341546 0.746221 0 
0.0805546 0.226144 0.0149353 -0.557145 -0.358977 0.748816 0 
0.0806304 0.225878 0.0150525 -0.558989 -0.327017 0.761965 0 
0.0805523 0.225904 0.0146485 -0.571402 -0.341546 0.746221 0 
0.0807661 0.225659 0.0152353 -0.580917 -0.299261 0.756953 0 
0.0807927 0.227122 0.0141833 -0.529261 -0.382696 0.75725 0 
0.0797565 0.227629 0.0152321 -0.44276 -0.436273 0.783345 0 
0.0799362 0.227767 0.0154288 -0.422629 -0.416201 0.805085 0 
0.0800608 0.22786 0.0147918 -0.442258 -0.432538 0.785696 0 
0.0803323 0.22768 0.0149755 -0.446568 -0.404652 0.798019 0 
0.0803828 0.227503 0.0150536 -0.450815 -0.415267 0.790138 0 
0.0801642 0.227746 0.0152349 -0.422629 -0.416201 0.805085 0 
0.0803438 0.227884 0.0154315 -0.392308 -0.389157 0.833457 0 
0.080436 0.227825 0.0152367 -0.410826 -0.391792 0.823238 0 
0.0804958 0.227871 0.0153023 -0.385937 -0.389087 0.836459 0 
0.0804845 0.227925 0.0146644 -0.444998 -0.378009 0.811841 0 
0.0805603 0.227659 0.0147816 -0.46908 -0.385258 0.794695 0 
0.0803922 0.227726 0.015041 -0.446568 -0.404652 0.798019 0 
0.0807883 0.227639 0.0145877 -0.507514 -0.356065 0.784632 0 
0.0807905 0.22762 0.0150564 -0.448583 -0.356648 0.819497 0 
0.0805718 0.227864 0.0152377 -0.404719 -0.370074 0.83621 0 
0.0809194 0.227677 0.0153567 -0.44405 -0.346074 0.82647 0 
0.0804381 0.227806 0.0157054 -0.376355 -0.373232 0.847971 0 
0.0807262 0.22809 0.0153952 -0.362223 -0.37466 0.853478 0 
0.0806433 0.228114 0.0157593 -0.340416 -0.352628 0.871648 0 
0.080846 0.228182 0.0155263 -0.345484 -0.357768 0.86755 0 
0.0809751 0.228497 0.0156448 -0.329113 -0.371974 0.86794 0 
0.0808575 0.228387 0.0159824 -0.32588 -0.368719 0.870545 0 
0.0806916 0.227956 0.0153687 -0.394793 -0.375919 0.838346 0 
0.0810553 0.227716 0.0153576 -0.460176 -0.283543 0.841333 0 
0.0808713 0.228094 0.0155654 -0.351809 -0.357954 0.864927 0 
0.0811498 0.227896 0.0154496 -0.430046 -0.297487 0.852386 0 
0.0812073 0.227702 0.0152284 -0.461814 -0.27956 0.841768 0 
0.081327 0.227794 0.0153594 -0.447676 -0.275375 0.850738 0 
0.0812029 0.228218 0.0156328 -0.361717 -0.331192 0.871477 0 
0.0812628 0.228264 0.0156983 -0.359059 -0.331557 0.872437 0 
0.0812789 0.228211 0.0155681 -0.386645 -0.307176 0.869568 0 
0.0815827 0.227925 0.0154915 -0.468049 -0.218222 0.856335 0 
0.0807946 0.226845 0.0148338 -0.530887 -0.365289 0.764672 0 
0.0807948 0.227104 0.014652 -0.535448 -0.339278 0.773425 0 
0.0809743 0.226983 0.0150304 -0.529544 -0.327966 0.782318 0 
0.0809146 0.227196 0.0147831 -0.535448 -0.339278 0.773425 0 
0.0808915 0.227266 0.0152127 -0.506166 -0.318932 0.801298 0 
0.0811979 0.227479 0.015241 -0.530202 -0.25033 0.810074 0 
0.0811539 0.227121 0.0152271 -0.522327 -0.295091 0.80006 0 
0.0811792 0.227033 0.0152661 -0.529547 -0.295598 0.795111 0 
0.0811698 0.22681 0.0152787 -0.522958 -0.342738 0.780414 0 
0.0810912 0.226318 0.0152384 -0.552467 -0.297727 0.778549 0 
0.0812708 0.226456 0.015435 -0.543654 -0.310887 0.779609 0 
0.0814505 0.226594 0.0156317 -0.550557 -0.304801 0.777163 0 
0.0815494 0.226258 0.0153193 -0.582177 -0.295076 0.757628 0 
0.0813336 0.227259 0.0154237 -0.524415 -0.273948 0.80619 0 
0.0815293 0.227345 0.0154902 -0.518403 -0.232282 0.822984 0 
0.0816303 0.226991 0.0156465 -0.531122 -0.25388 0.808365 0 
0.0811772 0.227789 0.0159574 -0.431249 -0.269721 0.860973 0 
0.0815387 0.227568 0.0154776 -0.497771 -0.220724 0.838752 0 
0.0816585 0.22766 0.0156087 -0.479811 -0.206063 0.85283 0 
0.0816144 0.227302 0.0155948 -0.500992 -0.223848 0.836002 0 
0.08181 0.227129 0.0158431 -0.55787 -0.19305 0.807163 0 
0.0817941 0.22744 0.0157915 -0.471792 -0.202197 0.858212 0 
0.0816301 0.226732 0.0158283 -0.558804 -0.266022 0.785474 0 
0.081766 0.226771 0.0158292 -0.565886 -0.266392 0.780261 0 
0.0820977 0.226895 0.0158966 -0.588854 -0.228394 0.775298 0 
0.081661 0.232202 0.0174518 0.653163 0.17897 -0.735764 0 
0.0821251 0.229873 0.015459 -0.438044 -0.264048 0.8593 0 
0.0825419 0.229955 0.015631 -0.52285 -0.198532 0.828983 0 
0.0815684 0.231744 0.0180103 0.532946 0.321688 -0.782614 0 
0.0816884 0.232095 0.0179596 0.491017 0.153901 -0.857448 0 
0.0820542 0.231837 0.0184171 0.449499 0.317939 -0.834785 0 
0.0822206 0.232306 0.0173253 0.478234 0.131478 -0.868335 0 
0.0821444 0.232054 0.0175718 0.497046 0.244676 -0.832514 0 
0.082179 0.232189 0.0175983 0.498772 0.164284 -0.851021 0 
0.082384 0.232238 0.017834 0.476388 0.21929 -0.851449 0 
0.0840045 0.231709 0.0184031 -0.495991 -0.268986 0.825615 0 
0.0840896 0.231667 0.0185077 -0.483881 -0.267449 0.833265 0 
0.0845918 0.231965 0.0186025 -0.514599 -0.218361 0.82916 0 
0.0846769 0.231922 0.0187071 -0.561063 -0.166965 0.810759 0 
0.0849164 0.232106 0.0189693 -0.622587 -0.0918571 0.77714 0 
0.084691 0.232626 0.0192682 -0.600035 -0.0915308 0.79472 0 
0.0844951 0.232282 0.0193836 -0.534549 -0.169199 0.828027 0 
0.0847483 0.232173 0.0192288 -0.62578 -0.0918978 0.774567 0 
0.0848428 0.232353 0.0193208 -0.625777 -0.0615753 0.777568 0 
0.0849003 0.232159 0.0190995 -0.626462 -0.085757 0.77472 0 
0.0851444 0.232086 0.0187754 -0.620627 -0.0949194 0.778339 0 
0.0852044 0.232132 0.018841 -0.626462 -0.085757 0.77472 0 
0.0811569 0.228617 0.0163101 -0.349798 -0.368289 0.861397 0 
0.0817151 0.229516 0.0151694 -0.369332 -0.329487 0.868926 0 
0.0814585 0.228349 0.0157648 -0.399813 -0.301774 0.865495 0 
0.0815946 0.228647 0.0155839 -0.405515 -0.313002 0.858829 0 
0.0816865 0.228329 0.0155709 -0.44915 -0.240454 0.860492 0 
0.0816941 0.229567 0.0160677 -0.390567 -0.313985 0.865373 0 
0.08183 0.229606 0.0160686 -0.418042 -0.286351 0.862116 0 
0.0820096 0.229744 0.0162652 -0.43369 -0.297873 0.850403 0 
0.0818322 0.229588 0.0165373 -0.437737 -0.295434 0.849179 0 
0.0822377 0.229724 0.0160714 -0.521435 -0.174808 0.835193 0 
0.0821417 0.227253 0.0159105 -0.523159 -0.158578 0.837351 0 
0.0818987 0.22862 0.0153253 -0.448533 -0.267895 0.852672 0 
0.0819651 0.228131 0.0154551 -0.465385 -0.221397 0.856971 0 
0.0822018 0.227558 0.0157942 -0.524717 -0.14257 0.839253 0 
0.0822775 0.227292 0.0159114 -0.523853 -0.136466 0.840806 0 
0.0821799 0.229659 0.0164745 -0.45117 -0.296129 0.841875 0 
0.0825369 0.229695 0.0165809 -0.453175 -0.31832 0.83265 0 
0.0827925 0.229826 0.0167129 -0.455979 -0.357475 0.815043 0 
0.0826359 0.230098 0.0174285 -0.457183 -0.402256 0.793205 0 
0.0827557 0.23019 0.0175596 -0.480797 -0.374668 0.792753 0 
