0.0912965 0.218993 0.0287986 -0.703222 0.104673 0.703222 0 
0.0913384 0.218992 0.0298273 -0.722485 0.0709455 0.687737 0 
0.0912376 0.219215 0.0296276 -0.710294 0.086052 0.698626 0 
0.0913113 0.219346 0.0298873 -0.729936 0.0921562 0.677275 0 
0.0915256 0.219017 0.0297614 -0.722485 0.0709455 0.687737 0 
0.0913595 0.219566 0.0301093 -0.75401 0.073809 0.652703 0 
0.0915035 0.218901 0.02844 -0.686232 0.111161 0.718839 0 
0.0899504 0.218846 0.0285616 -0.629583 0.192415 0.752729 0 
0.0898741 0.219113 0.0284485 -0.640928 0.222999 0.734494 0 
0.0903445 0.218779 0.0281371 -0.632518 0.19545 0.74948 0 
0.0904609 0.219101 0.0282885 -0.654724 0.199668 0.729019 0 
0.09051 0.219188 0.0284616 -0.646049 0.192735 0.738562 0 
0.0901548 0.219151 0.0283496 -0.640928 0.222999 0.734494 0 
0.0900786 0.219419 0.0282365 -0.651686 0.261626 0.711939 0 
0.0902911 0.219355 0.0282083 -0.656776 0.244125 0.713476 0 
0.0902657 0.219444 0.0281706 -0.651139 0.272237 0.708452 0 
0.0906679 0.219008 0.0279299 -0.673541 0.213107 0.707763 0 
0.0907415 0.219139 0.0281896 -0.673418 0.182544 0.71637 0 
0.0904355 0.21919 0.0282508 -0.654724 0.199668 0.729019 0 
0.0910221 0.219177 0.0280907 -0.704014 0.14623 0.694969 0 
0.0907144 0.219493 0.0282496 -0.687658 0.213626 0.693895 0 
0.0903592 0.219457 0.0281377 -0.669382 0.254777 0.697866 0 
0.0905691 0.219791 0.028256 -0.695929 0.220508 0.683418 0 
0.0899833 0.219671 0.0283672 -0.65857 0.283618 0.697027 0 
0.0902584 0.21968 0.027938 -0.652924 0.301474 0.694841 0 
0.0899515 0.219864 0.028048 -0.659204 0.330416 0.675481 0 
0.0902076 0.219858 0.0278626 -0.656932 0.319545 0.682885 0 
0.0900823 0.220038 0.0275764 -0.641895 0.333135 0.690646 0 
0.0898253 0.220177 0.0278107 -0.643364 0.340413 0.685712 0 
0.0903084 0.219635 0.0280623 -0.66244 0.265294 0.700566 0 
0.0906373 0.219893 0.0281854 -0.740783 0.219895 0.634734 0 
0.0902322 0.219902 0.0279492 -0.659448 0.315952 0.682131 0 
0.0905619 0.220028 0.0280234 -0.724856 0.247936 0.642737 0 
0.0908244 0.219919 0.0281195 -0.746498 0.219742 0.628056 0 
0.0907736 0.220097 0.0280441 -0.741118 0.236594 0.628305 0 
0.090343 0.220195 0.0277702 -0.681366 0.31236 0.661945 0 
0.0903176 0.220284 0.0277325 -0.681366 0.31236 0.661945 0 
0.0904366 0.220208 0.0277372 -0.704211 0.293555 0.646462 0 
0.0907909 0.220377 0.0278981 -0.782876 0.221686 0.581344 0 
0.0911758 0.219335 0.0288915 -0.699492 0.114354 0.705432 0 
0.0911957 0.219217 0.0285989 -0.719814 0.117248 0.684194 0 
0.0910996 0.219602 0.0287785 -0.726072 0.130244 0.675172 0 
0.0911449 0.219395 0.0285235 -0.719814 0.117248 0.684194 0 
0.0908125 0.219668 0.0285958 -0.729201 0.159181 0.665528 0 
0.0908989 0.219917 0.0283303 -0.775564 0.148512 0.613551 0 
0.0910234 0.21987 0.0286653 -0.747407 0.145872 0.648154 0 
0.0910479 0.219913 0.0287519 -0.749541 0.136144 0.647807 0 
0.0911224 0.219912 0.0289628 -0.714146 0.133247 0.687197 0 
0.0912968 0.219819 0.0294221 -0.751144 0.110679 0.650794 0 
0.0912206 0.220086 0.029309 -0.739725 0.117111 0.66264 0 
0.0911444 0.220353 0.0291959 -0.745897 0.107823 0.657276 0 
0.0915504 0.220212 0.0293832 -0.755255 0.0736481 0.651281 0 
0.0909471 0.220137 0.0285523 -0.760982 0.149183 0.631389 0 
0.0909898 0.220328 0.0284439 -0.786021 0.164446 0.595927 0 
0.091088 0.220502 0.0287902 -0.772933 0.148583 0.616845 0 
0.0902787 0.220388 0.0282689 -0.740648 0.257411 0.620629 0 
0.0909153 0.22033 0.0282331 -0.786214 0.190829 0.587752 0 
0.0908645 0.220508 0.0281577 -0.791453 0.214448 0.572376 0 
0.090989 0.22046 0.0284928 -0.785255 0.187546 0.590085 0 
0.0910118 0.22077 0.0286771 -0.815295 0.128265 0.564662 0 
0.0909127 0.220728 0.0283797 -0.792631 0.224038 0.567048 0 
0.0910681 0.22062 0.0290828 -0.771052 0.11352 0.626572 0 
0.0911363 0.220722 0.0290122 -0.772748 0.104108 0.626117 0 
0.0912471 0.221015 0.0288332 -0.798497 0.0823044 0.596346 0 
0.0878126 0.221816 0.0245514 0.832222 -0.00953446 -0.554361 0 
0.0903739 0.220786 0.0259618 -0.747511 0.250219 0.615319 0 
0.0904838 0.221211 0.0258316 -0.806977 0.166805 0.566537 0 
0.0875603 0.222116 0.0251649 0.730627 -0.127001 -0.670862 0 
0.0875294 0.222175 0.0247969 0.822255 -0.208996 -0.529355 0 
0.0875505 0.22275 0.0250789 0.715262 -0.223813 -0.662048 0 
0.0882041 0.222147 0.0242736 0.83135 -0.228124 -0.506771 0 
0.0880907 0.222252 0.0245992 0.773562 -0.188412 -0.605064 0 
0.0880407 0.222297 0.0244749 0.818447 -0.198918 -0.539051 0 
0.0879891 0.222608 0.0244483 0.78372 -0.214866 -0.582766 0 
0.0888215 0.224183 0.0246893 -0.757562 0.185182 0.625945 0 
0.0888207 0.224315 0.0247381 -0.756518 0.195678 0.624012 0 
0.0889497 0.224755 0.0243642 -0.79299 0.174367 0.58375 0 
0.0889488 0.224888 0.024413 -0.828746 0.130546 0.544185 0 
0.0888472 0.225244 0.0242622 -0.875336 0.059462 0.479845 0 
0.0882986 0.225286 0.0239347 -0.873098 0.0885752 0.479431 0 
0.0882359 0.225213 0.0243357 -0.822961 0.159813 0.545156 0 
0.0885411 0.225295 0.0243234 -0.874314 0.0566301 0.482047 0 
0.0884658 0.22543 0.0241615 -0.888176 0.0588468 0.45572 0 
0.0887282 0.225321 0.0242575 -0.878541 0.0563696 0.47433 0 
0.0891278 0.225283 0.0241634 -0.872713 0.0624358 0.484224 0 
0.0891025 0.225372 0.0241257 -0.878541 0.0563696 0.47433 0 
0.0896983 0.220622 0.0276222 -0.652843 0.315892 0.688482 0 
0.0904573 0.220282 0.0263075 -0.686174 0.305146 0.660342 0 
0.0903604 0.220475 0.0276241 -0.711605 0.279845 0.644442 0 
0.0904484 0.220458 0.0272608 -0.706861 0.272852 0.65261 0 
0.090641 0.220513 0.0275253 -0.763114 0.239746 0.600149 0 
0.0898172 0.220871 0.0265387 -0.700966 0.287123 0.652845 0 
0.0898853 0.220973 0.0264681 -0.726277 0.265401 0.634102 0 
0.0898091 0.22124 0.026355 -0.72635 0.247369 0.641268 0 
0.0895775 0.221289 0.0266269 -0.728951 0.240885 0.640784 0 
0.0900897 0.221278 0.0262561 -0.817398 0.173114 0.549448 0 
0.0911227 0.221062 0.0284981 -0.826658 0.172533 0.535602 0 
0.0908226 0.220509 0.027129 -0.748282 0.236878 0.619647 0 
0.0909708 0.220638 0.0275995 -0.777947 0.22826 0.585402 0 
0.0911172 0.221033 0.0281677 -0.835626 0.171909 0.521706 0 
0.0911908 0.221164 0.0284274 -0.836494 0.17508 0.519255 0 
0.0898073 0.221505 0.0264527 -0.732538 0.226478 0.641947 0 
0.0899428 0.221842 0.0263602 -0.717283 0.220342 0.661025 0 
0.0899601 0.222122 0.0262142 -0.690339 0.206326 0.693442 0 
0.0892718 0.22249 0.0262234 -0.657946 0.189525 0.728826 0 
0.0892209 0.222669 0.026148 -0.685725 0.172577 0.707106 0 
0.0895532 0.222396 0.0260757 -0.671736 0.182921 0.717851 0 
0.0897903 0.222376 0.026134 -0.640186 0.198998 0.741999 0 
0.0898838 0.222389 0.0261011 -0.642724 0.202884 0.738745 0 
0.0898584 0.222478 0.0260634 -0.641653 0.199454 0.740607 0 
0.089527 0.222618 0.0260868 -0.670428 0.169516 0.722351 0 
0.089527 0.222618 0.0260868 -0.670428 0.169516 0.722351 0 
0.0894262 0.222841 0.0258872 -0.698021 0.172596 0.694966 0 
0.0898076 0.222656 0.025988 -0.644552 0.182189 0.742536 0 
0.0896378 0.22291 0.0259079 -0.691416 0.176303 0.700615 0 
0.0897314 0.222923 0.0258749 -0.676945 0.179598 0.713786 0 
0.0900684 0.222812 0.0261818 -0.697293 0.152769 0.700318 0 
0.0899921 0.22308 0.0260687 -0.698823 0.165951 0.695778 0 
0.0906433 0.222549 0.0264981 -0.76856 0.155524 0.620586 0 
0.0902127 0.222647 0.0262242 -0.703746 0.162637 0.691586 0 
0.0906161 0.222903 0.0265581 -0.753273 0.142836 0.642011 0 
0.0902102 0.223045 0.0263708 -0.706463 0.136493 0.694464 0 
0.0906216 0.222933 0.0268885 -0.772276 0.13892 0.619912 0 
0.0903583 0.223174 0.0268413 -0.717668 0.142932 0.681559 0 
0.0904066 0.223394 0.0270633 -0.718999 0.159609 0.676436 0 
0.0902821 0.223441 0.0267282 -0.697692 0.162643 0.697692 0 
0.0891201 0.222892 0.0259483 -0.694495 0.176307 0.697562 0 
0.0894253 0.222974 0.0259361 -0.694495 0.176307 0.697562 0 
0.0897042 0.223278 0.0259349 -0.670256 0.182518 0.719336 0 
0.089628 0.223545 0.0258219 -0.693792 0.193149 0.693792 0 
0.0896026 0.223634 0.0257841 -0.690695 0.193147 0.696875 0 
0.0896898 0.22375 0.0254697 -0.699365 0.185985 0.690143 0 
0.0899159 0.223347 0.0259556 -0.70261 0.159339 0.693505 0 
0.0898397 0.223614 0.0258425 -0.704091 0.172586 0.688818 0 
0.0898143 0.223703 0.0258048 -0.704755 0.179643 0.68633 0 
0.0883157 0.22409 0.0253416 -0.71674 0.202792 0.667203 0 
0.0886726 0.223861 0.0253558 -0.725995 0.175767 0.664859 0 
0.0885972 0.223995 0.0251939 -0.737525 0.189385 0.648221 0 
0.0890722 0.223823 0.0252617 -0.717017 0.189662 0.670757 0 
0.0895518 0.223812 0.0257087 -0.709693 0.176274 0.682102 0 
0.0893329 0.223979 0.0254554 -0.723807 0.169142 0.66895 0 
0.0894265 0.223992 0.0254225 -0.725995 0.175767 0.664859 0 
0.0889959 0.22409 0.0251486 -0.736827 0.182292 0.651042 0 
0.0888778 0.224034 0.025095 -0.736827 0.182292 0.651042 0 
0.0889705 0.224179 0.0251109 -0.739689 0.182242 0.647802 0 
0.0892339 0.223937 0.0251581 -0.728552 0.179454 0.661065 0 
0.0891576 0.224205 0.025045 -0.73935 0.18599 0.647124 0 
0.0893257 0.224216 0.0252229 -0.786232 0.119484 0.606269 0 
0.0893003 0.224305 0.0251852 -0.802911 0.106762 0.586461 0 
0.0902964 0.223294 0.0261053 -0.739828 0.13656 0.658792 0 
0.0902202 0.223561 0.0259921 -0.731575 0.149332 0.665205 0 
0.0901339 0.223312 0.0262577 -0.739828 0.13656 0.658792 0 
0.0900577 0.22358 0.0261446 -0.731575 0.149332 0.665205 0 
0.0902176 0.223959 0.0261387 -0.739276 0.159392 0.654267 0 
0.0898324 0.22385 0.0256098 -0.70821 0.175905 0.683736 0 
0.0897071 0.22403 0.0253237 -0.74327 0.146242 0.652811 0 
0.0899878 0.224068 0.0252248 -0.719336 0.182518 0.670256 0 
0.08968 0.224385 0.0253837 -0.804515 0.0791562 0.588634 0 
0.0896055 0.224387 0.0251729 -0.780487 0.132311 0.61101 0 
0.0898807 0.22407 0.0258318 -0.806646 0.0640195 0.587557 0 
0.090235 0.224239 0.0259927 -0.810241 0.0581784 0.583203 0 
0.0901105 0.224287 0.0256576 -0.806646 0.0640195 0.587557 0 
0.0898044 0.224338 0.0257188 -0.831486 0.0290536 0.554785 0 
0.0898916 0.224454 0.0254043 -0.843123 0.0317378 0.536784 0 
0.0897282 0.224605 0.0256057 -0.843123 0.0317378 0.536784 0 
0.0900825 0.224774 0.0257665 -0.834809 0.0318418 0.549617 0 
0.0900343 0.224554 0.0255445 -0.834809 0.0318418 0.549617 0 
0.0901587 0.224507 0.0258795 -0.833246 0.026168 0.552283 0 
0.0902459 0.224623 0.0255652 -0.833539 0.0317933 0.551546 0 
0.0902812 0.223574 0.0267771 -0.704478 0.156046 0.692358 0 
0.0902058 0.223709 0.0266151 -0.713431 0.156016 0.683137 0 
0.090205 0.223841 0.026664 -0.704091 0.172586 0.688818 0 
0.090304 0.223883 0.0269613 -0.689615 0.18976 0.698872 0 
0.0902913 0.22409 0.0263984 -0.771323 0.107251 0.627343 0 
0.0903649 0.224221 0.0266581 -0.800267 0.037841 0.598448 0 
0.0902578 0.224549 0.026177 -0.839173 0.0205344 0.543477 0 
0.0902552 0.224947 0.0263235 -0.839173 0.0205344 0.543477 0 
0.0903932 0.224885 0.0260845 -0.84037 0.0233055 0.541511 0 
0.0890332 0.224252 0.0247099 -0.757831 0.195222 0.622559 0 
0.0891068 0.224383 0.0249696 -0.785926 0.148203 0.600297 0 
0.0891495 0.224574 0.0248612 -0.820355 0.115522 0.560064 0 
0.089362 0.22451 0.024833 -0.801336 0.141237 0.581303 0 
0.0891986 0.224661 0.0250344 -0.819284 0.112451 0.562254 0 
0.0889569 0.224519 0.0245968 -0.784318 0.171427 0.596203 0 
0.0893112 0.224688 0.0247576 -0.810257 0.131353 0.571165 0 
0.0890234 0.224886 0.0246239 -0.845794 0.105184 0.523038 0 
0.0895348 0.224683 0.0253901 -0.849116 0.034405 0.527085 0 
0.0894331 0.225039 0.0252393 -0.869071 0.0312811 0.493698 0 
0.0889488 0.224888 0.024413 -0.828746 0.130546 0.544185 0 
0.088898 0.225066 0.0243377 -0.852807 0.0925416 0.513962 0 
0.0890462 0.225195 0.0248082 -0.88225 0.025592 0.470085 0 
0.0887282 0.225321 0.0242575 -0.878541 0.0563696 0.47433 0 
0.0888709 0.225421 0.0243977 -0.898286 0.0118716 0.43925 0 
0.0887709 0.225512 0.0241492 -0.881444 0.0563794 0.468912 0 
0.0889445 0.225552 0.0246574 -0.893537 0.0145613 0.448754 0 
0.0891054 0.225799 0.0246026 -0.898286 0.0118716 0.43925 0 
0.0893569 0.225306 0.0251262 -0.880528 0.0256203 0.473301 0 
0.0892552 0.225663 0.0249754 -0.889296 0.0092773 0.457238 0 
0.0893043 0.22575 0.0251485 -0.892024 0.00658806 0.451941 0 
0.0890918 0.225813 0.0251767 -0.889296 0.0092773 0.457238 0 
0.0896549 0.225299 0.0259695 -0.844446 0.0232667 0.535135 0 
0.089654 0.225432 0.0260184 -0.85743 0.0121525 0.514458 0 
0.088668 0.226308 0.026896 -0.89708 -0.307953 0.316879 0 
0.0887252 0.226352 0.0261646 -0.871288 0.0202625 0.490353 0 
0.0894092 0.226646 0.0263998 -0.908982 -0.178934 0.376476 0 
0.0895293 0.224654 0.0250598 -0.845116 0.0602653 0.531176 0 
0.0898099 0.224692 0.0249609 -0.83493 0.0782303 0.544767 0 
0.0892549 0.224837 0.0243519 -0.831498 0.111737 0.544174 0 
0.0894784 0.224832 0.0249844 -0.866799 0.0397112 0.497074 0 
0.0894513 0.225186 0.0250444 -0.881789 0.0228164 0.471093 0 
0.0898154 0.224721 0.0252912 -0.849116 0.034405 0.527085 0 
0.0896029 0.224785 0.0253194 -0.852902 0.0457655 0.520062 0 
0.089652 0.224872 0.0254925 -0.849116 0.034405 0.527085 0 
0.0899127 0.225028 0.0256863 -0.844574 0.0402178 0.533926 0 
0.089909 0.224734 0.0252583 -0.849116 0.034405 0.527085 0 
0.0900562 0.224996 0.0257776 -0.838015 0.037399 0.544364 0 
0.0902433 0.225021 0.0257117 -0.840757 0.0261446 0.540781 0 
0.0895758 0.225139 0.0253794 -0.862806 0.0314493 0.504557 0 
0.0896494 0.22527 0.0256391 -0.858113 0.0370705 0.512122 0 
0.0892295 0.224926 0.0243142 -0.847923 0.0929426 0.521909 0 
0.0894995 0.225406 0.0252664 -0.876583 0.0228908 0.480707 0 
0.0895731 0.225537 0.0255261 -0.867301 0.0285923 0.496962 0 
0.0892726 0.225943 0.0248293 -0.893984 0.0199253 0.447656 0 
0.0893216 0.22603 0.0250025 -0.891352 0.0172691 0.452982 0 
0.0896899 0.226684 0.0263009 -0.911434 -0.181146 0.369423 0 
0.0883667 0.225388 0.0238641 -0.890644 0.0731847 0.448774 0 
0.088522 0.225606 0.023479 -0.896099 0.107981 0.43052 0 
0.0885784 0.225457 0.0238847 -0.881261 0.0765709 0.466386 0 
0.0885512 0.225811 0.0239448 -0.893777 0.0757439 0.442069 0 
0.0886448 0.225824 0.0239118 -0.893777 0.0757439 0.442069 0 
0.0884213 0.225829 0.0232793 -0.916894 0.0855767 0.38985 0 
0.0883704 0.226008 0.023204 -0.93938 0.050672 0.339112 0 
0.0885449 0.225915 0.0236633 -0.92435 0.06251 0.37639 0 
0.0886185 0.226046 0.023923 -0.911677 0.0577351 0.406831 0 
0.0887065 0.22603 0.0235597 -0.929449 0.0485044 0.365749 0 
0.088483 0.226035 0.0229272 -0.947903 0.0659523 0.311657 0 
0.0884068 0.226302 0.0228141 -0.955616 0.0705488 0.286043 0 
0.0879936 0.226355 0.0234823 -0.942545 0.0585028 0.328916 0 
0.0882171 0.226675 0.0230266 -0.955616 0.0705488 0.286043 0 
0.0887265 0.225911 0.023267 -0.922279 0.0711511 0.37992 0 
0.0888737 0.226173 0.0237864 -0.923142 0.0462231 0.381671 0 
0.0886257 0.226135 0.0230674 -0.945199 0.0635319 0.320253 0 
0.0886993 0.226266 0.023327 -0.947226 0.0554159 0.315742 0 
0.0885749 0.226313 0.022992 -0.948665 0.0660053 0.309319 0 
0.0887865 0.226382 0.0230126 -0.950511 0.0683542 0.30308 0 
0.0890781 0.226479 0.0235744 -0.947363 0.034242 0.318324 0 
0.0885232 0.226624 0.0229654 -0.953742 0.0707906 0.292172 0 
0.0887103 0.226649 0.0228996 -0.953742 0.0707906 0.292172 0 
0.0884732 0.226669 0.0228412 -0.953427 0.0680103 0.293856 0 
0.0884977 0.226713 0.0229277 -0.955616 0.0705488 0.286043 0 
0.0889257 0.227013 0.0233483 -0.947834 0.0849782 0.307229 0 
0.087803 0.227511 0.0215673 -0.936949 -0.0670188 0.342979 0 
0.0882035 0.227015 0.0225125 -0.950519 0.0793183 0.300369 0 
0.0881781 0.227104 0.0224748 -0.944187 0.0746445 0.32084 0 
0.0881663 0.226853 0.0229512 -0.95341 0.060148 0.295621 0 
0.088049 0.226989 0.0217606 -0.931854 0.0538872 0.35881 0 
0.0881053 0.227165 0.0210781 -0.928856 0.0115306 0.370261 0 
0.0880862 0.227151 0.0213218 -0.936983 0.0063054 0.349319 0 
0.088228 0.227384 0.0215109 -0.938066 -0.0295151 0.345198 0 
0.0877484 0.227394 0.0210638 -0.928436 -0.06774 0.365264 0 
0.0877975 0.227482 0.021237 -0.935628 -0.0727858 0.345402 0 
0.0881518 0.227651 0.0213978 -0.936758 -0.0808235 0.340519 0 
0.0883643 0.227587 0.0213696 -0.936958 -0.0534288 0.345332 0 
0.088288 0.227854 0.0212565 -0.937814 -0.0976611 0.333118 0 
0.0882606 0.227058 0.0217812 -0.934735 0.0509855 0.351669 0 
0.0882208 0.227295 0.0223664 -0.939047 0.0613841 0.338266 0 
0.0884215 0.22698 0.0228147 -0.948959 0.0768019 0.305906 0 
0.0887813 0.227178 0.0233058 -0.956215 0.059843 0.286482 0 
0.0883207 0.227204 0.022615 -0.950675 0.0657862 0.303132 0 
0.088457 0.227407 0.0224737 -0.939047 0.0613841 0.338266 0 
0.0886797 0.227535 0.023155 -0.952105 0.0872654 0.293055 0 
0.0886488 0.227595 0.022787 -0.95052 0.0550099 0.305753 0 
0.0886288 0.227713 0.0230796 -0.95341 0.060148 0.295621 0 
0.0879973 0.2273 0.021734 -0.938428 -0.00125626 0.345472 0 
0.0881844 0.227325 0.0216681 -0.940504 -0.0113618 0.339592 0 
0.088258 0.227456 0.0219278 -0.942327 -0.0163993 0.334293 0 
0.0883016 0.227515 0.0217706 -0.940243 -0.0319811 0.338999 0 
0.0879947 0.227698 0.0218806 -0.941197 -0.0532263 0.333638 0 
0.0880684 0.227829 0.0221403 -0.942974 -0.0557743 0.32816 0 
0.0884625 0.227762 0.0217158 -0.940178 -0.0612876 0.335126 0 
0.0883862 0.228029 0.0216027 -0.935802 -0.0977304 0.338709 0 
0.0883126 0.227898 0.021343 -0.935802 -0.0977304 0.338709 0 
0.0883236 0.227956 0.0220037 -0.943402 -0.066547 0.324906 0 
0.0884316 0.227496 0.022436 -0.944309 0.0318593 0.327513 0 
0.0885725 0.227862 0.0226739 -0.952459 -0.0161434 0.30424 0 
0.0885526 0.22798 0.0229665 -0.957975 -0.0135272 0.286532 0 
0.0884735 0.22782 0.0223765 -0.948452 -0.0394658 0.314453 0 
0.0884963 0.228129 0.0225608 -0.948452 -0.0394658 0.314453 0 
0.0884764 0.228247 0.0228534 -0.954213 -0.0415971 0.296222 0 
0.0884937 0.228527 0.0227074 -0.945381 -0.0799837 0.316001 0 
0.0885843 0.228113 0.0221975 -0.943848 -0.0637911 0.324163 0 
0.0886669 0.228067 0.0215039 -0.937541 -0.0946876 0.334741 0 
0.0876277 0.227736 0.0211569 -0.927329 -0.119169 0.354768 0 
0.0870629 0.228516 0.0204618 -0.796927 -0.0465462 0.602279 0 
0.0873499 0.22845 0.0206444 -0.856822 -0.0923606 0.507273 0 
0.0874244 0.228449 0.0208552 -0.876192 -0.106506 0.470048 0 
0.0870159 0.228988 0.0208145 -0.828497 -0.0696335 0.555647 0 
0.0871094 0.229001 0.0207815 -0.82839 -0.078419 0.554636 0 
0.0873456 0.229114 0.0208887 -0.845769 -0.0810232 0.527362 0 
0.0877213 0.227749 0.0211239 -0.927329 -0.119169 0.354768 0 
0.087695 0.227971 0.0211351 -0.925124 -0.119238 0.360456 0 
0.0880264 0.227831 0.0211116 -0.928063 -0.110386 0.355689 0 
0.0882136 0.227856 0.0210457 -0.928063 -0.110386 0.355689 0 
0.0879756 0.228009 0.0210362 -0.926036 -0.119356 0.358067 0 
0.0875451 0.228107 0.0207622 -0.88648 -0.120561 0.446786 0 
0.0876187 0.228238 0.0210219 -0.910535 -0.118161 0.396187 0 
0.0876424 0.228414 0.0211574 -0.911795 -0.129857 0.389572 0 
0.0879231 0.228452 0.0210585 -0.909383 -0.109681 0.401239 0 
0.0878994 0.228276 0.0209231 -0.909754 -0.121208 0.39706 0 
0.0881373 0.228123 0.0209326 -0.917086 -0.10862 0.383609 0 
0.0881102 0.228478 0.0209926 -0.910113 -0.112548 0.398782 0 
0.0885433 0.227982 0.0211199 -0.930587 -0.11004 0.34914 0 
0.0885124 0.228042 0.0207519 -0.914496 -0.112064 0.388765 0 
0.088724 0.228111 0.0207725 -0.91519 -0.114918 0.386291 0 
0.0875171 0.228594 0.0208712 -0.874085 -0.109438 0.473285 0 
0.0873672 0.22873 0.0204983 -0.829462 -0.0754057 0.553449 0 
0.0874899 0.228949 0.0209312 -0.869446 -0.100703 0.483656 0 
0.0882338 0.228563 0.0213765 -0.926322 -0.124882 0.355433 0 
0.088282 0.228783 0.0215985 -0.927083 -0.130866 0.351272 0 
0.0883947 0.228485 0.02241 -0.94041 -0.0971003 0.325885 0 
0.0885309 0.228689 0.0222687 -0.937736 -0.114687 0.32787 0 
0.0882448 0.228622 0.0220372 -0.936904 -0.114585 0.330275 0 
0.0883556 0.228914 0.0218582 -0.929066 -0.127627 0.347199 0 
0.0886614 0.228038 0.0211735 -0.930587 -0.11004 0.34914 0 
0.0888087 0.2283 0.0216929 -0.934602 -0.109239 0.338506 0 
0.0888485 0.228064 0.0211076 -0.933979 -0.112186 0.33926 0 
0.0889957 0.228325 0.021627 -0.937814 -0.0976611 0.333118 0 
0.0887642 0.228374 0.021899 -0.938398 -0.100399 0.330648 0 
0.0887887 0.228418 0.0219855 -0.93952 -0.0946183 0.329165 0 
0.0887815 0.228654 0.0217529 -0.933256 -0.120902 0.338254 0 
0.0876898 0.228767 0.0214282 -0.913577 -0.126924 0.386352 0 
0.0877778 0.22875 0.021065 -0.887384 -0.117469 0.445815 0 
0.0880839 0.2287 0.0210038 -0.892762 -0.11424 0.435803 0 
0.0878206 0.228941 0.0209566 -0.87866 -0.106118 0.465506 0 
0.0880187 0.229025 0.0215513 -0.914873 -0.132692 0.381314 0 
0.0877016 0.229018 0.0209518 -0.869446 -0.100703 0.483656 0 
0.0876508 0.229196 0.0208764 -0.861028 -0.0953535 0.499538 0 
0.0877443 0.229209 0.0208435 -0.860032 -0.0924001 0.501804 0 
0.087818 0.229339 0.0211031 -0.864926 -0.101169 0.491597 0 
0.0882794 0.229181 0.0217451 -0.918313 -0.135169 0.372063 0 
0.0882032 0.229449 0.021632 -0.901588 -0.122368 0.414927 0 
0.0872203 0.229294 0.0206025 -0.800766 -0.0524396 0.596677 0 
0.0869915 0.230096 0.0202632 -0.821872 -0.0319849 0.568774 0 
0.0870406 0.230183 0.0204363 -0.815878 -0.0263186 0.577625 0 
0.0864966 0.230386 0.020488 -0.808861 0.02074 0.587634 0 
0.0864221 0.230388 0.0202772 -0.818426 0.0291799 0.573871 0 
0.0868908 0.230319 0.0200636 -0.821932 0.0123496 0.569452 0 
0.0872939 0.229425 0.0208622 -0.827302 -0.0814443 0.555821 0 
0.086937 0.229654 0.0208479 -0.791081 -0.0612909 0.608633 0 
0.0868608 0.229921 0.0207348 -0.774681 -0.0266165 0.631792 0 
0.0869289 0.230023 0.0206642 -0.80386 -0.040684 0.593426 0 
0.0872884 0.229396 0.0205319 -0.783646 -0.0409473 0.619857 0 
0.0872122 0.229663 0.0204188 -0.768348 -0.0237922 0.63959 0 
0.0872104 0.229928 0.0205165 -0.770986 -0.0294913 0.636169 0 
0.0874911 0.229967 0.0204176 -0.772301 -0.0409447 0.633936 0 
0.0870089 0.230375 0.0201172 -0.819387 0.00957548 0.573161 0 
0.0873386 0.230501 0.0201914 -0.820301 0.00682447 0.571891 0 
0.0869834 0.230465 0.0200795 -0.822562 0.0235018 0.56819 0 
0.0872641 0.230503 0.0199806 -0.825872 0.00955554 0.563777 0 
0.0875745 0.229463 0.0207633 -0.832696 -0.0723467 0.548984 0 
0.0874848 0.229745 0.0212243 -0.839289 -0.090077 0.536172 0 
0.087768 0.229385 0.0209789 -0.856822 -0.0923606 0.507273 0 
0.0877417 0.229607 0.0209901 -0.840354 -0.0930546 0.53399 0 
0.0878662 0.229559 0.0213251 -0.873135 -0.112525 0.474313 0 
0.08779 0.229827 0.021212 -0.855063 -0.101691 0.508455 0 
0.0873603 0.229792 0.0208893 -0.798265 -0.0552972 0.599762 0 
0.087235 0.229972 0.020603 -0.763276 -0.0238086 0.645634 0 
0.0874729 0.229819 0.0206125 -0.774804 -0.0323421 0.631374 0 
0.0874585 0.229967 0.0212355 -0.827519 -0.0846163 0.555025 0 
0.0876655 0.229874 0.0208769 -0.815007 -0.0699393 0.575215 0 
0.0875893 0.230141 0.0207639 -0.784888 -0.0525151 0.617408 0 
0.0877137 0.230094 0.0210989 -0.829527 -0.0873941 0.551586 0 
0.0881269 0.229716 0.0215189 -0.877038 -0.115512 0.466327 0 
0.0878636 0.229958 0.0214717 -0.852996 -0.107883 0.510647 0 
0.0876058 0.230228 0.0217549 -0.852996 -0.107883 0.510647 0 
0.0877874 0.230225 0.0213586 -0.836039 -0.0992886 0.539612 0 
0.0873458 0.230265 0.020424 -0.807518 -0.040727 0.588435 0 
0.0876375 0.230361 0.0209858 -0.803331 -0.0761655 0.590642 0 
0.0875385 0.230319 0.0206885 -0.774902 -0.0381099 0.630931 0 
0.087414 0.230366 0.0203534 -0.819585 -0.0347871 0.571901 0 
0.0875248 0.230659 0.0201744 -0.823185 0.0151169 0.567572 0 
0.0874368 0.230676 0.0205377 -0.806626 0.0179865 0.590788 0 
0.0875613 0.230628 0.0208728 -0.790005 0.015219 0.612911 0 
0.087485 0.230896 0.0207596 -0.807053 0.0320591 0.589608 0 
0.0875676 0.230525 0.0211542 -0.798265 -0.0552972 0.599762 0 
0.0877111 0.230492 0.0212455 -0.808065 -0.0760701 0.584161 0 
0.0876349 0.230759 0.0211324 -0.79265 0.0180463 0.60941 0 
0.0874652 0.231014 0.0210523 -0.788411 0.0351342 0.614145 0 
0.088652 0.225588 0.0241444 -0.888176 0.0588468 0.45572 0 
0.0887184 0.225955 0.0241715 -0.901007 0.0499809 0.430916 0 
0.08893 0.226024 0.0241921 -0.89493 0.055848 0.442698 0 
0.0888538 0.226291 0.024079 -0.918427 0.0355775 0.393988 0 
0.0888368 0.226837 0.0248486 -0.930926 -0.0244642 0.364387 0 
0.0889804 0.226479 0.0260281 -0.873725 0.0201939 0.486001 0 
0.0890753 0.225726 0.0241857 -0.882292 0.0619394 0.46661 0 
0.0889991 0.225993 0.0240726 -0.898003 0.0584177 0.436095 0 
0.0890981 0.226035 0.02437 -0.902207 0.0251717 0.430569 0 
0.0888966 0.226482 0.0239707 -0.931326 0.0297094 0.362972 0 
0.0891099 0.226286 0.0238936 -0.919696 0.0381562 0.390772 0 
0.0890219 0.226302 0.0242569 -0.918045 0.0302075 0.395324 0 
0.0891328 0.226595 0.0240779 -0.923776 0.0299674 0.381758 0 
0.0891963 0.22621 0.0247163 -0.902264 0.0225235 0.430596 0 
0.0892454 0.226297 0.0248894 -0.899295 0.0145261 0.437102 0 
0.0891201 0.226477 0.0246032 -0.914443 0.0196232 0.404239 0 
0.0891692 0.226564 0.0247763 -0.908744 0.014383 0.417107 0 
0.0890439 0.226744 0.02449 -0.931161 -0.00381103 0.364588 0 
0.0891518 0.22661 0.0238341 -0.933685 0.0375546 0.356121 0 
0.0890756 0.226877 0.023721 -0.956708 0.026126 0.289874 0 
0.0889993 0.227144 0.0236079 -0.967666 0.0404727 0.248968 0 
0.0890048 0.227173 0.0239383 -0.957923 0.0465744 0.283223 0 
0.0889676 0.227011 0.024377 -0.943433 -0.0138555 0.331272 0 
0.0888914 0.227279 0.0242639 -0.947691 0.0394341 0.316745 0 
0.0884955 0.227936 0.0236978 -0.949916 0.0901571 0.299217 0 
0.0886179 0.227329 0.0235072 -0.956389 0.0651212 0.284746 0 
0.0887415 0.227415 0.0238911 -0.961613 0.051403 0.269552 0 
0.0886653 0.227682 0.023778 -0.963873 0.0720063 0.256443 0 
0.0885663 0.22764 0.0234806 -0.946358 0.0934512 0.30931 0 
0.08849 0.227907 0.0233675 -0.956066 0.0623798 0.286438 0 
0.0884138 0.228175 0.0232544 -0.95643 0.00366448 0.291937 0 
0.0885246 0.228467 0.0230754 -0.958576 -0.0568325 0.279111 0 
0.0890106 0.228678 0.0227157 -0.954692 -0.0839715 0.285503 0 
0.0882613 0.228709 0.0230282 -0.950678 -0.0957235 0.295038 0 
0.0892599 0.228276 0.0205371 -0.883366 -0.10003 0.457885 0 
0.0832034 0.241999 0.00955978 0.938856 0.333314 -0.0863164 0 
0.0825655 0.244624 0.00876394 0.979611 0.142062 -0.142062 0 
0.0819715 0.244873 0.00869133 0.961962 0.0334272 -0.271132 0 
0.0822594 0.244675 0.00882507 0.979252 0.13954 -0.14695 0 
0.0825582 0.24486 0.00853126 0.976199 0.136243 -0.168741 0 
0.0825328 0.244949 0.00849359 0.951597 0.00370271 -0.307325 0 
0.0823876 0.245247 0.0085 0.935854 -0.00378888 -0.352366 0 
0.0819799 0.245654 0.00841039 0.943493 0.0396856 -0.329007 0 
0.0832443 0.242455 0.00954916 0.950854 0.297873 -0.0845492 0 
0.083456 0.242525 0.00956985 0.950519 0.300369 -0.0793183 0 
0.0824058 0.245395 0.00830507 0.941324 0.0241365 -0.336641 0 
0.08183 0.245791 0.00803759 0.935204 0.0428041 -0.351512 0 
0.0820235 0.245713 0.00825316 0.938066 0.0295151 -0.345198 0 
0.0818046 0.24588 0.00799987 0.93282 0.0429331 -0.357776 0 
0.0818537 0.245967 0.00817303 0.935204 0.0428041 -0.351512 0 
0.0821589 0.246049 0.00816073 0.935204 0.0428041 -0.351512 0 
0.0817283 0.246147 0.00788676 0.928114 0.054129 -0.368341 0 
0.081871 0.246247 0.00802697 0.932453 0.0591825 -0.35641 0 
0.0820827 0.246316 0.0080476 0.932453 0.0591825 -0.35641 0 
0.0817266 0.246413 0.00798449 0.930416 0.0703453 -0.35969 0 
0.0820754 0.246553 0.00781501 0.930941 0.0675363 -0.358869 0 
0.0819556 0.246762 0.00785911 0.926571 0.0624804 -0.370894 0 
0.0815196 0.246831 0.00725484 0.937821 0.103308 -0.33139 0 
0.0817186 0.246782 0.00780078 0.915956 0.057498 -0.397137 0 
0.0819484 0.246998 0.0076265 0.914395 0.0715848 -0.398444 0 
0.0816423 0.247049 0.00768767 0.915956 0.057498 -0.397137 0 
0.0816313 0.246991 0.00702696 0.936392 0.106133 -0.334522 0 
0.0817731 0.247223 0.00721606 0.939642 0.151379 -0.30685 0 
0.0815424 0.24714 0.00743916 0.935802 0.0977304 -0.338709 0 
0.0818722 0.247265 0.0075134 0.933979 0.112186 -0.33926 0 
0.0818468 0.247354 0.00747574 0.944653 0.155861 -0.288682 0 
0.0824404 0.245955 0.00801297 0.930924 0.0377578 -0.363256 0 
0.0821788 0.245931 0.00786808 0.927081 0.0405353 -0.372663 0 
0.082622 0.245951 0.00761669 0.926429 0.0513951 -0.372944 0 
0.0821026 0.246198 0.00775495 0.929335 0.0678055 -0.362959 0 
0.082644 0.246393 0.0078499 0.929335 0.0678055 -0.362959 0 
0.0816478 0.247403 0.00692981 0.935348 0.184846 -0.301591 0 
0.081884 0.247516 0.00703701 0.929872 0.185974 -0.317415 0 
0.0818349 0.247429 0.0068639 0.935348 0.184846 -0.301591 0 
0.0865783 0.230473 0.0198432 -0.834809 0.0318418 0.549617 0 
0.0865021 0.230741 0.0197301 -0.848031 0.0288633 0.52916 0 
0.0868145 0.230586 0.0199504 -0.836284 0.0205981 0.54791 0 
0.0866266 0.230694 0.0200652 -0.83389 0.0346876 0.550839 0 
0.0868628 0.230806 0.0201724 -0.831762 0.0347146 0.554045 0 
0.0864276 0.230742 0.0195193 -0.853473 0.0372274 0.519805 0 
0.0865503 0.230961 0.0199521 -0.8488 0.0287961 0.527929 0 
0.0867865 0.231073 0.0200594 -0.846017 0.0288884 0.532372 0 
0.0864995 0.231139 0.0198767 -0.85974 0.017601 0.510428 0 
0.0861825 0.231131 0.0192772 -0.862764 0.0203163 0.505198 0 
0.0863107 0.231704 0.0189521 -0.868038 0.0258102 0.495827 0 
0.0864005 0.231097 0.0195793 -0.862764 0.0203163 0.505198 0 
0.0865368 0.231301 0.019438 -0.858995 0.0315102 0.511013 0 
0.086276 0.231144 0.0192442 -0.862764 0.0203163 0.505198 0 
0.0859191 0.231373 0.01923 -0.862806 0.0314493 0.504557 0 
0.0858429 0.23164 0.0191169 -0.869869 0.0257839 0.492609 0 
0.0862243 0.231455 0.0192178 -0.864687 0.0314183 0.501327 0 
0.0872133 0.230681 0.0199052 -0.839173 0.0205344 0.543477 0 
0.0871879 0.23077 0.0198674 -0.836284 0.0205981 0.54791 0 
0.0867802 0.231177 0.0197778 -0.849116 0.034405 0.527085 0 
0.0872988 0.231063 0.0196885 -0.841263 0.0401922 0.539129 0 
0.0866049 0.231402 0.0193674 -0.863573 0.0286493 0.50341 0 
0.0864796 0.231582 0.0190811 -0.862728 0.034181 0.504511 0 
0.0866649 0.231873 0.019113 -0.867301 0.0285923 0.496962 0 
0.0868829 0.231839 0.0194151 -0.861614 0.0314059 0.506591 0 
0.0874088 0.231163 0.0206465 -0.807569 0.0493279 0.587707 0 
0.0874486 0.230926 0.0200613 -0.82841 0.0319153 0.559212 0 
0.0873606 0.230943 0.0204245 -0.80963 0.0349581 0.585898 0 
0.0872843 0.23121 0.0203114 -0.827377 0.0375448 0.560391 0 
0.0869046 0.23113 0.0201129 -0.844294 0.0345456 0.534766 0 
0.0873326 0.23143 0.0205335 -0.824426 0.0461903 0.564081 0 
0.0872081 0.231477 0.0201984 -0.838605 0.0460465 0.542791 0 
0.0871853 0.231168 0.0200141 -0.843123 0.0317378 0.536784 0 
0.0870874 0.231819 0.0202914 -0.860773 0.0067143 0.508944 0 
0.0868995 0.231926 0.0204061 -0.864221 0.0148306 0.502893 0 
0.087109 0.231435 0.019901 -0.858273 0.0204027 0.512788 0 
0.0870328 0.231702 0.0197879 -0.86648 0.0202764 0.4988 0 
0.086775 0.231973 0.020071 -0.86648 0.0202764 0.4988 0 
0.086049 0.23168 0.0188073 -0.876347 0.028444 0.48084 0 
0.0859982 0.231859 0.0187318 -0.875645 0.0312246 0.481944 0 
0.0856413 0.232088 0.0187176 -0.899295 0.0145261 0.437102 0 
0.0858483 0.231995 0.0183591 -0.905361 0.00653219 0.424592 0 
0.0857048 0.232027 0.0182677 -0.915334 0.00647337 0.402643 0 
0.0859347 0.232244 0.0180935 -0.925575 -0.0246647 0.377759 0 
0.0858584 0.232511 0.0179804 -0.947017 -0.0368637 0.319062 0 
0.0858076 0.232689 0.017905 -0.959071 -0.064785 0.275654 0 
0.0858694 0.232569 0.0186411 -0.922537 -0.0274021 0.384934 0 
0.0858178 0.23288 0.0186146 -0.939805 -0.0479624 0.33833 0 
0.0861758 0.233344 0.0192035 -0.930042 -0.037722 0.365513 0 
0.0863052 0.231675 0.0186218 -0.876712 0.0339811 0.479813 0 
0.0862788 0.231897 0.018633 -0.875645 0.0312246 0.481944 0 
0.0865405 0.23192 0.0187779 -0.873484 0.0257305 0.486172 0 
0.0860299 0.231991 0.0179628 -0.919802 -0.00385931 0.392363 0 
0.0864405 0.232011 0.0185294 -0.881516 0.0310488 0.471132 0 
0.0861781 0.23212 0.0184333 -0.895573 0.0199016 0.444469 0 
0.0864333 0.232248 0.0182967 -0.898706 0.0198536 0.438103 0 
0.0864042 0.231717 0.0189192 -0.868038 0.0258102 0.495827 0 
0.0866141 0.232051 0.0190376 -0.87162 0.0284666 0.489354 0 
0.0868067 0.232106 0.019302 -0.866191 0.0258361 0.499045 0 
0.0865125 0.232408 0.0188868 -0.886283 0.022794 0.462583 0 
0.0864499 0.232335 0.0192878 -0.873035 0.0229391 0.487118 0 
0.0863736 0.232602 0.0191747 -0.889764 0.0146299 0.456187 0 
0.0861273 0.232298 0.0183579 -0.914378 -0.00646661 0.40481 0 
0.0863825 0.232426 0.0182214 -0.918036 -0.00903832 0.396395 0 
0.0860765 0.232477 0.0182825 -0.925575 -0.0246647 0.377759 0 
0.0863063 0.232693 0.0181083 -0.940243 -0.0319811 0.338999 0 
0.086595 0.232362 0.0181932 -0.909201 0.00389102 0.416339 0 
0.0864934 0.232718 0.0180423 -0.939511 -0.0190699 0.341987 0 
0.0860002 0.232744 0.0181694 -0.945149 -0.0501508 0.322765 0 
0.0859494 0.232922 0.018094 -0.953793 -0.0520713 0.295917 0 
0.0862554 0.232871 0.0180328 -0.951264 -0.0496644 0.304353 0 
0.0863037 0.233091 0.0182549 -0.947359 -0.047432 0.316641 0 
0.0866043 0.232686 0.0189515 -0.895208 0.00394365 0.445632 0 
0.0862974 0.232869 0.0190616 -0.911547 -0.0277026 0.410262 0 
0.0862346 0.233122 0.0183744 -0.947226 -0.0554159 0.315742 0 
0.086222 0.233004 0.0188996 -0.920352 -0.0168753 0.390728 0 
0.0862211 0.233137 0.0189485 -0.932921 -0.0403355 0.357815 0 
0.0861458 0.233271 0.0187865 -0.944084 -0.0502309 0.325857 0 
0.0865997 0.232199 0.0196606 -0.866191 0.0258361 0.499045 0 
0.086747 0.232461 0.0201799 -0.864264 0.028582 0.502226 0 
0.0865235 0.232466 0.0195475 -0.873035 0.0229391 0.487118 0 
0.0864218 0.232822 0.0193967 -0.889867 0.00661119 0.456172 0 
0.0863202 0.233178 0.0192459 -0.917661 -0.0169214 0.397002 0 
0.0852431 0.23462 0.0167453 -0.977624 -0.0846375 0.192581 0 
0.0853057 0.234692 0.0163443 -0.973672 -0.062462 0.219229 0 
0.0854492 0.23466 0.0164356 -0.973709 -0.0779462 0.214043 0 
0.08566 0.234861 0.0165052 -0.973463 -0.0701484 0.217829 0 
0.0852494 0.234841 0.0159386 -0.972497 -0.0602432 0.22499 0 
0.085461 0.23491 0.0159593 -0.972497 -0.0602432 0.22499 0 
0.0855355 0.234909 0.01617 -0.973672 -0.062462 0.219229 0 
0.0855838 0.235129 0.016392 -0.973191 -0.0779048 0.216402 0 
0.0855528 0.235189 0.016024 -0.972537 -0.0832184 0.217361 0 
0.0854792 0.235058 0.0157643 -0.972534 -0.0780505 0.219285 0 
0.0854029 0.235325 0.0156512 -0.971733 -0.0835766 0.220792 0 
0.0854766 0.235456 0.0159109 -0.971535 -0.0808576 0.222669 0 
0.0858136 0.235345 0.0162178 -0.973802 -0.0880764 0.209647 0 
0.0858817 0.235447 0.0161471 -0.972537 -0.0832184 0.217361 0 
0.0858055 0.235714 0.016034 -0.971733 -0.0835766 0.220792 0 
0.085518 0.233153 0.017869 -0.971032 -0.0889591 0.221771 0 
0.08544 0.233685 0.0178536 -0.978215 -0.119958 0.169425 0 
0.0855475 0.234509 0.01787 -0.988154 -0.102467 0.114244 0 
0.085622 0.234507 0.0180808 -0.986212 -0.110904 0.122829 0 
0.0857935 0.233662 0.0191514 -0.951475 -0.06035 0.30175 0 
0.0858732 0.233189 0.0179809 -0.966898 -0.0844617 0.240779 0 
0.0861111 0.233036 0.0179904 -0.963953 -0.0772683 0.254605 0 
0.0860594 0.233347 0.0179639 -0.969081 -0.0787769 0.23383 0 
0.0857969 0.233456 0.0178678 -0.976543 -0.097778 0.191843 0 
0.085984 0.233482 0.0178019 -0.976543 -0.097778 0.191843 0 
0.0857715 0.233545 0.0178302 -0.978374 -0.104606 0.178445 0 
0.0860014 0.233762 0.0176559 -0.982744 -0.115403 0.144557 0 
0.0859214 0.233409 0.0182029 -0.965702 -0.0768029 0.248036 0 
0.0860696 0.233538 0.0186734 -0.955088 -0.0546855 0.291232 0 
0.0861449 0.233404 0.0188354 -0.947489 -0.0552809 0.314973 0 
0.0860687 0.233671 0.0187223 -0.957337 -0.0595958 0.282763 0 
0.0860822 0.233656 0.0181482 -0.972318 -0.0938531 0.213985 0 
0.0861804 0.233831 0.0184944 -0.966898 -0.0844617 0.240779 0 
0.0861042 0.234098 0.0183813 -0.973772 -0.101252 0.203755 0 
0.0861795 0.233964 0.0185433 -0.966898 -0.0844617 0.240779 0 
0.0856716 0.233636 0.0175816 -0.981588 -0.118278 0.149982 0 
0.0855708 0.23386 0.0173819 -0.984844 -0.113959 0.130753 0 
0.0859759 0.233851 0.0176182 -0.984064 -0.114426 0.136107 0 
0.0859323 0.233793 0.0177754 -0.980485 -0.116578 0.158301 0 
0.0861122 0.234054 0.0174769 -0.98552 -0.11376 0.125735 0 
0.0858506 0.234031 0.017332 -0.986976 -0.11493 0.11256 0 
0.0856817 0.234152 0.017203 -0.984933 -0.0945439 0.144808 0 
0.0857998 0.234209 0.0172566 -0.986197 -0.093754 0.136477 0 
0.0856563 0.234242 0.0171653 -0.982014 -0.0781284 0.171883 0 
0.0859369 0.23428 0.0170664 -0.982628 -0.0853936 0.164774 0 
0.086036 0.234322 0.0173638 -0.988759 -0.0996969 0.111426 0 
0.0859225 0.234427 0.0176894 -0.986642 -0.112793 0.117542 0 
0.086006 0.233924 0.0180351 -0.978374 -0.104606 0.178445 0 
0.0859297 0.234191 0.017922 -0.984384 -0.114463 0.133741 0 
0.0858662 0.234251 0.0183718 -0.974631 -0.0956007 0.202376 0 
0.0854077 0.234836 0.0182068 -0.986909 -0.122031 0.105444 0 
0.0851126 0.23527 0.0178404 -0.981287 -0.0658984 0.180921 0 
0.0853315 0.235103 0.0180937 -0.988525 -0.102019 0.1114 0 
0.0856054 0.23442 0.0170898 -0.983805 -0.090092 0.154958 0 
0.0857244 0.234343 0.0170946 -0.982909 -0.0828092 0.164418 0 
0.0856228 0.2347 0.0169438 -0.979207 -0.094131 0.179705 0 
0.0858607 0.234547 0.0169533 -0.980433 -0.103782 0.167272 0 
0.0860334 0.23472 0.0175103 -0.985881 -0.113526 0.123086 0 
0.0855737 0.234612 0.0167707 -0.978984 -0.0867764 0.184553 0 
0.0856274 0.234861 0.017323 -0.98087 -0.0885087 0.17338 0 
0.0853641 0.235103 0.0172758 -0.978597 -0.0816513 0.188895 0 
0.0857845 0.234814 0.0168402 -0.978984 -0.0867764 0.184553 0 
0.0858099 0.234725 0.0168779 -0.980469 -0.0913481 0.17417 0 
0.0858526 0.234916 0.0167695 -0.977557 -0.0897631 0.190593 0 
0.0860253 0.235089 0.0173266 -0.981956 -0.0908097 0.165879 0 
0.0859745 0.235267 0.0172513 -0.978671 -0.0894155 0.184955 0 
0.0858708 0.234738 0.0176629 -0.985898 -0.115918 0.120698 0 
0.0859 0.234943 0.0181286 -0.988302 -0.127788 0.0832378 0 
0.0858437 0.235092 0.0177228 -0.984465 -0.0799505 0.156321 0 
0.085514 0.234967 0.0176486 -0.98281 -0.0878153 0.162398 0 
0.0857184 0.235272 0.0174367 -0.98025 -0.0761477 0.182513 0 
0.0857565 0.235301 0.0169491 -0.975808 -0.0902838 0.199119 0 
0.0856176 0.235496 0.017237 -0.977116 -0.0975881 0.189 0 
0.0857285 0.235789 0.017058 -0.975808 -0.0902838 0.199119 0 
0.0854106 0.235589 0.0175955 -0.978231 -0.0972079 0.183341 0 
0.085615 0.235894 0.0173836 -0.975808 -0.0902838 0.199119 0 
0.0860171 0.235783 0.0160547 -0.792682 0.275784 0.543689 0 
0.0845194 0.236037 0.0155426 -0.934044 -0.0619183 0.351749 0 
0.0850207 0.235643 0.0155993 -0.953518 -0.0843247 0.289299 0 
0.0853068 0.23571 0.0158307 -0.966693 -0.095272 0.237545 0 
0.0854512 0.235545 0.0158732 -0.970008 -0.0865854 0.22713 0 
0.0854249 0.235767 0.0158844 -0.966693 -0.095272 0.237545 0 
0.0846638 0.235872 0.0155851 -0.947083 -0.0880091 0.308689 0 
0.0849444 0.23591 0.0154862 -0.934528 -0.0591473 0.350941 0 
0.0852306 0.235977 0.0157176 -0.954251 -0.0867501 0.286146 0 
0.0852052 0.236067 0.01568 -0.953565 -0.10072 0.283846 0 
0.0853233 0.236123 0.0157335 -0.953565 -0.10072 0.283846 0 
0.0852479 0.236257 0.0155716 -0.935001 -0.0563886 0.350134 0 
0.0856611 0.235879 0.0159916 -0.967368 -0.100423 0.232626 0 
0.0859417 0.235918 0.0158927 -0.708619 0.364947 0.603881 0 
0.0855849 0.236147 0.0158785 -0.918995 0.0490661 0.391203 0 
0.0858655 0.236185 0.0157796 -0.625446 0.413093 0.661945 0 
0.0855794 0.236117 0.0155481 -0.941442 -0.058596 0.332044 0 
0.0857893 0.236452 0.0156665 -0.597006 0.398555 0.696231 0 
0.084613 0.23605 0.0155096 -0.936741 -0.061576 0.344564 0 
0.0849182 0.236132 0.0154973 -0.936361 -0.0481855 0.347717 0 
0.0845368 0.236317 0.0153965 -0.929121 -0.0622948 0.364491 0 
0.084891 0.236486 0.0155574 -0.930216 -0.0511685 0.363427 0 
0.0851544 0.236245 0.0156045 -0.935001 -0.0563886 0.350134 0 
0.0850527 0.236601 0.0154538 -0.888422 0.0420475 0.457097 0 
0.0851717 0.236525 0.0154585 -0.915334 0.00647337 0.402643 0 
0.0847657 0.236666 0.0152711 -0.854755 0.110615 0.507107 0 
0.0850019 0.236779 0.0153784 -0.804279 0.187006 0.56406 0 
0.0847157 0.236712 0.0151469 -0.82524 0.133862 0.548689 0 
0.0849765 0.236868 0.0153406 -0.800432 0.186818 0.569568 0 
0.0850954 0.236792 0.0153454 -0.804279 0.187006 0.56406 0 
0.0850755 0.23691 0.015638 -0.723658 0.279559 0.631004 0 
0.0851463 0.236614 0.0154208 -0.812659 0.173387 0.556347 0 
0.0839858 0.237908 0.0147509 -0.764462 0.20849 0.610025 0 
0.0847267 0.237095 0.0147194 -0.774861 0.175067 0.607406 0 
0.0846276 0.237053 0.014422 -0.719106 0.237604 0.653017 0 
0.0848202 0.237108 0.0146864 -0.774861 0.175067 0.607406 0 
0.0845514 0.237321 0.0143089 -0.664243 0.280103 0.693054 0 
0.0849938 0.237148 0.0151946 -0.711632 0.255173 0.654574 0 
0.0848266 0.237004 0.0149679 -0.790481 0.158096 0.591731 0 
0.0849993 0.237177 0.015525 -0.713678 0.268623 0.64692 0 
0.0850166 0.237457 0.0153789 -0.712287 0.251117 0.65543 0 
0.0849066 0.237357 0.0144209 -0.726149 0.230548 0.647731 0 
0.085081 0.237264 0.0148802 -0.7379 0.219966 0.638058 0 
0.0851047 0.237441 0.0150156 -0.688657 0.262421 0.675934 0 
0.0850484 0.23759 0.0146099 -0.684125 0.269504 0.677746 0 
0.084082 0.237522 0.0145713 -0.709775 0.265173 0.652612 0 
0.0843626 0.237561 0.0144725 -0.703346 0.258793 0.662066 0 
0.0841674 0.237904 0.0143547 -0.748906 0.189149 0.635109 0 
0.0839803 0.237879 0.0144205 -0.756059 0.198639 0.623633 0 
0.0842101 0.238095 0.0142463 -0.756253 0.185612 0.627399 0 
0.0843236 0.23799 0.0139207 -0.802574 0.160515 0.574553 0 
0.0844244 0.237766 0.0141204 -0.690706 0.25131 0.678062 0 
0.0848811 0.237446 0.0143831 -0.662771 0.279482 0.694712 0 
0.0849239 0.237637 0.0142748 -0.653809 0.282944 0.701766 0 
0.0847986 0.237817 0.0139886 -0.586369 0.313266 0.747018 0 
0.0847223 0.238084 0.0138755 -0.757211 0.17521 0.629232 0 
0.0850093 0.238019 0.0140581 -0.632226 0.258278 0.730467 0 
0.0848928 0.235896 0.0165479 -0.966894 -0.0897379 0.23888 0 
0.0856213 0.236116 0.0165768 -0.867218 0.184672 0.462418 0 
0.085576 0.236323 0.0168318 -0.691833 0.376318 0.616241 0 
0.0854515 0.23637 0.0164967 -0.771227 0.294179 0.564506 0 
0.0853753 0.236637 0.0163836 -0.664593 0.365936 0.651465 0 
0.0856497 0.236454 0.0170915 -0.629226 0.43228 0.645917 0 
0.0860154 0.236049 0.0161524 -0.648873 0.413221 0.638915 0 
0.0859138 0.236405 0.0160016 -0.620631 0.427619 0.657236 0 
0.0859138 0.236405 0.0160016 -0.620631 0.427619 0.657236 0 
0.0854235 0.236857 0.0166056 -0.642249 0.41323 0.645568 0 
0.0858629 0.236583 0.0159262 -0.587835 0.431301 0.684419 0 
0.0851411 0.23741 0.015714 -0.656152 0.315925 0.685314 0 
0.0847897 0.237668 0.0160301 -0.706481 0.289962 0.645605 0 
0.0853019 0.237657 0.0156592 -0.566697 0.392581 0.724386 0 
0.0838558 0.237926 0.0140855 -0.802574 0.160515 0.574553 0 
0.0839667 0.238218 0.0139065 -0.866799 0.0397112 0.497074 0 
0.0841111 0.238053 0.0139489 -0.807575 0.141289 0.57259 0 
0.0843917 0.238091 0.0138501 -0.807575 0.141289 0.57259 0 
0.0841729 0.238258 0.0135968 -0.863136 0.0370504 0.50361 0 
0.0846724 0.23813 0.0137512 -0.820075 0.118407 0.559873 0 
0.0846181 0.238838 0.0138713 -0.873968 0.0120455 0.485835 0 
0.0848569 0.238553 0.0138319 -0.873725 0.0201939 0.486001 0 
0.0851849 0.238944 0.0140038 -0.385247 0.323853 0.86412 0 
0.0853094 0.238897 0.014339 -0.515568 0.291682 0.805674 0 
0.0849279 0.239082 0.0142381 -0.872216 0.00937867 0.489031 0 
0.0845173 0.239062 0.0136716 -0.799678 0.0853183 0.594336 0 
0.0848026 0.239262 0.0139519 -0.886083 0.00396162 0.46351 0 
0.0845202 0.239489 0.0141485 -0.877954 0.0147443 0.478518 0 
0.0845647 0.239415 0.0139424 -0.754315 0.126463 0.644218 0 
0.0843449 0.239715 0.013738 -0.555784 0.241307 0.795534 0 
0.0839572 0.240004 0.0133558 -0.887632 0.047576 0.458089 0 
0.0838809 0.240271 0.0132427 -0.888735 0.0337153 0.457179 0 
0.0841316 0.239911 0.0138151 -0.498744 0.265686 0.825025 0 
0.0840299 0.240267 0.0136643 -0.917628 0.0090598 0.397337 0 
0.0840282 0.240533 0.013762 -0.916683 -0.00905046 0.399513 0 
0.0838292 0.240582 0.0132161 -0.946675 -0.0607009 0.316419 0 
0.083753 0.240849 0.013103 -0.974764 -0.206319 0.0852456 0 
0.0839791 0.240445 0.0135889 -0.877993 0.0450603 0.476547 0 
0.0836713 0.240762 0.0137478 -0.957803 -0.107867 0.266417 0 
0.0837839 0.240789 0.0134711 -0.969937 -0.160161 0.183224 0 
0.0836831 0.241012 0.0132714 -0.968765 -0.247319 0.0180965 0 
0.083871 0.241231 0.0120685 -0.985881 -0.127557 0.108483 0 
0.0838121 0.241778 0.0118093 -0.972803 -0.171223 0.156004 0 
0.0836911 0.240969 0.012367 -0.981437 -0.187784 0.038974 0 
0.0838338 0.241069 0.0125071 -0.981437 -0.187784 0.038974 0 
0.0839701 0.241272 0.0123658 -0.981437 -0.187784 0.038974 0 
0.0838393 0.241098 0.0128375 -0.973381 -0.228822 0.0130416 0 
0.0839075 0.2412 0.0127668 -0.976318 -0.21631 -0.00350773 0 
0.0837821 0.24138 0.0124806 -0.97996 -0.198782 0.0127871 0 
0.0838558 0.241511 0.0127403 -0.977134 -0.212622 -0.00116187 0 
0.083893 0.241672 0.0123016 -0.984102 -0.176515 0.0196128 0 
0.0838938 0.24154 0.0122527 -0.984594 -0.174557 -0.0102681 0 
0.0840894 0.242021 0.0129941 -0.963546 -0.234726 -0.128386 0 
0.0837796 0.241778 0.0126272 -0.97404 -0.216862 -0.064936 0 
0.0838904 0.24207 0.0124482 -0.970077 -0.238543 0.0452621 0 
0.0838176 0.241807 0.0121396 -0.977686 -0.158173 0.138246 0 
0.0838422 0.24185 0.0122262 -0.978343 -0.142597 0.150037 0 
0.0838142 0.242338 0.0123351 -0.959629 -0.27436 0.0619523 0 
0.0837414 0.242074 0.0120265 -0.96884 -0.220249 0.113307 0 
0.0837405 0.242207 0.0120754 -0.965373 -0.244832 0.0900677 0 
0.0837088 0.242074 0.0128444 -0.957723 -0.2581 -0.127085 0 
0.0835072 0.242846 0.0113569 -0.956457 -0.266338 0.119393 0 
0.0832303 0.243428 0.0107956 0.959106 0.254457 -0.123966 0 
0.0835889 0.242608 0.0118004 -0.94687 -0.31476 0.0660607 0 
0.0834238 0.243025 0.0120994 -0.937289 -0.34681 0.0348099 0 
0.0836372 0.242828 0.0120223 -0.944762 -0.320985 0.0662763 0 
0.0833738 0.24307 0.0119751 -0.935185 -0.350857 0.0482592 0 
0.0835127 0.242876 0.0116873 -0.941672 -0.328734 0.0720333 0 
0.0835999 0.242667 0.012461 -0.945149 -0.322765 0.0501508 0 
0.0838861 0.242734 0.0126925 -0.952034 -0.30579 0.0111421 0 
0.0838099 0.243001 0.0125794 -0.940612 -0.338212 0.0293542 0 
0.0836473 0.243019 0.0127319 -0.937611 -0.346647 0.026862 0 
0.0836202 0.243374 0.0127919 -0.927881 -0.370367 0.0431877 0 
0.0834365 0.243143 0.0115742 -0.940557 -0.331884 0.0721487 0 
0.0827785 0.244085 0.013712 -0.897076 -0.438359 -0.0556431 0 
0.0826769 0.244441 0.0135612 -0.909551 -0.40773 -0.080455 0 
0.0825635 0.244546 0.0138868 -0.910965 -0.353703 -0.212222 0 
0.0832705 0.243367 0.0130102 -0.925898 -0.37586 0.0379788 0 
0.0831807 0.243648 0.0134713 -0.925037 -0.370284 -0.0848287 0 
0.0827476 0.244144 0.013344 -0.870479 -0.485162 0.0829697 0 
0.0822376 0.243582 0.0107683 0.965914 0.201503 -0.162502 0 
0.0824273 0.24321 0.0105558 0.959556 0.213088 -0.18397 0 
0.0819298 0.243899 0.0109272 0.972703 0.176279 -0.150915 0 
0.0827769 0.243217 0.0103374 0.963692 0.190116 -0.187494 0 
0.0829132 0.243421 0.0101961 0.966652 0.135151 -0.217529 0 
0.0826516 0.243397 0.0100512 0.969075 0.152742 -0.193815 0 
0.0826245 0.243751 0.0101112 0.978215 0.119958 -0.169425 0 
0.0825245 0.243842 0.00986271 0.97972 0.119238 -0.161033 0 
0.0830922 0.243815 0.00994649 0.978602 0.10983 -0.174001 0 
0.0832675 0.24359 0.010357 0.96694 0.154037 -0.203226 0 
0.0829868 0.243552 0.0104558 0.965294 0.1598 -0.20657 0 
0.0830605 0.243683 0.0107155 0.96471 0.207003 -0.162738 0 
0.0827226 0.243926 0.0104575 0.972086 0.125145 -0.198462 0 
0.0826473 0.244061 0.0102955 0.977506 0.127933 -0.167679 0 
0.0826718 0.244104 0.0103821 0.973587 0.111518 -0.199228 0 
0.0831659 0.243946 0.0102061 0.97303 0.0884573 -0.213045 0 
0.0832086 0.244137 0.0100978 0.97972 0.119238 -0.161033 0 
0.0830524 0.244052 0.0105317 0.969214 0.131527 -0.208145 0 
0.082066 0.244102 0.0107859 0.974219 0.189816 -0.121934 0 
0.0824238 0.244066 0.00966307 0.979423 0.104194 -0.172839 0 
0.0823983 0.244155 0.00962534 0.979264 0.112092 -0.168754 0 
0.0828398 0.24444 0.00947175 0.981675 0.125918 -0.143034 0 
0.0824775 0.244315 0.0102154 0.976596 0.11321 -0.182878 0 
0.0826447 0.244459 0.0104421 0.979799 0.124478 -0.156521 0 
0.082709 0.244266 0.00994335 0.976543 0.097778 -0.191843 0 
0.0830833 0.244317 0.00981159 0.976543 0.097778 -0.191843 0 
0.0831323 0.244404 0.00998473 0.977643 0.102326 -0.183693 0 
0.0830016 0.24423 0.0104563 0.974046 0.119399 -0.192296 0 
0.0831124 0.244522 0.0102773 0.980356 0.111376 -0.162781 0 
0.0824521 0.244404 0.0101777 0.976543 0.097778 -0.191843 0 
0.0824948 0.244595 0.0100693 0.975837 0.0952338 -0.196652 0 
0.0829626 0.244659 0.00990456 0.981413 0.113381 -0.154832 0 
0.0830362 0.24479 0.0101643 0.976785 0.0721281 -0.201714 0 
0.0824957 0.244137 0.0111087 0.952605 0.299682 -0.0522849 0 
0.0830579 0.244081 0.0108621 0.962722 0.246158 -0.112124 0 
0.0829816 0.244348 0.010749 0.970411 0.185388 -0.154703 0 
