0.0890585 0.246067 0.0100646 -0.140451 -0.320447 0.936796 2 
0.088768 0.246112 0.00994812 -0.0377636 -0.577644 0.815415 2 
0.0885645 0.2462 0.0102324 -0.0489866 -0.555648 0.829973 2 
0.0886468 0.24621 0.0102883 -0.138467 -0.376238 0.916118 2 
0.0902283 0.245556 0.0100405 -0.290628 0.344283 0.892751 2 
0.0900541 0.24566 0.00974263 -0.400988 0.294261 0.867536 2 
0.0897586 0.245863 0.00978489 -0.328906 0.106055 0.938389 2 
0.0901995 0.245927 0.0094825 -0.31336 0.30742 0.898498 2 
0.0900686 0.246149 0.00963672 -0.261413 0.19298 0.945739 2 
0.089669 0.245993 0.0097153 -0.250103 0.0455852 0.967146 2 
0.0898578 0.246377 0.00990734 -0.101712 0.0480619 0.993652 2 
0.0895988 0.245686 0.00951426 -0.390178 0.00643858 0.920717 2 
0.0893519 0.245657 0.00934644 -0.521292 0.256756 0.813838 2 
0.0893372 0.246129 0.00982265 -0.148291 -0.265856 0.952539 2 
0.0895694 0.24663 0.0104667 0.0395506 -0.127692 0.991025 2 
0.0894871 0.246621 0.0104108 -0.0140181 -0.0959701 0.995286 2 
0.0895382 0.246215 0.0098695 -0.171249 -0.0531461 0.983793 2 
0.0896397 0.246747 0.0101643 0.00514272 -0.0503986 0.998716 2 
0.0892983 0.246237 0.0102187 -0.0762908 -0.233875 0.969269 2 
0.0889641 0.246355 0.0101538 -0.164113 -0.21663 0.962361 2 
0.0889204 0.246429 0.0102051 -0.152871 -0.25124 0.955777 2 
0.0891529 0.246739 0.0103457 -0.110245 -0.0893561 0.98988 2 
0.0886735 0.2464 0.0100373 -0.152301 -0.359094 0.920791 2 
0.0889134 0.246379 0.00968798 -0.0343279 -0.512172 0.858197 2 
0.0888916 0.2468 0.00964713 -0.290241 -0.03895 0.956161 2 
0.0897629 0.247048 0.0110034 0.764462 -0.610025 0.20849 2 
0.0899955 0.247167 0.0106405 0.205413 -0.0799512 0.975404 2 
0.0899154 0.247365 0.0112604 -0.0860655 0.175768 0.980662 2 
0.0895012 0.247491 0.0113118 0.164156 -0.0264026 0.986081 2 
0.0881599 0.246202 0.0104697 0.120441 -0.652763 0.747927 2 
0.088666 0.246732 0.0105271 -0.0852319 -0.255696 0.962993 2 
0.0885159 0.246431 0.0104425 -0.0779711 -0.41995 0.904192 2 
0.0883487 0.246586 0.0106617 0.0207884 -0.600092 0.799661 2 
0.0885448 0.24683 0.0108673 -0.103385 -0.236127 0.966207 2 
0.0886658 0.246923 0.0110306 -0.0347968 -0.21718 0.975511 2 
0.0882155 0.246791 0.0106435 0.0407518 -0.591603 0.805199 2 
0.0889881 0.246911 0.0107373 -0.039872 -0.135565 0.989966 2 
0.0904608 0.246636 0.0100479 -0.185865 0.284992 0.940337 2 
0.0905118 0.24623 0.00950664 -0.180527 0.259254 0.948787 2 
0.0902722 0.246061 0.00935242 -0.247509 0.228151 0.94164 2 
0.0900252 0.246032 0.00918458 -0.472751 0.433491 0.767198 2 
0.09018 0.246366 0.00961401 -0.0963511 0.100994 0.99021 2 
0.0899331 0.246337 0.00944614 -0.182889 0.0585724 0.981387 2 
0.0900032 0.246644 0.00964721 -0.101712 0.0480619 0.993652 2 
0.0903981 0.246766 0.0092238 0.100542 -0.0621325 0.992991 2 
0.0902089 0.246764 0.0100388 0.0175617 0.0423546 0.998948 2 
0.0898796 0.246725 0.00981501 -0.0258313 -0.0320308 0.999153 2 
0.0900638 0.247076 0.00966224 0.116959 -0.0775869 0.990101 2 
0.0898168 0.247047 0.00949441 -0.156586 0.105605 0.982002 2 
0.0894221 0.246734 0.00941432 -0.3835 0.208519 0.899693 2 
0.0894608 0.246817 0.00952165 -0.293286 0.159602 0.942608 2 
0.0888797 0.246907 0.00928873 -0.496423 0.275445 0.823222 2 
0.0894294 0.247363 0.00929476 -0.293961 0.199225 0.934824 2 
0.0889887 0.247107 0.00909367 -0.531599 0.375533 0.759195 2 
0.0902793 0.24765 0.00960323 0.435498 -0.209574 0.875454 2 
0.0898072 0.24794 0.00917529 0.788367 -0.575462 -0.217534 2 
0.0903152 0.24733 0.0106783 0.291258 -0.0927324 0.952139 2 
0.0899303 0.247472 0.0101476 0.289522 -0.141395 0.94667 2 
0.0898091 0.247569 0.0104878 0.259786 -0.135827 0.956066 2 
0.0894243 0.247711 0.009957 0.764878 -0.635686 0.104235 2 
0.0892547 0.24785 0.0100038 0.758898 -0.636157 0.139206 2 
0.088884 0.248093 0.0105072 0.618548 -0.497198 0.608435 2 
0.088804 0.2481 0.0106237 0.522088 -0.397703 0.754491 2 
0.0893272 0.248174 0.0103773 0.489683 -0.292558 0.821353 2 
0.0897636 0.248014 0.00922664 0.80645 -0.570051 -0.157101 2 
0.0894076 0.247785 0.0092539 0.675085 -0.547774 0.494169 2 
0.088996 0.247736 0.00897415 -0.702104 0.62717 0.337206 2 
0.0897418 0.248436 0.00918578 0.819539 -0.515891 0.249425 2 
0.0881507 0.245174 0.00940995 0.230818 -0.918973 0.319705 2 
0.088601 0.245306 0.00979699 0.108698 -0.83045 0.546387 2 
0.0886375 0.245182 0.00922853 0.15583 -0.919535 0.360795 2 
0.0882621 0.245391 0.00938727 0.22567 -0.892355 0.390866 2 
0.0881359 0.245646 0.00988616 0.194996 -0.826844 0.527547 2 
0.0882085 0.245971 0.0102596 0.123848 -0.723688 0.678924 2 
0.0880051 0.245868 0.0100404 0.184012 -0.798397 0.573325 2 
0.0885792 0.245728 0.00975615 0.0890319 -0.737068 0.669929 2 
0.0884483 0.245949 0.00991035 0.101276 -0.752965 0.650221 2 
0.0881529 0.246152 0.00995263 0.174367 -0.79299 0.58375 2 
0.0881141 0.246068 0.0098453 0.186948 -0.797947 0.573002 2 
0.0876226 0.246027 0.00968195 0.217597 -0.832347 0.509755 2 
0.0877316 0.246227 0.00948688 0.249026 -0.818228 0.518159 2 
0.0877731 0.245945 0.00875966 0.281614 -0.869197 0.406437 2 
0.0882619 0.246352 0.00975758 0.168443 -0.763304 0.623694 2 
0.0883346 0.246485 0.00962751 0.14635 -0.734766 0.662345 2 
0.0881795 0.246342 0.00970158 0.175321 -0.766837 0.617433 2 
0.088623 0.246232 0.00906812 0.14878 -0.764941 0.626681 2 
0.0884125 0.24627 0.00883523 0.203332 -0.808741 0.551901 2 
0.08848 0.246752 0.00936739 0.14635 -0.734766 0.662345 2 
0.0877682 0.246103 0.00891839 0.256678 -0.87811 0.403781 2 
0.0879715 0.246205 0.00913762 0.222283 -0.817082 0.531946 2 
0.0876132 0.245959 0.00899251 0.254143 -0.859824 0.442847 2 
0.0878772 0.246303 0.0087233 0.291114 -0.867246 0.403902 2 
0.0877877 0.246434 0.00865373 0.304043 -0.869349 0.389603 2 
0.0878257 0.246321 0.0104047 0.172924 -0.711589 0.680983 2 
0.0877725 0.246518 0.0102701 0.192735 -0.738562 0.646049 2 
0.0884851 0.246403 0.0087052 0.203144 -0.804939 0.5575 2 
0.0887321 0.246432 0.00887302 0.211021 -0.784014 0.583774 2 
0.0887539 0.24678 0.00878073 -0.406432 0.203949 0.890628 2 
0.0886327 0.246878 0.00912094 -0.518523 0.356989 0.776977 2 
0.0883761 0.246973 0.00876708 -0.429141 0.17602 0.885921 2 
0.0887032 0.246804 0.00831503 0.522731 -0.852011 0.028812 2 
0.0887417 0.247078 0.00892586 -0.55347 0.352208 0.754732 2 
0.0880736 0.246355 0.00842541 0.322855 -0.887476 0.328862 2 
0.0881826 0.246555 0.00823039 0.383957 -0.875664 0.2929 2 
0.0877394 0.246474 0.00836039 0.387394 -0.883975 0.261752 2 
0.0881366 0.246612 0.00810938 0.410367 -0.870706 0.271054 2 
0.0888072 0.247352 0.00878216 -0.606043 0.481813 0.632904 2 
0.0880666 0.247074 0.00777514 0.695874 -0.718098 -0.00972279 2 
0.0878897 0.246583 0.00794156 0.501413 -0.841712 0.200264 2 
0.0886229 0.247963 0.00930522 -0.695278 0.585759 0.416503 2 
0.0896621 0.248252 0.00879869 0.805815 -0.572592 -0.150997 2 
0.0868186 0.226075 0.0339772 -0.0120579 0.872191 -0.489017 1 
0.0865328 0.226154 0.0342055 0.16376 0.857157 -0.488329 1 
0.0872094 0.228669 0.0377795 0.510309 0.753157 -0.415139 1 
0.0870866 0.227216 0.0360667 0.217088 0.795989 -0.565044 1 
0.0874111 0.227221 0.0359457 0.210379 0.803127 -0.557429 1 
0.0872879 0.22692 0.0351066 0.156513 0.81834 -0.553013 1 
0.087041 0.226891 0.0349387 0.108959 0.823729 -0.556416 1 
0.0864019 0.226375 0.0343597 0.157382 0.857513 -0.489798 1 
0.0862225 0.226828 0.034724 0.193074 0.813341 -0.548815 1 
0.0862223 0.227019 0.0352275 0.20349 0.806309 -0.555389 1 
0.0857042 0.226597 0.0348117 0.213342 0.808858 -0.547936 1 
0.0870327 0.227987 0.0374425 0.413715 0.780381 -0.468877 1 
0.0862919 0.2279 0.036939 0.382761 0.763893 -0.519578 1 
0.0859574 0.22821 0.0373774 0.405138 0.776109 -0.483237 1 
0.0874276 0.228109 0.0370191 0.455521 0.754817 -0.471966 1 
0.0866288 0.227416 0.0361694 0.355443 0.757954 -0.54696 1 
0.0868948 0.228158 0.0370796 0.410799 0.777758 -0.475748 1 
0.0870546 0.228335 0.0373502 0.413715 0.780381 -0.468877 1 
0.0865534 0.228418 0.0370009 0.391726 0.791512 -0.469104 1 
0.0863137 0.228248 0.0368467 0.387561 0.779986 -0.491343 1 
0.0863066 0.227428 0.0364628 0.333946 0.763075 -0.55335 1 
0.085728 0.227343 0.0358988 0.341768 0.753186 -0.562055 1 
0.0859239 0.227778 0.0366078 0.375533 0.759195 -0.531599 1 
0.0849795 0.227779 0.0363885 0.377748 0.744049 -0.551087 1 
0.0863819 0.227387 0.0360016 0.351347 0.756124 -0.552116 1 
0.0864157 0.227628 0.0362677 0.354812 0.756608 -0.549229 1 
0.0861638 0.227756 0.0362586 0.354812 0.756608 -0.549229 1 
0.0858733 0.228571 0.036009 0.358515 0.754342 -0.54994 1 
0.0861137 0.227207 0.0342824 0.240148 0.804108 -0.543819 1 
0.0870033 0.228932 0.0383949 0.509049 0.754572 -0.414114 1 
0.086567 0.228901 0.0390421 0.451189 0.82849 -0.331711 1 
0.0868893 0.228889 0.0387487 0.441287 0.814071 -0.377563 1 
0.0864679 0.229155 0.0387865 0.465346 0.804362 -0.369399 1 
0.0863926 0.229196 0.0392476 0.451189 0.82849 -0.331711 1 
0.0864101 0.228359 0.0379369 0.387194 0.782489 -0.487638 1 
0.086313 0.228821 0.0383571 0.384273 0.795879 -0.46788 1 
0.0869307 0.228607 0.0380215 0.441875 0.771244 -0.458181 1 
0.0865675 0.228519 0.0380351 0.418674 0.770556 -0.480579 1 
0.0864368 0.228549 0.0376858 0.387194 0.782489 -0.487638 1 
0.0862624 0.228845 0.0378914 0.394404 0.774201 -0.495034 1 
0.0859793 0.228558 0.0372851 0.405138 0.776109 -0.483237 1 
0.0859427 0.228682 0.0378536 0.408492 0.776298 -0.4801 1 
0.0860518 0.228882 0.0376585 0.408492 0.776298 -0.4801 1 
0.0856475 0.228693 0.0373924 0.404117 0.777398 -0.482019 1 
0.0864221 0.229021 0.038162 0.39213 0.789101 -0.472815 1 
0.0863862 0.228573 0.0372201 0.405138 0.776109 -0.483237 1 
0.0862554 0.228794 0.0373743 0.404117 0.777398 -0.482019 1 
0.0864225 0.228639 0.0371551 0.405138 0.776109 -0.483237 1 
0.0861247 0.228825 0.037025 0.405138 0.776109 -0.483237 1 
0.0859962 0.229063 0.0373516 0.404117 0.777398 -0.482019 1 
0.0857929 0.22896 0.0371323 0.404117 0.777398 -0.482019 1 
0.0860373 0.229163 0.0376313 0.408492 0.776298 -0.4801 1 
0.0855869 0.228262 0.0373774 0.405138 0.776109 -0.483237 1 
0.084616 0.228651 0.0367725 0.424222 0.724644 -0.543071 1 
0.0845337 0.228641 0.0367165 0.424222 0.724644 -0.543071 1 
0.0840468 0.228634 0.0368979 0.429447 0.71464 -0.552146 1 
0.0853983 0.228456 0.0365487 0.387373 0.753498 -0.531208 1 
0.0855797 0.229172 0.0372306 0.408492 0.776298 -0.4801 1 
0.0850302 0.229295 0.0365879 0.398147 0.742225 -0.539055 1 
0.0854997 0.229179 0.037347 0.408492 0.776298 -0.4801 1 
0.0853691 0.22921 0.0369977 0.408492 0.776298 -0.4801 1 
0.0852019 0.229365 0.0372169 0.408492 0.776298 -0.4801 1 
0.0850495 0.229047 0.0369599 0.408492 0.776298 -0.4801 1 
0.0846379 0.228999 0.0366802 0.424222 0.724644 -0.543071 1 
0.0860512 0.229455 0.039169 0.453175 0.83265 -0.31832 1 
0.0854337 0.229479 0.0390011 0.338777 0.869171 -0.360238 1 
0.0857145 0.2259 0.0334873 0.188867 0.826481 -0.530338 1 
0.0841021 0.225756 0.0321309 -0.565786 -0.629964 0.532007 1 
0.0826929 0.225906 0.0314974 -0.714616 -0.410945 0.566081 1 
0.0852973 0.226582 0.0348767 0.213169 0.81127 -0.544425 1 
0.0857068 0.226422 0.0344806 0.192085 0.827328 -0.527856 1 
0.0842393 0.226158 0.0340043 -0.445221 -0.750797 0.487936 1 
0.0836631 0.22609 0.0336127 -0.66934 -0.4781 0.568687 1 
0.0838543 0.226491 0.033977 -0.548596 -0.568852 0.61274 1 
0.0839903 0.225921 0.0331606 -0.537422 -0.638504 0.550899 1 
0.0839755 0.226393 0.0336368 -0.4788 -0.695678 0.535522 1 
0.0843343 0.226257 0.032775 -0.509847 -0.661287 0.550231 1 
0.0839634 0.226691 0.0337819 -0.548171 -0.554918 0.625759 1 
0.0841789 0.227266 0.0337229 -0.534897 -0.609142 0.585518 1 
0.0859257 0.225289 0.0322097 -0.821648 -0.0967494 -0.561724 1 
0.0829911 0.225339 0.0306205 -0.547201 -0.516894 0.658325 1 
0.0830489 0.226135 0.0314701 -0.741084 -0.402584 0.537327 1 
0.0824822 0.225944 0.0312645 -0.500086 -0.574173 0.648259 1 
0.0829768 0.225429 0.0300897 -0.680931 -0.486857 0.547087 1 
0.083765 0.227201 0.0332708 -0.667434 -0.421099 0.614172 1 
0.0834118 0.227376 0.0323303 -0.770799 -0.322101 0.549655 1 
0.0829102 0.22784 0.0329879 -0.787542 -0.296319 0.540346 1 
0.0827363 0.226793 0.0318162 -0.76559 -0.351232 0.538988 1 
0.0825064 0.226309 0.0313445 -0.632695 -0.10129 0.767748 1 
0.082521 0.226797 0.0312386 -0.680136 -0.127058 0.721991 1 
0.0824242 0.227069 0.0311554 -0.381927 0.472171 0.794472 1 
0.0827216 0.227265 0.0322925 -0.771866 -0.305231 0.557725 1 
0.0830244 0.227692 0.0321306 -0.78261 -0.258779 0.566176 1 
0.0841707 0.229131 0.0360935 0.373661 0.623866 -0.686417 1 
0.084018 0.229005 0.0363399 0.38425 0.608534 -0.69429 1 
0.0917247 0.230451 0.0170647 0.450684 0.553793 -0.700141 1 
0.0918701 0.230718 0.0168046 0.464233 0.493971 -0.735174 1 
0.0915992 0.230133 0.0160532 0.559451 0.54593 -0.623678 1 
0.0912602 0.229448 0.0157765 0.552306 0.592842 -0.586086 1 
0.0911271 0.229653 0.0157584 0.552306 0.592842 -0.586086 1 
0.0908316 0.229855 0.0158007 0.565798 0.562421 -0.602955 1 
0.0914459 0.231349 0.0176769 0.409482 0.628315 -0.661471 1 
0.0899208 0.231058 0.0162178 0.496184 0.566827 -0.657654 1 
0.0899933 0.231383 0.0165912 0.511355 0.595738 -0.619365 1 
0.0899884 0.23154 0.0167499 0.517576 0.645705 -0.561409 1 
0.0902392 0.232367 0.0192765 0.121438 0.875783 -0.46718 1 
0.090639 0.232331 0.0186943 0.169049 0.830285 -0.531083 1 
0.0900886 0.22956 0.0146213 0.605654 0.64592 -0.464727 1 
0.0899092 0.230013 0.0149856 0.532372 0.616875 -0.579694 1 
0.0902722 0.230293 0.0154755 0.517346 0.618456 -0.591494 1 
0.0896885 0.230557 0.0155737 0.511414 0.612684 -0.602557 1 
0.0909744 0.230296 0.0158717 0.52542 0.58624 -0.61665 1 
0.0917438 0.231934 0.0176738 0.258757 0.706421 -0.658797 1 
0.090945 0.231241 0.0168241 0.484985 0.585674 -0.649443 1 
0.0910177 0.231374 0.0166941 0.484985 0.585674 -0.649443 1 
0.0908894 0.231422 0.0165172 0.507789 0.595514 -0.622506 1 
0.0905672 0.231433 0.0168105 0.503813 0.641983 -0.577953 1 
0.090393 0.231538 0.0165126 0.510356 0.601311 -0.614786 1 
0.0905236 0.232277 0.0167287 0.467257 0.674926 -0.571092 1 
0.0895161 0.232021 0.0168254 0.460861 0.713753 -0.527412 1 
0.0910612 0.233031 0.0168798 0.410417 0.633073 -0.656335 1 
0.090074 0.229842 0.014594 0.587421 0.58065 -0.563721 1 
0.0900886 0.23033 0.0144881 0.563721 0.587421 -0.58065 1 
0.0894633 0.231067 0.0158171 0.511414 0.612684 -0.602557 1 
0.0894198 0.23095 0.015365 0.511414 0.612684 -0.602557 1 
0.0895289 0.23115 0.0151699 0.511414 0.612684 -0.602557 1 
0.0895219 0.231099 0.0146528 0.511414 0.612684 -0.602557 1 
0.0892595 0.232116 0.0164716 0.47931 0.623944 -0.617217 1 
0.0888817 0.232308 0.016458 0.383119 0.580433 -0.718553 1 
0.0887656 0.232058 0.016136 0.383119 0.580433 -0.718553 1 
0.097598 0.232497 0.021832 0.119998 0.851552 -0.510353 1 
0.0973452 0.230501 0.0182594 -0.821648 -0.0967494 -0.561724 1 
0.0968149 0.230377 0.0179887 -0.821648 -0.0967494 -0.561724 1 
0.0972841 0.231413 0.0196216 0.229621 0.81523 -0.531672 1 
0.0971997 0.231195 0.0188898 0.163484 0.808421 -0.565445 1 
0.0971485 0.231601 0.0194311 0.229621 0.81523 -0.531672 1 
0.0977052 0.232298 0.0204576 0.181131 0.870313 -0.457982 1 
0.0974678 0.232145 0.0204758 0.181131 0.870313 -0.457982 1 
0.0972331 0.231818 0.0201628 0.229621 0.81523 -0.531672 1 
0.0970537 0.232271 0.0205272 0.181131 0.870313 -0.457982 1 
0.097337 0.232367 0.0206299 0.181131 0.870313 -0.457982 1 
0.0972253 0.232341 0.0211562 0.181131 0.870313 -0.457982 1 
0.0973708 0.232608 0.020896 0.181131 0.870313 -0.457982 1 
0.096855 0.232202 0.0206527 0.207483 0.864265 -0.458254 1 
0.0966829 0.232514 0.0210306 0.221441 0.860155 -0.459453 1 
0.096436 0.232485 0.0208628 0.29365 0.840554 -0.455235 1 
0.096746 0.232771 0.0207146 0.221441 0.860155 -0.459453 1 
0.0975307 0.232594 0.0206632 0.181131 0.870313 -0.457982 1 
0.0965379 0.231865 0.0202837 0.234042 0.833677 -0.500206 1 
0.0965961 0.23228 0.0201265 0.234042 0.833677 -0.500206 1 
0.0960656 0.232346 0.0203593 0.305559 0.828927 -0.468524 1 
0.0965499 0.232528 0.020509 0.29365 0.840554 -0.455235 1 
0.0956224 0.232265 0.0204893 0.305448 0.825493 -0.474619 1 
0.0962551 0.232157 0.0190408 0.286122 0.78565 -0.548532 1 
0.0939804 0.233257 0.0205889 0.286224 0.818008 -0.498938 1 
0.0937849 0.23244 0.0188729 0.315145 0.693319 -0.648068 1 
0.0943295 0.232475 0.0196742 0.332868 0.703082 -0.62839 1 
0.0939081 0.232741 0.019712 0.269416 0.786191 -0.556163 1 
0.0941112 0.233035 0.0204347 0.309337 0.801104 -0.512389 1 
0.093937 0.233139 0.0201368 0.268379 0.798859 -0.538328 1 
0.0939733 0.233206 0.0200717 0.267699 0.806229 -0.527571 1 
0.0936753 0.233583 0.0204452 0.206743 0.846591 -0.490449 1 
0.0940824 0.233406 0.0198767 0.281847 0.795155 -0.536927 1 
0.0937383 0.23307 0.0202623 0.218816 0.818649 -0.530974 1 
0.0938474 0.23327 0.0200672 0.244052 0.797443 -0.551837 1 
0.0933535 0.233212 0.0197316 0.219459 0.846051 -0.485836 1 
0.0936731 0.233375 0.0197693 0.269105 0.81976 -0.505545 1 
0.0936246 0.233606 0.0199795 0.219459 0.846051 -0.485836 1 
0.0932904 0.233725 0.0199145 0.166809 0.854712 -0.49157 1 
0.0931381 0.232447 0.0192871 0.15578 0.757726 -0.633707 1 
0.0925572 0.232345 0.0185508 0.254822 0.688495 -0.678999 1 
0.0925861 0.232744 0.0189756 0.140747 0.813367 -0.564468 1 
0.0921067 0.232404 0.0186671 0.125599 0.793488 -0.595485 1 
0.0931961 0.233052 0.0196333 0.201947 0.827527 -0.523848 1 
0.0929855 0.23309 0.0194004 0.128234 0.8092 -0.573368 1 
0.0933319 0.233443 0.0191872 0.193669 0.80365 -0.562707 1 
0.0934478 0.233885 0.0200127 0.177282 0.844698 -0.505031 1 
0.0860296 0.243905 0.00846049 0.350617 -0.725697 0.591973 1 
0.0863785 0.244084 0.00791617 0.321424 -0.872872 0.367124 1 
0.0850941 0.244356 0.00993766 0.216467 -0.664974 0.714808 1 
0.0857771 0.244607 0.00996181 0.25443 -0.643187 0.722202 1 
0.0858932 0.244858 0.0102839 0.234267 -0.665066 0.709089 1 
0.0860533 0.244652 0.00954752 0.262408 -0.672719 0.691803 1 
0.0860895 0.24491 0.00998597 0.234371 -0.681091 0.693675 1 
0.0860023 0.245058 0.0100888 0.230835 -0.67052 0.705066 1 
0.0861258 0.244977 0.00992097 0.248345 -0.678598 0.691252 1 
0.0856319 0.244919 0.00958531 0.272968 -0.662467 0.697586 1 
0.085179 0.244961 0.00952929 0.244802 -0.67123 0.699659 1 
0.0853849 0.24489 0.00941744 0.283101 -0.673364 0.682961 1 
0.0871579 0.244446 0.00903049 0.332687 -0.800676 0.498234 1 
0.0860585 0.244304 0.00888529 0.337027 -0.708245 0.620325 1 
0.0861335 0.244454 0.00892761 0.326404 -0.703149 0.631697 1 
0.0858552 0.24497 0.0085329 0.384104 -0.64457 0.661055 1 
0.0861624 0.244852 0.00935245 0.275919 -0.696975 0.661887 1 
0.0859515 0.245081 0.00962308 0.265885 -0.698943 0.663916 1 
0.0865233 0.244924 0.00916648 0.314738 -0.73116 0.605265 1 
0.0856223 0.245042 0.00939931 0.2938 -0.6759 0.6759 1 
0.0859713 0.245221 0.00885493 0.352195 -0.663436 0.66016 1 
0.08585 0.245319 0.0091951 0.315806 -0.694773 0.646187 1 
0.0857769 0.244798 0.0104653 0.243777 -0.636966 0.731332 1 
0.0855349 0.245381 0.0100055 0.25443 -0.643187 0.722202 1 
0.0851669 0.245259 0.00967443 0.250959 -0.645548 0.721309 1 
0.085283 0.24551 0.00999644 0.257681 -0.630765 0.73194 1 
0.0844254 0.245745 0.0106814 0.166683 -0.56312 0.809391 1 
0.0857237 0.245765 0.0101976 0.237313 -0.674219 0.699365 1 
0.0855229 0.245488 0.00964718 0.283536 -0.651973 0.703234 1 
0.0851087 0.245614 0.00969854 0.261311 -0.635064 0.726919 1 
0.0851451 0.245681 0.00963353 0.261311 -0.635064 0.726919 1 
0.0858762 0.246083 0.0104546 0.223905 -0.706162 0.671715 1 
0.0857889 0.24623 0.0105574 0.210195 -0.692865 0.689751 1 
0.0855443 0.246218 0.0105619 0.199492 -0.681984 0.703634 1 
0.0857238 0.246535 0.0100644 0.274592 -0.74759 0.604738 1 
0.0854282 0.245968 0.0102398 0.230261 -0.662587 0.712712 1 
0.0849343 0.24591 0.00990413 0.250809 -0.616769 0.746117 1 
0.0847575 0.246188 0.00993738 0.229655 -0.610852 0.757706 1 
0.0854283 0.246737 0.0101067 0.223958 -0.68127 0.696932 1 
0.0856968 0.246535 0.0108189 0.162547 -0.672973 0.721585 1 
0.0853312 0.24643 0.0106601 0.209348 -0.646653 0.733494 1 
0.0852247 0.246825 0.0103908 0.189634 -0.667572 0.719991 1 
0.0851884 0.246759 0.0104559 0.199788 -0.664412 0.720167 1 
0.0848687 0.246596 0.0104181 0.209161 -0.636779 0.742135 1 
0.0878384 0.24468 0.0088823 0.339306 -0.853687 0.395082 1 
0.0881147 0.244725 0.00846802 0.34086 -0.862175 0.374792 1 
0.0875627 0.245022 0.00815652 0.386478 -0.834477 0.392788 1 
0.0876743 0.245048 0.00763029 0.42631 -0.799533 0.423093 1 
0.0877808 0.245422 0.00776629 0.392788 -0.834477 0.386478 1 
0.088103 0.245411 0.00747299 0.420814 -0.820984 0.385878 1 
0.0881612 0.245825 0.0073157 0.530607 -0.798273 0.284985 1 
0.0873177 0.245392 0.00916798 0.286671 -0.819283 0.496583 1 
0.0876956 0.245008 0.00867815 0.343857 -0.851085 0.396758 1 
0.087555 0.245545 0.00914979 0.266563 -0.839751 0.473034 1 
0.0871941 0.245473 0.00933579 0.268157 -0.801335 0.534746 1 
0.0871868 0.245614 0.00932217 0.274641 -0.80509 0.525741 1 
0.0870196 0.245769 0.00954138 0.273948 -0.80619 0.524415 1 
0.0875041 0.245759 0.00918756 0.246174 -0.865386 0.436469 1 
0.0874556 0.245991 0.00939772 0.242188 -0.84842 0.470668 1 
0.0877393 0.245704 0.00849359 0.296976 -0.869608 0.394446 1 
0.0872016 0.245141 0.00884591 0.309646 -0.792376 0.525604 1 
0.087388 0.245509 0.00886554 0.291941 -0.825866 0.482406 1 
0.0863445 0.244804 0.00802034 0.456788 -0.740425 0.493067 1 
0.0863854 0.245095 0.00880358 0.326325 -0.706226 0.628297 1 
0.0864607 0.245054 0.00834242 0.380048 -0.709094 0.593928 1 
0.0868237 0.245334 0.00883229 0.323339 -0.764109 0.558202 1 
0.0866542 0.245472 0.00887915 0.340495 -0.760062 0.553506 1 
0.0864143 0.245494 0.00922836 0.323165 -0.757267 0.567548 1 
0.0864072 0.245443 0.00871128 0.355368 -0.695997 0.623941 1 
0.0873373 0.245532 0.00839986 0.338909 -0.841806 0.420122 1 
0.0878969 0.245673 0.00808835 0.296545 -0.871385 0.390831 1 
0.0872856 0.246511 0.0104515 0.249393 -0.776413 0.57878 1 
0.0873367 0.246105 0.00991027 0.232738 -0.812271 0.534835 1 
0.0871695 0.24626 0.0101295 0.248199 -0.79455 0.554155 1 
0.0876923 0.246717 0.01089 0.206195 -0.742612 0.637189 1 
0.0862131 0.246368 0.00955182 0.338014 -0.810916 0.477663 1 
0.088001 0.246031 0.00805204 0.231523 -0.892176 0.387839 1 
0.088115 0.246073 0.00769822 0.295568 -0.877608 0.377417 1 
0.0879044 0.246111 0.00746532 0.433661 -0.811314 0.392055 1 
0.0859231 0.243531 0.00832447 0.357449 -0.71653 0.599012 1 
0.0857922 0.243753 0.00847866 0.343132 -0.717162 0.606579 1 
0.0855453 0.243724 0.00831084 0.276803 -0.779795 0.561516 1 
0.085313 0.243222 0.00766675 0.251842 -0.783683 0.567818 1 
0.0863423 0.243057 0.00761086 0.565251 -0.619245 0.545003 1 
0.0861751 0.243212 0.00783008 0.30908 -0.843368 0.439545 1 
0.0862044 0.243228 0.00724791 0.417211 -0.800594 0.430098 1 
0.086306 0.24376 0.00754273 0.351668 -0.845565 0.401683 1 
0.0854706 0.243191 0.00726153 0.531383 -0.585365 0.612356 1 
0.0861266 0.243443 0.00804023 0.345998 -0.823128 0.450272 1 
0.0861533 0.243633 0.00778919 0.385536 -0.811065 0.439927 1 
0.0859958 0.243664 0.00819442 0.357449 -0.71653 0.599012 1 
0.085974 0.244086 0.00815354 0.384944 -0.732213 0.561855 1 
0.0862624 0.243833 0.00759414 0.362237 -0.838947 0.406144 1 
0.0861412 0.243931 0.00793432 0.502605 -0.647167 0.573205 1 
0.085364 0.243777 0.00749582 0.309091 -0.767121 0.562128 1 
0.0851677 0.243725 0.00779371 0.228525 -0.772631 0.592299 1 
0.0848619 0.243855 0.00929357 0.195702 -0.73812 0.645662 1 
0.0842929 0.243646 0.00891557 0.168049 -0.776657 0.607094 1 
0.0847747 0.244002 0.00939637 0.202637 -0.728566 0.654317 1 
0.0844478 0.243981 0.00934497 0.192735 -0.738562 0.646049 1 
0.0840191 0.243618 0.00950225 0.120269 -0.740918 0.660739 1 
0.0837625 0.243713 0.00914842 0.133021 -0.742825 0.656137 1 
0.084012 0.243567 0.00898516 0.139417 -0.763048 0.631126 1 
0.0838812 0.243789 0.00913934 0.123404 -0.744887 0.655679 1 
0.08407 0.244173 0.00933133 0.152476 -0.741246 0.653686 1 
0.0839827 0.244321 0.0094341 0.136487 -0.709431 0.691433 1 
0.0839004 0.244311 0.00937817 0.127058 -0.721991 0.680136 1 
0.0837503 0.244011 0.00929351 0.111083 -0.733145 0.670939 1 
0.0833874 0.24277 0.00843333 0.0318179 -0.831416 0.554739 1 
0.0826683 0.243031 0.00783753 -0.052345 -0.807811 0.587113 1 
0.0830314 0.243311 0.00832742 0.0432306 -0.835326 0.548052 1 
0.0827338 0.243305 0.00769386 0.0151378 -0.818815 0.573858 1 
0.0829707 0.24384 0.00868265 0.0676841 -0.764686 0.640839 1 
0.0830869 0.244091 0.00900473 0.127058 -0.721991 0.680136 1 
0.0830362 0.244114 0.00853896 0.16537 -0.754025 0.635687 1 
0.0826585 0.243346 0.00815502 -0.0887496 -0.766738 0.635796 1 
0.082966 0.243806 0.00833793 0.0584801 -0.788769 0.611902 1 
0.0828716 0.244095 0.00842704 0.0676841 -0.764686 0.640839 1 
0.0825496 0.243915 0.00821696 -0.101733 -0.718027 0.68854 1 
0.0843871 0.24451 0.00970019 0.182456 -0.663896 0.725226 1 
0.0835008 0.244156 0.0094568 0.117509 -0.715467 0.688693 1 
0.0832609 0.244177 0.00980605 0.0324137 -0.67505 0.737059 1 
0.0841037 0.244414 0.00959738 0.149475 -0.68698 0.711137 1 
0.0837285 0.244432 0.00925268 0.108027 -0.711792 0.694034 1 
0.0836462 0.244423 0.0091967 0.107758 -0.724783 0.680499 1 
0.0837574 0.244831 0.00967745 0.120441 -0.652763 0.747927 1 
0.083946 0.245406 0.0103729 0.15828 -0.598449 0.78537 1 
0.0831256 0.244174 0.00911205 0.149495 -0.702174 0.696134 1 
0.0829947 0.244396 0.00926621 0.0677927 -0.690909 0.719757 1 
0.0828568 0.244567 0.00890329 0.0986127 -0.690289 0.716782 1 
0.0824354 0.244064 0.00907423 -0.159657 -0.685766 0.710095 1 
0.0849494 0.244285 0.00855416 0.219821 -0.743649 0.6314 1 
0.0850944 0.244165 0.00943412 0.189294 -0.675609 0.712545 1 
0.0849201 0.244269 0.00913627 0.196122 -0.693374 0.693374 1 
0.0847093 0.244498 0.00940686 0.185915 -0.674517 0.714466 1 
0.0844623 0.244469 0.00923903 0.189342 -0.703491 0.685018 1 
0.0851598 0.244439 0.00929049 0.19985 -0.670813 0.714192 1 
0.0850219 0.24461 0.00892757 0.202792 -0.667203 0.71674 1 
0.0855235 0.244145 0.00826995 0.299586 -0.751368 0.587958 1 
0.0852765 0.244116 0.00810204 0.256659 -0.769978 0.584175 1 
0.0853415 0.244772 0.00896534 0.237816 -0.672499 0.700848 1 
0.0852084 0.244977 0.00894718 0.223848 -0.665283 0.712244 1 
0.085521 0.245089 0.00846785 0.326105 -0.663567 0.673301 1 
0.0830751 0.244007 0.00814284 0.178524 -0.770552 0.611864 1 
0.0843289 0.244865 0.00972436 0.185796 -0.661801 0.726292 1 
0.0850072 0.245082 0.00940382 0.209645 -0.66931 0.712792 1 
0.0839173 0.244816 0.00944461 0.142822 -0.666001 0.73215 1 
0.0835831 0.244935 0.00937955 0.101648 -0.670288 0.735107 1 
0.0841496 0.245318 0.0100887 0.16909 -0.638278 0.751005 1 
0.0851162 0.245282 0.00920874 0.237816 -0.672499 0.700848 1 
0.0831617 0.245202 0.00941731 0.159298 -0.681189 0.714566 1 
0.0817819 0.243638 0.00796446 -0.465966 -0.512397 0.721336 1 
0.0829142 0.245746 0.0107599 0.137633 -0.55793 0.818396 1 
0.0830814 0.245591 0.0105407 0.115609 -0.563413 0.818047 1 
0.0832849 0.245503 0.0102564 0.0405832 -0.580759 0.813063 1 
0.0830303 0.245996 0.0110819 0.232272 -0.600167 0.765408 1 
0.0831394 0.246197 0.0108869 0.178153 -0.598411 0.781131 1 
0.0859451 0.244457 0.00759551 0.484976 -0.711632 0.508309 1 
0.0858872 0.244621 0.0071162 0.443872 -0.764901 0.466802 1 
0.0853831 0.24526 0.00810495 0.333311 -0.674752 0.658493 1 
0.0852909 0.245565 0.0083665 0.30861 -0.647919 0.696392 1 
0.0853279 0.245059 0.006791 0.492981 -0.690173 0.529746 1 
0.0931633 0.249932 0.0103272 -0.212712 -0.32692 0.920802 1 
0.0929016 0.250376 0.0106356 -0.217811 -0.344747 0.913076 1 
0.0926111 0.25042 0.0105192 -0.233548 -0.310919 0.921295 1 
0.0922066 0.250422 0.0107565 -0.242189 -0.253388 0.936557 1 
0.0918991 0.249962 0.0105736 -0.229011 -0.300132 0.925999 1 
0.092495 0.25017 0.0101971 -0.225717 -0.299536 0.927001 1 
0.0924078 0.250317 0.0102999 -0.239485 -0.284831 0.92818 1 
0.0921753 0.250007 0.0101594 -0.233548 -0.310919 0.921295 1 
0.0919284 0.249978 0.00999153 -0.251902 -0.300843 0.919803 1 
0.0919136 0.250451 0.0104677 -0.265628 -0.262788 0.927569 1 
0.0917926 0.250357 0.0103044 -0.270701 -0.270701 0.923819 1 
0.0921608 0.250288 0.0101321 -0.241219 -0.298312 0.923484 1 
0.094287 0.250439 0.0105525 -0.174334 -0.404859 0.897606 1 
0.0942867 0.25063 0.011056 -0.174334 -0.404859 0.897606 1 
0.0941996 0.250778 0.0111587 -0.172054 -0.417845 0.892078 1 
0.0939041 0.25098 0.0112011 -0.15339 -0.422897 0.893101 1 
0.0943595 0.250764 0.0109259 -0.181102 -0.410014 0.893918 1 
0.0940035 0.250534 0.0109532 -0.154625 -0.392945 0.906469 1 
0.0935627 0.250279 0.0107521 -0.177829 -0.362772 0.914753 1 
0.093432 0.2505 0.0109062 -0.194061 -0.36656 0.909931 1 
0.0938677 0.250913 0.0112661 -0.15339 -0.422897 0.893101 1 
0.0937418 0.250978 0.0112615 -0.152727 -0.406796 0.900661 1 
0.0934706 0.250584 0.0110136 -0.192524 -0.349395 0.916983 1 
0.093696 0.250844 0.0106371 -0.193856 -0.369045 0.90897 1 
0.0941003 0.251032 0.0109032 -0.163657 -0.430143 0.887803 1 
0.0945509 0.250973 0.0107868 -0.197873 -0.417731 0.886762 1 
0.0942167 0.251092 0.0107217 -0.163657 -0.430143 0.887803 1 
0.0929091 0.250044 0.0101458 -0.225343 -0.328686 0.917162 1 
0.0932166 0.250504 0.0103287 -0.214563 -0.37804 0.900582 1 
0.093214 0.250679 0.0106598 -0.218167 -0.348201 0.911679 1 
0.0928025 0.25063 0.01038 -0.239732 -0.335624 0.91098 1 
0.0912162 0.247981 0.0103123 0.579299 -0.207441 -0.788277 1 
0.0906935 0.247524 0.00955181 0.501537 -0.248454 0.828693 1 
0.0906449 0.247756 0.00976196 0.572146 -0.345232 -0.743951 1 
0.0910567 0.247613 0.00953822 0.871148 -0.428803 0.239227 1 
0.0912964 0.247782 0.00969243 0.791706 -0.331077 0.513409 1 
0.0908774 0.248066 0.00990254 0.531882 -0.205742 -0.821445 1 
0.0911656 0.248004 0.00984661 0.565826 -0.203943 -0.798904 1 
0.090541 0.247207 0.00929487 0.377733 -0.157035 0.912501 1 
0.0903982 0.247535 0.00909066 0.834903 -0.546713 0.0635713 1 
0.0904637 0.24781 0.00894694 0.872358 -0.439907 0.213243 1 
0.091117 0.248235 0.0100568 0.561331 -0.193195 -0.804726 1 
0.0907948 0.248247 0.0103501 0.788887 -0.388797 0.475914 1 
0.0909039 0.248447 0.010155 0.792568 -0.443902 0.418075 1 
0.0907803 0.248528 0.0103228 0.79724 -0.433248 0.420363 1 
0.0905697 0.248566 0.01009 0.808362 -0.42419 0.408183 1 
0.0903519 0.248744 0.00984342 0.832095 -0.442001 0.33504 1 
0.0919819 0.247859 0.00938551 0.860653 -0.389526 0.327941 1 
0.0922268 0.24768 0.0088775 0.927932 -0.326106 0.180548 1 
0.0916116 0.24772 0.008882 0.904833 -0.332896 0.265437 1 
0.0916961 0.247938 0.00961383 0.809932 -0.35166 0.46941 1 
0.0916914 0.247904 0.00926907 0.822907 -0.378949 0.423345 1 
0.091357 0.248214 0.0097075 0.802915 -0.383027 0.456748 1 
0.0915943 0.248367 0.00968932 0.864407 -0.422294 0.27289 1 
0.092212 0.248153 0.00935373 0.814205 -0.465033 0.347584 1 
0.0919166 0.248355 0.00939602 0.745886 -0.479146 0.46268 1 
0.0914055 0.247983 0.00949733 0.820542 -0.33043 0.466397 1 
0.0914203 0.24828 0.00888798 0.908468 -0.357881 0.215888 1 
0.0913984 0.247932 0.00898026 0.885303 -0.324259 0.333308 1 
0.0920403 0.248083 0.00872472 0.881491 -0.441474 0.167556 1 
0.091958 0.248073 0.0086688 0.889564 -0.408877 0.203706 1 
0.0920185 0.248505 0.00868386 0.906967 -0.38256 0.176235 1 
0.0920594 0.248796 0.00946704 0.213226 0.336296 -0.9173 1 
0.0905632 0.247173 0.00819556 0.802139 -0.592636 -0.0731826 1 
0.0902819 0.248246 0.00913891 0.85419 -0.412421 0.316653 1 
0.0906818 0.24821 0.0085568 0.923961 -0.377318 0.062664 1 
0.0909651 0.248306 0.00865962 0.928606 -0.351475 0.118982 1 
0.0900764 0.247935 0.0082438 0.807456 -0.579674 -0.10951 1 
0.0912454 0.248958 0.0101005 0.794527 -0.299732 -0.528099 1 
0.091013 0.248647 0.00995994 0.814205 -0.465033 0.347584 1 
0.0909257 0.248795 0.0100627 0.777163 -0.457825 0.431757 1 
0.0907175 0.24885 0.0100022 0.802025 -0.469049 0.369796 1 
0.0909984 0.248929 0.00993268 0.752089 -0.482193 0.449279 1 
0.0907515 0.2489 0.00976479 0.825338 -0.47005 0.312842 1 
0.0910277 0.248945 0.00935052 0.779004 -0.490724 0.390312 1 
0.0907589 0.248568 0.00927499 0.847227 -0.40411 0.34482 1 
0.0911075 0.249129 0.00973757 0.747382 -0.507563 0.428718 1 
0.0908605 0.2491 0.00956978 0.746575 -0.496069 0.44333 1 
0.0915069 0.249475 0.0101624 -0.205606 -0.263562 0.942476 1 
0.0911291 0.249668 0.0101487 -0.154184 -0.269488 0.950581 1 
0.0903737 0.249092 0.00975114 0.826719 -0.472187 0.305902 1 
0.091013 0.249417 0.00982675 0.892883 -0.40187 -0.203127 1 
0.0908047 0.249472 0.00976627 0.883951 -0.393366 -0.252771 1 
0.0906134 0.249262 0.00990538 0.619033 -0.442166 0.649067 1 
0.0906014 0.249369 0.00954702 0.695028 -0.465019 0.548355 1 
0.0907513 0.24986 0.0101351 0.0343792 -0.322146 0.946065 1 
0.0912529 0.249396 0.0094775 -0.0194437 0.387578 -0.921632 1 
0.0910812 0.249326 0.0088485 0.664608 -0.533369 0.523273 1 
0.0914488 0.24983 0.0101866 -0.227593 -0.29262 0.928749 1 
0.0914875 0.249914 0.0102939 -0.289775 -0.269592 0.918341 1 
0.0915675 0.249907 0.0101775 -0.269102 -0.286371 0.919552 1 
0.0913834 0.250326 0.0101971 -0.302909 -0.268125 0.914524 1 
0.0911582 0.249875 0.0100701 -0.210346 -0.277211 0.937501 1 
0.0912018 0.249801 0.0100187 -0.195753 -0.258722 0.945909 1 
0.0910274 0.250097 0.0102243 -0.266629 -0.26948 0.925359 1 
0.0905433 0.249724 0.00957112 0.305091 -0.428986 0.850229 1 
0.0906158 0.250048 0.00994457 -0.0602491 -0.298682 0.952449 1 
0.0906521 0.250115 0.00987959 -0.166924 -0.278207 0.945905 1 
0.0906087 0.249998 0.00942749 -0.134298 -0.313363 0.940089 1 
0.0908339 0.250448 0.00955442 -0.313735 -0.253012 0.915181 1 
0.0900104 0.249004 0.00976478 0.826718 -0.441021 0.34934 1 
0.0900782 0.249294 0.00979349 0.772427 -0.449086 0.449086 1 
0.0897876 0.249339 0.00967702 0.797903 -0.449727 0.401369 1 
0.0902358 0.249263 0.00938827 0.767493 -0.453296 0.453296 1 
0.0902745 0.249347 0.00949559 0.756031 -0.444435 0.480515 1 
0.091975 0.249348 0.00860202 0.365225 0.352897 -0.861438 1 
0.0914423 0.249206 0.00815907 0.897003 0.171338 -0.407467 1 
0.090166 0.250304 0.00841734 0.965588 -0.175917 -0.191554 1 
0.0914437 0.250179 0.0108488 -0.306413 -0.213218 0.927712 1 
0.0925626 0.250652 0.0107293 -0.237292 -0.314951 0.918966 1 
0.0922284 0.25077 0.0106643 -0.241424 -0.295709 0.924268 1 
0.0922284 0.25077 0.0106643 -0.241424 -0.295709 0.924268 1 
0.0916618 0.250579 0.0104586 -0.282031 -0.242348 0.928292 1 
0.0915795 0.250569 0.0104027 -0.275374 -0.258253 0.925999 1 
0.0917345 0.250712 0.0103286 -0.270193 -0.267334 0.924948 1 
0.0918991 0.250732 0.0104405 -0.26532 -0.256807 0.92933 1 
0.0919716 0.251056 0.0108139 -0.235629 -0.301319 0.923951 1 
0.0916956 0.25082 0.0107247 -0.247796 -0.270452 0.930297 1 
0.0934899 0.251106 0.0112524 -0.206381 -0.365136 0.90779 1 
0.0932817 0.251161 0.011192 -0.205403 -0.354787 0.912105 1 
0.0939332 0.251187 0.0111224 -0.15339 -0.422897 0.893101 1 
0.0933907 0.251361 0.0109969 -0.22425 -0.348673 0.910022 1 
0.0935483 0.251329 0.0105916 -0.213572 -0.367576 0.905138 1 
0.0928459 0.250747 0.0108321 -0.223365 -0.335769 0.915078 1 
0.0927587 0.250895 0.0109349 -0.223365 -0.335769 0.915078 1 
0.0925021 0.25099 0.0105811 -0.231558 -0.350978 0.907301 1 
0.0922404 0.251433 0.0108894 -0.23715 -0.341904 0.909319 1 
0.0923276 0.251285 0.0107867 -0.23933 -0.332161 0.912354 1 
0.092519 0.251495 0.0106475 -0.243273 -0.34233 0.90754 1 
0.0919742 0.250882 0.0104828 -0.241424 -0.295709 0.924268 1 
0.0917561 0.251251 0.0107398 -0.249887 -0.289869 0.923868 1 
0.0923591 0.251509 0.0108804 -0.239732 -0.335624 0.91098 1 
0.0921846 0.251805 0.011086 -0.230041 -0.337104 0.91293 1 
0.092262 0.251972 0.0113007 -0.23544 -0.361203 0.902275 1 
0.0919498 0.251478 0.010773 -0.242062 -0.331929 0.911718 1 
0.0918504 0.251924 0.0110209 -0.258158 -0.328167 0.908659 1 
0.0925096 0.251428 0.00995809 -0.23083 -0.380795 0.895384 1 
0.0924438 0.252306 0.0109755 -0.226287 -0.363518 0.903686 1 
0.0918406 0.252238 0.0113384 -0.26074 -0.349127 0.900069 1 
0.0921603 0.252401 0.0113762 -0.264021 -0.34367 0.901212 1 
0.0920731 0.252549 0.011479 -0.254706 -0.354822 0.89957 1 
0.0918261 0.25252 0.0113111 -0.284862 -0.347502 0.893362 1 
0.0914847 0.252779 0.0112325 -0.316588 -0.310642 0.896255 1 
0.0918043 0.252941 0.0112703 -0.335312 -0.365934 0.868135 1 
0.0913057 0.25035 0.0104859 -0.313358 -0.246932 0.916969 1 
0.0912187 0.250306 0.0100852 -0.314335 -0.256393 0.914033 1 
0.0910492 0.250444 0.010132 -0.308634 -0.262266 0.914309 1 
0.0913325 0.25054 0.0102348 -0.314335 -0.256393 0.914033 1 
0.0909209 0.250492 0.00995514 -0.324698 -0.25772 0.910028 1 
0.0912016 0.250762 0.010389 -0.323339 -0.228493 0.918283 1 
0.0909838 0.25094 0.0101425 -0.334085 -0.235739 0.912587 1 
0.0905553 0.250386 0.00979634 -0.341272 -0.201336 0.918149 1 
0.0909258 0.250334 0.00979635 -0.302571 -0.262035 0.9164 1 
0.090674 0.250463 0.00978731 -0.345892 -0.21098 0.914246 1 
0.0903447 0.250424 0.00956346 -0.35262 -0.195583 0.915099 1 
0.0904172 0.250749 0.00993693 -0.446083 -0.151582 0.882062 1 
0.0907805 0.250837 0.00992328 -0.367347 -0.216343 0.904573 1 
0.0913905 0.251146 0.010581 -0.306287 -0.248768 0.91886 1 
0.0911435 0.251117 0.0104132 -0.305695 -0.245417 0.919957 1 
0.0899668 0.249847 0.009683 0.0768019 -0.305906 0.948959 1 
0.0899887 0.250195 0.00959072 -0.264281 -0.159642 0.951142 1 
0.0895602 0.250411 0.00911134 0.589296 -0.518378 0.619689 1 
0.0913107 0.250962 0.0101939 -0.303714 -0.268838 0.914048 1 
0.0910201 0.251007 0.0100775 -0.316367 -0.263882 0.911196 1 
0.0912526 0.251317 0.0102181 -0.301709 -0.281303 0.910956 1 
0.0910732 0.25177 0.0105824 -0.307933 -0.299093 0.903172 1 
0.0912308 0.251739 0.0101772 -0.313909 -0.310934 0.897096 1 
0.0911387 0.252044 0.0104387 -0.308755 -0.299891 0.902627 1 
0.0915944 0.251636 0.00966009 -0.306172 -0.357452 0.882319 1 
0.0910346 0.252456 0.0103419 -0.357867 -0.288989 0.887928 1 
0.0899767 0.242414 0.00344697 0.904742 -0.0251685 -0.425216 1 
0.0900952 0.242681 0.00394139 0.923434 -0.376611 -0.0737139 1 
0.0891694 0.243008 0.00560452 0.50574 -0.706033 0.495726 1 
0.0888281 0.243076 0.00502236 0.399149 -0.83143 0.386528 1 
0.0897074 0.24338 0.00474867 0.627411 -0.65071 0.427705 1 
0.0891335 0.243329 0.00452943 0.611568 -0.724522 0.317886 1 
0.0897467 0.24289 0.00334562 0.743113 0.21254 -0.634516 1 
0.090376 0.243721 0.00424214 0.930695 -0.186139 -0.314897 1 
0.0895577 0.243467 0.00352393 0.778829 -0.00689229 -0.627199 1 
0.0898846 0.243489 0.00357535 0.788456 0.00412804 -0.615078 1 
0.0896668 0.243667 0.00332886 0.755196 -0.00969977 -0.655427 1 
0.0897369 0.243975 0.00352988 0.768473 0.0380711 -0.638749 1 
0.0904485 0.244045 0.00461556 0.905831 0.00651677 -0.42359 1 
0.0902234 0.244364 0.00435545 0.860606 0.0483487 -0.50697 1 
0.0901 0.244254 0.00401977 0.835348 0.0261476 -0.5491 1 
0.0893591 0.244167 0.00351621 0.768473 0.0380711 -0.638749 1 
0.0898047 0.244265 0.00355858 0.792016 0.0407966 -0.609135 1 
0.0901241 0.244619 0.00409986 0.829419 0.115157 -0.546629 1 
0.0897463 0.244811 0.00408624 0.838921 0.0345519 -0.543156 1 
0.0895916 0.244477 0.00365682 0.805243 0.0493581 -0.590887 1 
0.089543 0.244709 0.00386699 0.823095 0.0348179 -0.566835 1 
0.0912792 0.24535 0.00441884 -0.0642441 0.595329 -0.80091 1 
0.0884458 0.242275 0.00429372 -0.657648 -0.748056 0.0889501 1 
0.0879297 0.24302 0.00492404 -0.122319 -0.989038 0.0827111 1 
0.0883125 0.24344 0.00464582 -0.962182 -0.271947 0.0158534 1 
0.089805 0.242344 0.00281797 0.657007 0.290754 -0.69556 1 
0.0897032 0.242773 0.00289354 0.649273 0.330332 -0.685073 1 
0.0895363 0.242737 0.00260924 0.621069 0.314567 -0.717859 1 
0.0895145 0.243158 0.00256836 0.625429 0.303871 -0.71868 1 
0.0891149 0.243003 0.00264698 0.640012 0.340362 -0.688868 1 
0.0886646 0.242871 0.00225991 0.565746 0.348525 -0.747303 1 
0.0887807 0.243122 0.00258197 0.643364 0.340413 -0.685712 1 
0.0884176 0.242842 0.00209209 0.577103 0.364572 -0.73078 1 
0.0886577 0.24186 0.00137252 0.428449 0.537629 -0.726213 1 
0.0877323 0.242574 0.00189553 0.486306 0.408237 -0.77256 1 
0.0879212 0.242958 0.00208752 0.527918 0.368731 -0.765075 1 
0.0876985 0.242333 0.00162944 0.352038 0.473101 -0.807617 1 
0.0889622 0.243646 0.00276031 0.730827 0.123541 -0.671289 1 
0.0880542 0.243714 0.00247598 0.607388 0.358539 -0.708893 1 
0.0889911 0.244045 0.00318514 0.784615 0.0350901 -0.61899 1 
0.0888652 0.244109 0.00318058 0.81162 0.0320193 -0.583308 1 
0.0880831 0.244113 0.00290081 0.551442 0.213511 -0.806427 1 
0.0878725 0.24415 0.00266795 0.330298 0.327282 -0.885319 1 
0.088933 0.2444 0.00320926 0.76192 0.0705748 -0.643815 1 
0.088686 0.244371 0.00304143 0.471104 0.284528 -0.834928 1 
0.0889476 0.244888 0.00310332 0.703746 0.162637 -0.691586 1 
0.088657 0.244933 0.00298689 0.667081 0.182489 -0.722288 1 
0.0883446 0.24463 0.00296274 -0.152965 0.536119 -0.830168 1 
0.0880613 0.244534 0.00285991 -0.0148507 0.500875 -0.865392 1 
0.0881268 0.244808 0.00271626 0.373731 0.318816 -0.871023 1 
0.0875434 0.243151 0.0020739 0.530022 0.402029 -0.746625 1 
0.0878119 0.243719 0.00265287 0.668291 0.333332 -0.665039 1 
0.0876255 0.244121 0.0025001 0.505966 0.266216 -0.820443 1 
0.0872695 0.243892 0.00252734 0.675693 0.410064 -0.612606 1 
0.0880745 0.243861 0.00617437 0.563625 -0.597476 0.570395 1 
0.0879264 0.244729 0.0071359 0.531925 -0.705342 0.468561 1 
0.088377 0.244478 0.00651607 0.484042 -0.741758 0.464218 1 
0.087934 0.244206 0.0061426 0.509556 -0.69333 0.509556 1 
0.0890991 0.244431 0.00564061 0.610728 -0.670636 0.42102 1 
0.0895062 0.244254 0.00507213 0.703363 -0.611549 0.362338 1 
0.0889294 0.24476 0.00619096 0.619788 -0.692124 0.3699 1 
0.0893243 0.244881 0.00576754 0.704872 -0.501575 0.501575 1 
0.0882486 0.244717 0.0068426 0.538349 -0.698354 0.47168 1 
0.0879946 0.244637 0.00615765 0.568527 -0.707758 0.419351 1 
0.0877476 0.244608 0.00598978 0.662629 -0.609218 0.435633 1 
0.0875926 0.244465 0.00606388 0.509248 -0.653787 0.559669 1 
0.0880959 0.24536 0.00695589 0.484388 -0.771432 0.412627 1 
0.0905787 0.245167 0.00583866 0.819006 -0.41825 0.392805 1 
0.0905717 0.245116 0.00532155 -0.274086 0.472295 -0.837743 1 
0.0902762 0.245318 0.00536382 0.883751 -0.336883 0.324797 1 
0.0897504 0.245418 0.00594135 0.755098 -0.326834 0.568336 1 
0.0902614 0.245791 0.00584005 0.797041 -0.271969 0.539221 1 
0.0911747 0.245374 0.00546212 -0.0886945 0.477261 -0.874274 1 
0.0903564 0.24512 0.00474393 0.873988 -0.467951 0.131026 1 
0.0905161 0.245297 0.00501457 0.950087 -0.305523 0.0631673 1 
0.0903782 0.245468 0.00465162 0.694122 0.240818 -0.678382 1 
0.0906179 0.245638 0.00480585 0.671795 0.258871 -0.69403 1 
0.090666 0.245788 0.00560267 0.454115 0.361698 -0.81422 1 
0.090499 0.245752 0.00531839 0.60022 0.292907 -0.744272 1 
0.0899104 0.246174 0.00557536 0.568523 0.21724 -0.793466 1 
0.0900803 0.244884 0.00465471 0.937426 -0.258456 -0.233309 1 
0.0901458 0.245158 0.00451107 0.882186 -0.46143 0.093969 1 
0.0897316 0.245284 0.00456242 0.799397 -0.354042 0.485406 1 
0.0901676 0.245506 0.00441873 0.668634 0.213526 -0.712274 1 
0.0898771 0.24555 0.00430232 0.648993 0.223629 -0.727185 1 
0.0897802 0.245822 0.00421911 0.651187 0.247546 -0.71741 1 
0.0893904 0.245352 0.00398026 0.695965 0.210191 -0.686624 1 
0.0895065 0.245602 0.00430232 0.169857 0.386817 -0.906378 1 
0.0896155 0.245803 0.00410721 0.658254 0.244675 -0.711924 1 
0.0894263 0.245801 0.00492218 0.991433 -0.125198 0.037221 1 
0.0888358 0.245823 0.00399986 0.671715 0.223905 -0.706162 1 
0.0890827 0.245852 0.00416766 0.625934 0.24002 -0.742022 1 
0.08886 0.246188 0.00407989 0.67123 0.244802 -0.699659 1 
0.0887776 0.246178 0.00402395 0.658254 0.244675 -0.711924 1 
0.0909014 0.245542 0.0044052 0.722095 0.196373 -0.663338 1 
0.089507 0.24599 0.00316218 0.621776 0.297231 -0.724602 1 
0.0893515 0.246229 0.00424322 0.671795 0.258871 -0.69403 1 
0.0890054 0.246455 0.00381982 0.679135 0.262429 -0.685497 1 
0.0871591 0.24253 0.0061428 0.657787 -0.384121 0.647895 1 
0.0877114 0.243581 0.00568452 0.642838 -0.548352 0.534854 1 
0.0881331 0.243893 0.00501014 0.618853 -0.755342 0.21559 1 
0.0874063 0.243907 0.00554083 0.562344 -0.60625 0.562344 1 
0.0875224 0.244157 0.00586288 0.569768 -0.617108 0.542717 1 
0.0870285 0.244099 0.00552717 0.51645 -0.647665 0.560188 1 
0.0881047 0.244652 0.00331202 0.946588 -0.318945 -0.0473934 1 
0.0889183 0.244872 0.00368552 0.681997 -0.585284 0.438546 1 
0.0893327 0.246094 0.0028643 0.52615 0.281137 -0.802576 1 
0.0886398 0.246349 0.00366105 0.653509 0.276423 -0.704639 1 
0.0889378 0.246742 0.00315449 0.637882 0.294036 -0.711793 1 
0.0885912 0.24658 0.00387114 0.690448 0.269482 -0.671313 1 
0.0913268 0.247613 0.00645973 0.800549 0.353137 -0.484165 1 
0.0900991 0.247518 0.00613762 0.802584 0.319444 -0.5038 1 
0.0895714 0.247219 0.00553592 0.751427 0.243155 -0.613378 1 
0.0904698 0.247275 0.00563417 0.717931 0.300342 -0.627989 1 
0.0907604 0.24723 0.00575067 0.72587 0.324944 -0.606238 1 
0.0905885 0.247352 0.00562511 0.693261 0.308655 -0.651246 1 
0.0910728 0.247533 0.0057748 0.742245 0.334738 -0.580536 1 
0.0909081 0.247514 0.00566289 0.706151 0.332784 -0.624984 1 
0.0901356 0.247394 0.00556916 0.700928 0.279413 -0.656222 1 
0.0903754 0.247564 0.00572334 0.717687 0.322392 -0.617243 1 
0.0902515 0.247836 0.00639464 0.877302 0.237634 -0.41698 1 
0.090196 0.248016 0.00608769 0.785075 0.252289 -0.565692 1 
0.0908111 0.247977 0.00608316 0.75688 0.379254 -0.532258 1 
0.0899563 0.247847 0.00593348 0.753089 0.267941 -0.600886 1 
0.0893897 0.247655 0.00572786 0.754375 0.232716 -0.613809 1 
0.0894551 0.247929 0.00558414 0.731113 0.216684 -0.646933 1 
0.0887074 0.247601 0.00406 0.754654 0.274853 -0.595779 1 
0.0892567 0.247669 0.00520615 0.726919 0.261311 -0.635064 1 
0.0891986 0.248024 0.00523034 0.706461 0.240732 -0.665553 1 
0.0894818 0.24812 0.00533314 0.718884 0.248054 -0.649365 1 
0.0889952 0.247921 0.00501105 0.723947 0.24447 -0.645086 1 
0.0889879 0.248062 0.00499742 0.755878 0.222867 -0.615612 1 
0.088729 0.24737 0.0046044 0.749632 0.271009 -0.603826 1 
0.088482 0.247341 0.0044366 0.751188 0.277924 -0.598727 1 
0.0889178 0.247754 0.00479637 0.737558 0.275588 -0.61649 1 
0.0888573 0.248092 0.00464815 0.734478 0.268092 -0.623433 1 
0.0887072 0.247792 0.00456351 0.7353 0.271569 -0.620955 1 
0.0889471 0.24777 0.00421426 0.7353 0.271569 -0.620955 1 
0.0910504 0.248528 0.00724433 0.618039 -0.784924 -0.0438426 1 
0.0911595 0.248729 0.00704926 0.508246 0.802743 -0.311914 1 
0.0906873 0.248249 0.00675449 0.507291 -0.857732 -0.083371 1 
0.0907091 0.248597 0.0066622 0.74764 0.541507 -0.384454 1 
0.0906726 0.248721 0.00723071 0.497267 0.821503 -0.279031 1 
0.0900625 0.248412 0.00657299 0.469656 -0.860291 -0.198299 1 
0.089484 0.248328 0.00600895 0.778512 0.17825 -0.601785 1 
0.0894961 0.24803 0.00586386 0.778475 0.215125 -0.58966 1 
0.0896052 0.24823 0.00566877 0.735885 0.233789 -0.635466 1 
0.0895494 0.248602 0.00586528 0.739276 0.229754 -0.632996 1 
0.0896655 0.248852 0.0061873 0.760402 0.403912 -0.50857 1 
0.0897022 0.248728 0.00561881 0.710132 0.196485 -0.676096 1 
0.0896707 0.248504 0.00552511 0.707216 0.217005 -0.67287 1 
0.0897746 0.249052 0.00599225 0.728933 0.282322 -0.62366 1 
0.0890121 0.248426 0.00507748 0.727481 0.240399 -0.642635 1 
0.0888015 0.248464 0.00484465 0.724856 0.247936 -0.642737 1 
0.0891212 0.248627 0.00488243 0.731332 0.243777 -0.636966 1 
0.0889106 0.248664 0.00464958 0.721838 0.264938 -0.639342 1 
0.0892302 0.248827 0.00468737 0.728616 0.268271 -0.630198 1 
0.0888524 0.249019 0.00467372 0.754059 0.19197 -0.628126 1 
0.0887192 0.248454 0.00478873 0.726052 0.257836 -0.637471 1 
0.0887047 0.248736 0.00476141 0.746646 0.246786 -0.617751 1 
0.0882131 0.248694 0.00459816 0.810194 0.186269 -0.555778 1 
0.0886055 0.24899 0.00450587 0.795095 0.234034 -0.559511 1 
0.0883585 0.248961 0.00433806 0.817782 0.182905 -0.545692 1 
0.0887432 0.24978 0.00523905 0.78807 0.103809 -0.60677 1 
0.0883514 0.247372 0.00408727 0.78261 0.258779 -0.566176 1 
0.0886273 0.249338 0.00441357 0.790983 0.12911 -0.59806 1 
0.0884676 0.249161 0.00414297 0.820654 0.176177 -0.543589 1 
0.0884458 0.249583 0.00410207 0.815722 0.140642 -0.561086 1 
0.0886175 0.249653 0.00473107 0.806028 0.122304 -0.579103 1 
0.088322 0.249855 0.00477339 0.815722 0.140642 -0.561086 1 
0.088932 0.250164 0.00543107 0.794254 0.110109 -0.597526 1 
0.0882837 0.249389 0.00365907 0.802379 0.144398 -0.579083 1 
0.0875379 0.24946 0.0033143 0.552274 0.121588 -0.824748 1 
0.0684077 0.21104 0.0413242 -0.591274 0.0730144 0.803159 0 
0.0681945 0.211252 0.0414224 -0.537454 0.120891 0.834583 0 
0.0685942 0.211407 0.0413438 -0.445852 0.213234 0.869337 0 
