0.0865 0.2195 0.0014 0.647519 -0.728654 0.223121 2 
0.0871 0.2204 0.001 0.647519 -0.728654 0.223121 2 
0.0742 0.2147 0.0061 -0.068749 0.996315 -0.0512889 2 
0.074 0.2147 0.0064 -0.068749 0.996315 -0.0512889 2 
0.0746 0.2147 0.006 -0.068749 0.996315 -0.0512889 2 
0.0746 0.2147 0.0064 -0.068749 0.996315 -0.0512889 2 
0.0749 0.2147 0.0064 -0.068749 0.996315 -0.0512889 2 
0.0746 0.215 0.0061 -0.068749 0.996315 -0.0512889 2 
0.0749 0.215 0.0061 -0.068749 0.996315 -0.0512889 2 
0.0749 0.215 0.0064 -0.068749 0.996315 -0.0512889 2 
0.0754 0.2151 0.0064 -0.068749 0.996315 -0.0512889 2 
0.0749 0.2141 0.0073 -0.068749 0.996315 -0.0512889 2 
0.0766 0.2144 0.0078 0.608767 0.52445 -0.595277 2 
0.0764 0.2142 0.0081 -0.0406794 0.994996 -0.0912538 2 
0.0734 0.2147 0.0076 -0.173752 0.972759 -0.15346 2 
0.0733 0.2148 0.0073 -0.346558 0.864085 -0.365041 2 
0.0734 0.2148 0.0075 -0.173752 0.972759 -0.15346 2 
0.0734 0.2147 0.0078 -0.173752 0.972759 -0.15346 2 
0.0733 0.2147 0.0081 -0.346558 0.864085 -0.365041 2 
0.0737 0.2147 0.0072 -0.068749 0.996315 -0.0512889 2 
0.0748 0.2147 0.0066 -0.068749 0.996315 -0.0512889 2 
0.0751 0.2147 0.0066 -0.068749 0.996315 -0.0512889 2 
0.0751 0.215 0.0066 -0.068749 0.996315 -0.0512889 2 
0.0748 0.2145 0.007 -0.068749 0.996315 -0.0512889 2 
0.0749 0.2145 0.0069 -0.068749 0.996315 -0.0512889 2 
0.0749 0.2147 0.0069 -0.068749 0.996315 -0.0512889 2 
0.0751 0.2144 0.0073 -0.068749 0.996315 -0.0512889 2 
0.0751 0.215 0.0073 -0.068749 0.996315 -0.0512889 2 
0.0751 0.215 0.0076 -0.068749 0.996315 -0.0512889 2 
0.0751 0.2148 0.0079 -0.068749 0.996315 -0.0512889 2 
0.0749 0.2156 0.0078 -0.068749 0.996315 -0.0512889 2 
0.0746 0.2157 0.0079 -0.068749 0.996315 -0.0512889 2 
0.0754 0.215 0.0066 -0.068749 0.996315 -0.0512889 2 
0.0757 0.215 0.0066 -0.068749 0.996315 -0.0512889 2 
0.0754 0.2154 0.0069 -0.068749 0.996315 -0.0512889 2 
0.0754 0.2154 0.0072 -0.068749 0.996315 -0.0512889 2 
0.0757 0.2156 0.0072 -0.068749 0.996315 -0.0512889 2 
0.0754 0.215 0.0075 -0.068749 0.996315 -0.0512889 2 
0.0749 0.2165 0.0073 -0.068749 0.996315 -0.0512889 2 
0.0844 0.2124 0.0188 -0.579103 0.806028 0.122304 2 
0.0844 0.2126 0.0188 -0.579857 0.807711 0.106624 2 
0.0844 0.2126 0.0189 -0.584378 0.802232 0.122175 2 
0.0846 0.2127 0.0191 -0.582032 0.804875 0.11582 2 
0.0852 0.2132 0.0191 -0.623028 0.78192 0.020907 2 
0.0855 0.2135 0.0191 -0.650966 0.756837 -0.0586585 2 
0.0844 0.2124 0.0195 -0.601712 0.784777 0.148552 2 
0.0846 0.2126 0.0192 -0.585546 0.800886 0.125369 2 
0.0846 0.2127 0.0194 -0.589568 0.800232 0.109721 2 
0.0846 0.2127 0.0198 -0.608971 0.787135 0.0978442 2 
0.0844 0.2129 0.0195 -0.597526 0.794254 0.110109 2 
0.0844 0.2132 0.0194 -0.603401 0.793494 0.0792054 2 
0.0844 0.2135 0.0198 -0.623436 0.781725 0.0152735 2 
0.0847 0.2135 0.0197 -0.641751 0.76467 -0.0586009 2 
0.0843 0.2136 0.02 -0.654592 0.755513 -0.0266322 2 
0.0853 0.2135 0.0194 -0.654696 0.746739 -0.117281 2 
0.0858 0.2132 0.0192 -0.660142 0.747194 -0.0768957 2 
0.0852 0.2136 0.0197 -0.647807 0.734388 -0.202536 2 
0.0749 0.2139 -0.0016 0.00938825 0.870425 0.492212 1 
0.0749 0.2139 -0.0013 0.00938825 0.870425 0.492212 1 
0.0752 0.2139 -0.0014 0.00938825 0.870425 0.492212 1 
0.0752 0.2141 -0.0011 -0.00398828 0.878751 0.477264 1 
0.0754 0.2142 -0.001 0.0174428 0.876168 0.481691 1 
0.0733 0.2151 -0.0029 0.746304 0.398575 -0.533074 1 
0.0731 0.2156 -0.0028 0.765161 -0.00137867 -0.643838 1 
0.0734 0.2153 -0.0025 0.744467 0.425644 -0.514389 1 
0.0731 0.2159 -0.0025 0.793384 0.0494981 -0.606705 1 
0.0733 0.2159 -0.0023 0.796953 0.0943569 -0.596626 1 
0.0734 0.2156 -0.002 0.146809 0.820057 0.553131 1 
0.0736 0.2159 -0.0019 0.817398 0.173114 -0.549448 1 
0.0733 0.216 -0.0023 0.748907 -0.06181 -0.659786 1 
0.0734 0.216 -0.002 0.803562 0.118992 -0.583206 1 
0.0734 0.2163 -0.002 0.583701 -0.259597 -0.769352 1 
0.0734 0.2162 -0.0019 0.677491 -0.175872 -0.714195 1 
0.0736 0.2165 -0.0019 0.579369 -0.238931 -0.779259 1 
0.0736 0.2162 -0.0016 0.638799 -0.23386 -0.73297 1 
0.0739 0.215 -0.002 0.0840484 0.844758 0.528508 1 
0.0737 0.2156 -0.0019 0.817398 0.173114 -0.549448 1 
0.0739 0.2153 -0.0017 0.0660809 0.850616 0.521618 1 
0.0737 0.2165 -0.0017 0.606024 -0.236459 -0.759488 1 
0.0743 0.215 -0.0014 0.0203441 0.863944 0.503176 1 
0.0749 0.2145 -0.0011 -0.00398828 0.878751 0.477264 1 
0.0749 0.2148 -0.0008 -0.00398828 0.878751 0.477264 1 
0.074 0.2154 -0.0014 0.0371226 0.859319 0.510092 1 
0.0737 0.2156 -0.0016 0.102206 0.839243 0.534064 1 
0.074 0.2159 -0.0014 0.825355 0.296 -0.480805 1 
0.0743 0.2153 -0.0011 0.00938825 0.870425 0.492212 1 
0.0743 0.2156 -0.0011 0.00938825 0.870425 0.492212 1 
0.0745 0.2156 -0.0008 0.00938825 0.870425 0.492212 1 
0.0745 0.2159 -0.001 0.229816 0.912037 0.339665 1 
0.0751 0.215 -0.0004 0.00666966 0.876393 0.48155 1 
0.0748 0.2153 -0.0007 -0.00398828 0.878751 0.477264 1 
0.0749 0.2154 -0.0005 -0.00398828 0.878751 0.477264 1 
0.0748 0.2156 -0.0007 -0.00398828 0.878751 0.477264 1 
0.0751 0.2153 -0.0002 0.0230325 0.865753 0.499942 1 
0.0751 0.2156 -0.0004 -0.00398828 0.878751 0.477264 1 
0.0752 0.2145 -0.0007 0.00666966 0.876393 0.48155 1 
0.0755 0.2147 -0.0002 0.062699 0.865246 0.497412 1 
0.0754 0.2153 -0.0002 0.031387 0.866553 0.498097 1 
0.074 0.2162 -0.0014 0.676744 -0.202868 -0.707716 1 
0.074 0.2165 -0.0016 0.565409 -0.269317 -0.779603 1 
0.0739 0.2165 -0.0014 0.60307 -0.250361 -0.757381 1 
0.0742 0.216 -0.0011 0.349019 0.87331 0.339875 1 
0.0757 0.2145 0.0004 0.0762845 0.95291 0.293501 1 
0.0755 0.215 0.0001 0.0620901 0.88168 0.467746 1 
0.0757 0.2151 0.0001 0.0736098 0.879151 0.470825 1 
0.0761 0.2147 0.0002 -0.651073 0.0558062 0.756961 1 
0.0761 0.2147 0.0004 -0.252289 0.785075 0.565692 1 
0.0763 0.2145 0.0005 -0.673764 -0.39565 0.624101 1 
0.0764 0.2147 0.0007 -0.679502 -0.370189 0.633434 1 
0.0764 0.2148 0.0005 -0.673764 -0.39565 0.624101 1 
0.0766 0.2148 0.0008 -0.68647 -0.337528 0.644075 1 
0.077 0.2148 0.0011 -0.593759 0.135419 0.793166 1 
0.0731 0.2192 -0.0038 -0.548075 -0.387742 0.741128 1 
0.073 0.2198 -0.0034 -0.548703 -0.391463 0.738702 1 
0.0733 0.2197 -0.0035 -0.573778 -0.415038 0.706061 1 
0.0733 0.22 -0.0034 -0.57322 -0.411331 0.708679 1 
0.0733 0.2204 -0.0035 -0.561108 -0.425383 0.710075 1 
0.0746 0.2183 -0.0032 -0.564966 0.262812 0.78214 1 
0.0737 0.2198 -0.0034 -0.555121 -0.461767 0.691818 1 
0.0737 0.22 -0.0034 -0.555121 -0.461767 0.691818 1 
0.074 0.2198 -0.0032 -0.591893 -0.375467 0.713223 1 
0.0748 0.2198 -0.0034 -0.527505 -0.393588 0.752879 1 
0.0731 0.2197 -0.0031 -0.573778 -0.415038 0.706061 1 
0.0734 0.2201 -0.0031 -0.578409 -0.422619 0.697737 1 
0.0736 0.2201 -0.0031 -0.569065 -0.423066 0.70511 1 
0.0743 0.2184 -0.0031 -0.580892 0.270661 0.767664 1 
0.0745 0.2188 -0.0029 -0.589747 0.292476 0.752766 1 
0.0751 0.2186 -0.0026 -0.565537 0.230863 0.791752 1 
0.0746 0.2192 -0.0023 -0.612448 0.0825284 0.786192 1 
0.0751 0.2192 -0.0019 -0.619468 0.0293653 0.784473 1 
0.0754 0.2186 -0.0022 -0.577904 0.21421 0.78749 1 
0.0737 0.2195 -0.0031 -0.563565 -0.463227 0.68397 1 
0.0737 0.2195 -0.0029 -0.582466 -0.426478 0.69199 1 
0.0737 0.2198 -0.0029 -0.590407 -0.3799 0.712107 1 
0.0737 0.2198 -0.0029 -0.590407 -0.3799 0.712107 1 
0.074 0.2198 -0.0029 -0.584245 -0.353151 0.730713 1 
0.074 0.2195 -0.0025 -0.634886 0.00137719 0.772605 1 
0.074 0.2198 -0.0026 -0.566387 -0.363989 0.739404 1 
0.0743 0.2198 -0.0025 -0.567845 -0.353072 0.743567 1 
0.0749 0.2192 -0.0029 -0.598531 -0.0642813 0.798517 1 
0.0748 0.2198 -0.0031 -0.532461 -0.394841 0.748723 1 
0.0751 0.2198 -0.0029 -0.5677 -0.334798 0.752082 1 
0.0745 0.2198 -0.0028 -0.543165 -0.380052 0.748687 1 
0.0748 0.2198 -0.0026 -0.56139 -0.356361 0.746893 1 
0.0745 0.2198 -0.0025 -0.550405 -0.380547 0.743128 1 
0.0751 0.2198 -0.0025 -0.595811 -0.303526 0.74356 1 
0.0737 0.2201 -0.0026 -0.59058 -0.361546 0.721457 1 
0.074 0.2203 -0.0025 -0.561247 -0.37471 0.737966 1 
0.0745 0.2195 -0.0022 -0.604001 -0.155142 0.781737 1 
0.0748 0.2198 -0.0023 -0.587986 -0.320573 0.742634 1 
0.0748 0.22 -0.0023 -0.581163 -0.331862 0.743046 1 
0.0746 0.2198 -0.002 -0.591496 -0.32073 0.739773 1 
0.0751 0.2198 -0.0023 -0.595228 -0.306438 0.742832 1 
0.0751 0.2197 -0.0017 -0.610612 -0.293286 0.735619 1 
0.0743 0.2201 -0.0019 -0.549748 -0.37683 0.745504 1 
0.0746 0.2201 -0.0022 -0.549748 -0.37683 0.745504 1 
0.0752 0.2198 -0.0028 -0.5785 -0.309281 0.754774 1 
0.0754 0.2198 -0.0025 -0.600509 -0.299454 0.741429 1 
0.0752 0.2194 -0.0017 -0.618174 -0.260866 0.741492 1 
0.0757 0.2197 -0.0019 -0.623026 -0.261576 0.737168 1 
0.076 0.2197 -0.0017 -0.620561 -0.265048 0.738007 1 
0.0757 0.22 -0.0017 -0.62496 -0.261059 0.735713 1 
0.0763 0.2192 -0.0022 -0.625405 -0.233547 0.74453 1 
0.0755 0.2192 -0.0016 -0.631283 -0.161984 0.758448 1 
0.076 0.2191 -0.001 -0.08404 0.899641 0.428466 1 
0.0763 0.2186 -0.0014 -0.6004 -0.16787 0.781882 1 
0.076 0.2191 -0.0013 -0.639796 -0.237369 0.73097 1 
0.0761 0.2192 -0.0008 -0.101169 0.864926 0.491597 1 
0.0766 0.2189 -0.0007 0.0492704 0.914831 0.400821 1 
0.0757 0.2192 -0.0014 -0.633627 -0.243703 0.734252 1 
0.0754 0.2198 -0.0016 -0.622507 -0.264526 0.736554 1 
0.0755 0.2197 -0.0014 -0.62496 -0.261059 0.735713 1 
0.0757 0.2198 -0.001 -0.633174 -0.254217 0.731071 1 
0.0763 0.22 -0.0014 -0.61649 -0.275588 0.737558 1 
0.0761 0.2192 -0.0011 -0.618139 -0.332595 0.712239 1 
0.0754 0.2201 -0.0014 -0.614329 -0.299947 0.729816 1 
0.0754 0.2201 -0.0013 -0.622407 -0.272204 0.733836 1 
0.0757 0.2201 -0.0014 -0.630765 -0.257681 0.73194 1 
0.0757 0.2201 -0.0013 -0.631276 -0.254725 0.732534 1 
0.0757 0.2201 -0.0011 -0.62496 -0.261059 0.735713 1 
0.0757 0.2201 -0.0008 -0.629815 -0.254136 0.733995 1 
0.0758 0.2206 -0.0011 -0.628855 -0.258195 0.733401 1 
0.076 0.2201 -0.0014 -0.620955 -0.271569 0.7353 1 
0.0767 0.2201 -0.0013 -0.0666918 0.821586 0.566171 1 
0.0761 0.2204 -0.0011 -0.623318 -0.27579 0.731721 1 
0.0763 0.2204 -0.0011 -0.62114 -0.28582 0.72972 1 
0.076 0.2203 -0.001 -0.624888 -0.268718 0.733011 1 
0.0761 0.2206 -0.0008 -0.625112 -0.282979 0.727432 1 
0.0764 0.2207 -0.0008 -0.629654 -0.30758 0.713393 1 
0.0763 0.2195 -0.0008 -0.609272 -0.184767 0.771134 1 
0.0763 0.2195 -0.0006 -0.590636 -0.100627 0.80064 1 
0.0761 0.2198 -0.0006 -0.635314 -0.381189 0.671618 1 
0.0766 0.2198 -0.0006 0.125284 0.902324 0.412451 1 
0.0766 0.2195 -0.0002 0.120258 0.889908 0.440002 1 
0.0761 0.2198 -0.0004 0.00133459 0.868817 0.495132 1 
0.0758 0.2207 -0.0008 -0.631739 -0.244188 0.735716 1 
0.0761 0.2201 -0.0008 -0.638678 -0.312063 0.703354 1 
0.0757 0.2216 -0.001 -0.601083 -0.296534 0.742137 1 
0.0754 0.2216 -0.0011 -0.582821 -0.364059 0.726485 1 
0.0757 0.2216 -0.0007 -0.610433 -0.240093 0.754803 1 
0.0763 0.2212 -0.0006 -0.613212 -0.267785 0.743143 1 
0.0766 0.2209 -0.0006 -0.614827 -0.311448 0.72456 1 
0.076 0.2213 -0.0005 -0.618718 -0.250321 0.744666 1 
0.0755 0.2222 -0.0008 -0.554899 -0.359626 0.750171 1 
0.0754 0.2219 -0.0004 -0.567837 -0.341349 0.749027 1 
0.0752 0.2225 -0.0008 -0.529544 -0.327966 0.782318 1 
0.0752 0.2225 -0.0006 -0.475208 -0.338526 0.812144 1 
0.0758 0.2225 -0.0002 -0.573367 -0.273257 0.772387 1 
0.0769 0.2197 -0.002 -0.587718 -0.34677 0.730984 1 
0.0769 0.2195 -0.0017 0.0117378 0.911639 0.410824 1 
0.077 0.2204 -0.0023 -0.626716 -0.275883 0.728777 1 
0.0769 0.2207 -0.0019 -0.616624 -0.289893 0.731941 1 
0.0775 0.2177 -0.0008 0.221138 0.912014 0.345438 1 
0.077 0.218 -0.0011 0.0805444 0.910561 0.405452 1 
0.0773 0.218 -0.0006 0.221986 0.906804 0.358369 1 
0.0776 0.2181 -0.0002 0.201734 0.884977 0.419665 1 
0.0769 0.2184 -0.0008 0.0745357 0.914756 0.397072 1 
0.077 0.2186 -0.0004 0.175702 0.909938 0.375689 1 
0.0772 0.2189 -0.0001 0.232881 0.885539 0.401978 1 
0.079 0.2183 -0.0008 0.458824 0.885958 0.0675147 1 
0.079 0.2183 -0.0006 0.458824 0.885958 0.0675147 1 
0.0787 0.2189 -0.0005 0.0498965 0.757001 0.651506 1 
0.0787 0.2188 -0.0002 0.409715 0.87796 0.24763 1 
0.079 0.2188 -0.0002 0.456558 0.886908 0.0703458 1 
0.0793 0.2186 -0.0006 0.322288 0.882132 0.343472 1 
0.0793 0.2186 -0.0002 0.430106 0.867758 0.249009 1 
0.0769 0.2197 -0.0014 0.0250058 0.912055 0.409306 1 
0.0772 0.2198 -0.0013 0.0527419 0.899316 0.434106 1 
0.0773 0.2201 -0.0016 0.0442652 0.902743 0.427897 1 
0.0769 0.2203 -0.001 0.125284 0.902324 0.412451 1 
0.077 0.2195 -0.0002 0.156641 0.862259 0.481635 1 
0.0773 0.2192 -0.0001 0.220053 0.86674 0.447591 1 
0.0772 0.2198 -0.0004 0.173597 0.850179 0.497051 1 
0.0772 0.2198 -0.0001 0.228124 0.83135 0.506771 1 
0.0767 0.2195 0.0001 0.17285 0.858338 0.483092 1 
0.079 0.2175 0.0011 0.498514 -0.0833211 -0.862868 1 
0.079 0.2172 0.0013 0.338418 -0.296674 -0.893005 1 
0.0791 0.2174 0.0013 0.379017 -0.234489 -0.895188 1 
0.0799 0.2169 0.001 -0.180066 -0.567435 -0.803488 1 
0.0796 0.2174 0.001 0.384461 -0.111618 -0.916368 1 
0.0778 0.218 0.0001 0.224997 0.895578 0.383819 1 
0.0779 0.218 0.0007 0.330131 0.918936 0.2158 1 
0.0781 0.2183 0.0005 0.420141 0.898282 0.12873 1 
0.0776 0.2184 0.0001 0.193366 0.849913 0.490161 1 
0.0779 0.2189 0.0001 0.176323 0.818318 0.547052 1 
0.0782 0.2189 0.0004 0.324513 0.872986 0.364125 1 
0.0781 0.2188 0.0005 0.324513 0.872986 0.364125 1 
0.0781 0.2184 0.0007 0.406718 0.902716 0.140297 1 
0.0779 0.2184 0.001 0.346127 0.910937 0.224476 1 
0.0781 0.2192 0.0013 0.438765 0.873068 0.21269 1 
0.0787 0.2177 0.0007 0.459279 -0.00131599 -0.888291 1 
0.079 0.218 0.0007 0.459279 -0.00131599 -0.888291 1 
0.0788 0.2189 0.0001 0.366227 0.889409 0.273549 1 
0.079 0.2189 0.0001 0.418048 0.889991 0.182077 1 
0.0787 0.2188 0.0007 -0.38842 0.262446 0.883319 1 
0.079 0.2188 0.0005 0.468752 0.868871 0.159171 1 
0.0784 0.2191 0.0005 0.321572 0.863168 0.389272 1 
0.0788 0.2192 0.0005 0.446106 0.857194 0.25731 1 
0.0793 0.2189 0.0001 0.430106 0.867758 0.249009 1 
0.0791 0.2177 0.0008 0.476151 -0.00397898 -0.879354 1 
0.0794 0.2181 0.0008 0.476151 -0.00397898 -0.879354 1 
0.0793 0.2177 0.0013 0.379017 -0.234489 -0.895188 1 
0.0775 0.2195 0.0001 0.235759 0.84721 0.47608 1 
0.0781 0.2195 0.0004 0.228634 0.820936 0.523251 1 
0.0784 0.2192 0.0001 0.170043 0.814099 0.555273 1 
0.0784 0.2194 0.0007 0.310222 0.837132 0.450524 1 
0.079 0.2198 0.0007 -0.261362 0.383829 0.885644 1 
0.0793 0.2195 0.0004 0.487565 0.855091 0.176353 1 
0.0862 0.2135 0.0189 -0.540859 0.750013 -0.380726 1 
0.0868 0.2144 0.0191 -0.0353674 0.142611 -0.989147 1 
0.0856 0.2138 0.0194 0.489288 -0.104134 -0.865883 1 
0.0856 0.2138 0.0197 -0.402378 0.601083 -0.6905 1 
0.0859 0.2141 0.0195 -0.0369225 0.322117 -0.94598 1 
0.0865 0.2139 0.0194 -0.0427187 0.238004 -0.970324 1 
0.0871 0.2138 0.0195 -0.0795483 0.246221 -0.965944 1 
0.0868 0.2144 0.0197 -0.0303752 0.129376 -0.99113 1 
0.0874 0.2141 0.0197 -0.0100817 0.146744 -0.989123 1 
0.0874 0.2135 0.0201 -0.102398 0.268309 -0.957875 1 
0.0862 0.2145 0.0195 -0.0284999 0.149339 -0.988375 1 
0.0862 0.2144 0.0198 -0.0415837 0.193661 -0.980187 1 
0.0862 0.215 0.0198 -0.0752426 0.121546 -0.98973 1 
0.0864 0.2153 0.0198 -0.0618822 0.0956362 -0.993491 1 
0.0862 0.2159 0.0198 -0.0714794 0.0964404 -0.992769 1 
0.0862 0.2153 0.0201 -0.0944154 0.108403 -0.989613 1 
0.0853 0.2165 0.02 -0.233615 0.142257 -0.961866 1 
0.0868 0.2147 0.0195 -0.0460828 0.113521 -0.992466 1 
0.0865 0.2147 0.0197 -0.0467218 0.131049 -0.990274 1 
0.0865 0.2144 0.0198 -0.0284999 0.149339 -0.988375 1 
0.0865 0.2157 0.02 -0.0637355 0.0883351 -0.99405 1 
0.0868 0.2171 0.0198 -0.0870324 0.0182661 -0.996038 1 
0.0876 0.2168 0.0195 -0.0461042 0.00512268 -0.998923 1 
0.0873 0.2174 0.0195 -0.0521826 -0.0394032 -0.99786 1 
0.0879 0.2174 0.0195 0.03895 -0.290241 -0.956161 1 
0.0873 0.2174 0.0198 -0.0565495 -0.039478 -0.997619 1 
0.0891 0.2165 0.02 0.0354267 -0.245544 -0.968738 1 
0.0894 0.2168 0.02 0.033596 -0.447499 -0.893653 1 
0.0885 0.2174 0.0194 0.0545451 -0.389798 -0.919284 1 
0.0891 0.2171 0.0195 0.0224092 -0.417866 -0.908232 1 
0.0889 0.2175 0.0194 0.0224092 -0.417866 -0.908232 1 
0.0888 0.2171 0.0197 0.0559515 -0.334408 -0.940766 1 
0.0901 0.2175 0.0195 0.0144738 -0.4329 -0.901326 1 
0.09 0.2168 0.02 0.0228197 -0.465791 -0.8846 1 
0.0898 0.2174 0.0197 0.00653303 -0.429874 -0.902865 1 
0.0907 0.2171 0.0195 0.0473484 -0.439664 -0.896914 1 
0.0904 0.2169 0.02 0.0593184 -0.478685 -0.87598 1 
0.0894 0.2198 0.0188 -0.0222319 -0.398867 -0.916739 1 
0.0877 0.218 0.0198 0.0407102 -0.382151 -0.923203 1 
0.0891 0.2177 0.0192 0.00653303 -0.429874 -0.902865 1 
0.0894 0.2177 0.0195 0.00653303 -0.429874 -0.902865 1 
0.0895 0.2181 0.0192 0.00653303 -0.429874 -0.902865 1 
0.09 0.2189 0.0185 -0.0416925 -0.434409 -0.89975 1 
0.0903 0.2189 0.0185 -0.0416925 -0.434409 -0.89975 1 
0.09 0.2189 0.0189 -0.0416925 -0.434409 -0.89975 1 
0.0897 0.2191 0.0189 -0.00392971 -0.441437 -0.897283 1 
0.0903 0.2189 0.0189 -0.0416925 -0.434409 -0.89975 1 
0.0903 0.2189 0.0191 -0.0416925 -0.434409 -0.89975 1 
0.09 0.218 0.0192 0.0144738 -0.4329 -0.901326 1 
0.0904 0.2178 0.0195 0.0389612 -0.436634 -0.898795 1 
0.0909 0.2178 0.0197 0.0362803 -0.447457 -0.893569 1 
0.0876 0.2109 0.0115 -0.313897 0.384332 0.868192 1 
0.0888 0.2112 0.0117 -0.19728 0.40479 0.892875 1 
0.0894 0.2112 0.012 -0.144749 0.383656 0.912061 1 
0.0891 0.2106 0.0121 -0.205612 0.352272 0.913032 1 
0.0891 0.2114 0.0108 -0.156414 0.295146 0.942562 1 
0.0894 0.2114 0.0111 -0.119413 0.309937 0.943228 1 
0.0886 0.2121 0.0108 -0.222098 0.127097 0.966705 1 
0.0886 0.2123 0.0111 -0.262293 0.262293 0.928658 1 
0.0892 0.2121 0.0111 -0.189502 0.163719 0.968135 1 
0.0867 0.2123 0.0112 -0.0564485 0.132481 0.989577 1 
0.0874 0.2121 0.0114 -0.146631 0.281155 0.948394 1 
0.0874 0.2124 0.0114 -0.126854 0.219111 0.967419 1 
0.0885 0.2114 0.012 -0.254273 0.413758 0.874157 1 
0.0886 0.2117 0.0117 -0.265463 0.417156 0.869201 1 
0.0891 0.2118 0.0118 -0.198525 0.349919 0.915502 1 
0.0894 0.2118 0.0118 -0.218932 0.324821 0.920087 1 
0.0883 0.2123 0.0114 -0.264991 0.329408 0.906239 1 
0.0885 0.2123 0.0114 -0.2803 0.294823 0.913516 1 
0.0883 0.2123 0.012 -0.371112 0.441193 0.817083 1 
0.0891 0.2114 0.0121 -0.184074 0.401483 0.897178 1 
0.0892 0.2117 0.0123 -0.223624 0.369784 0.901805 1 
0.0894 0.2124 0.012 -0.254371 0.24875 0.934569 1 
0.0892 0.2126 0.0121 -0.282419 0.282419 0.916776 1 
0.0892 0.2124 0.0123 -0.287672 0.299354 0.909743 1 
0.0894 0.2127 0.0126 -0.279809 0.366594 0.887308 1 
0.0888 0.2135 0.012 -0.314506 -0.0769952 0.946128 1 
0.0891 0.213 0.0114 -0.318455 0.0112396 0.947871 1 
0.0891 0.2129 0.0118 -0.266491 0.105297 0.958068 1 
0.0894 0.2129 0.0118 -0.274402 0.0594328 0.959777 1 
0.0894 0.2132 0.012 -0.370284 0.0848287 0.925037 1 
0.0885 0.2129 0.0123 -0.404786 0.333445 0.851447 1 
0.0891 0.213 0.0121 -0.405434 0.337085 0.849704 1 
0.0888 0.2136 0.0123 -0.323421 -0.0610472 0.944284 1 
0.0891 0.2138 0.0123 -0.36956 -0.116776 0.92184 1 
0.0895 0.2136 0.0126 -0.680286 -0.00415653 0.732935 1 
0.0895 0.2141 0.0127 -0.491017 -0.153901 0.857448 1 
0.0897 0.2112 0.0123 -0.133665 0.398181 0.907516 1 
0.0903 0.2108 0.012 0.0528735 0.440613 0.896139 1 
0.091 0.2105 0.012 0.145374 0.447637 0.88232 1 
0.091 0.2105 0.0123 0.115512 0.466327 0.877038 1 
0.0915 0.2102 0.012 0.274876 0.489185 0.827733 1 
0.0919 0.21 0.0126 0.272147 0.415063 0.868135 1 
0.0912 0.2106 0.0121 0.155743 0.464317 0.871868 1 
0.0916 0.2108 0.0123 0.223382 0.553063 0.802634 1 
0.0942 0.2088 0.0114 0.235772 0.19266 0.95252 1 
0.0942 0.2088 0.0118 0.284185 0.161809 0.945017 1 
0.0931 0.2091 0.012 0.210704 0.31252 0.926248 1 
0.0938 0.2091 0.012 0.20319 0.269538 0.941309 1 
0.0931 0.21 0.0117 0.159594 0.129902 0.978598 1 
0.0936 0.21 0.0117 0.152906 -0.0951145 0.983653 1 
0.0944 0.21 0.0118 0.172262 -0.267209 0.948117 1 
0.093 0.2108 0.0121 0.0967251 -0.108379 0.989393 1 
0.0939 0.2108 0.0121 0.124261 -0.22162 0.967184 1 
0.0944 0.2109 0.0123 0.172579 -0.27042 0.947148 1 
0.0942 0.2105 0.0127 0.13783 -0.245468 0.959556 1 
0.0957 0.2099 0.0115 0.0959758 -0.249537 0.963597 1 
0.0953 0.2103 0.0114 0.126092 -0.280058 0.951666 1 
0.0959 0.2102 0.0114 0.076664 -0.245073 0.966469 1 
0.0957 0.2102 0.0114 0.0910506 -0.262892 0.960519 1 
0.0948 0.2108 0.0114 0.195333 -0.286765 0.937876 1 
0.0947 0.2109 0.0117 0.205064 -0.285973 0.936039 1 
0.0954 0.2103 0.0123 0.121318 -0.294629 0.947879 1 
0.0957 0.2102 0.0121 0.121318 -0.294629 0.947879 1 
0.0945 0.2106 0.0123 0.172262 -0.267209 0.948117 1 
0.0948 0.2105 0.012 0.158863 -0.252313 0.954516 1 
0.096 0.21 0.0111 0.0563422 -0.264182 0.962826 1 
0.0963 0.21 0.0112 0.0642196 -0.260656 0.963293 1 
0.0968 0.21 0.0108 -0.0237592 -0.306368 0.951617 1 
0.0966 0.2102 0.0112 0.0642196 -0.260656 0.963293 1 
0.0962 0.2102 0.0114 0.0563422 -0.264182 0.962826 1 
0.0968 0.21 0.0114 0.0365349 -0.298578 0.953686 1 
0.0966 0.2106 0.0126 0.0315046 -0.306224 0.951438 1 
0.0978 0.2097 0.0123 -0.376462 -0.757813 0.532913 1 
0.0903 0.2117 0.0115 -0.0633813 0.24234 0.968119 1 
0.0907 0.2115 0.012 0.0851673 0.374466 0.923321 1 
0.0909 0.2115 0.0118 0.0968634 0.317128 0.943423 1 
0.0897 0.212 0.0118 -0.222317 0.247173 0.943123 1 
0.0897 0.2114 0.0123 -0.143436 0.363465 0.920499 1 
0.0898 0.2115 0.0123 -0.131555 0.366969 0.920884 1 
0.0897 0.2118 0.012 -0.182641 0.310909 0.932726 1 
0.09 0.2118 0.0121 -0.179931 0.287065 0.94086 1 
0.0903 0.2118 0.0121 -0.0356141 0.254211 0.966493 1 
0.0897 0.212 0.0126 -0.243515 0.339754 0.908442 1 
0.0907 0.2112 0.0123 -0.0225515 0.433785 0.900734 1 
0.0904 0.2115 0.0123 -0.0219328 0.372858 0.927629 1 
0.0909 0.2114 0.0126 -0.465519 0.134035 0.87483 1 
0.0906 0.2118 0.0126 -0.0607079 0.408766 0.910618 1 
0.0897 0.212 0.0126 -0.243515 0.339754 0.908442 1 
0.09 0.212 0.0124 -0.140284 0.279231 0.949921 1 
0.09 0.2121 0.0124 -0.1117 0.282534 0.952732 1 
0.0903 0.212 0.0126 -0.0698694 0.341437 0.937304 1 
0.09 0.2124 0.0124 -0.118012 0.250288 0.960952 1 
0.0903 0.2126 0.0127 0.2379 0.297731 0.924532 1 
0.0897 0.213 0.012 -0.260662 0.0511346 0.964075 1 
0.0897 0.2133 0.0123 -0.523809 -0.0748299 0.848543 1 
0.0901 0.213 0.0126 -0.403051 0.130605 0.90581 1 
0.0944 0.2114 0.012 0.222244 -0.301516 0.927198 1 
0.0933 0.2115 0.0127 0.119169 -0.354768 0.927329 1 
0.095 0.2114 0.0118 0.176933 -0.31625 0.932031 1 
0.0948 0.2118 0.012 0.165634 -0.33266 0.928387 1 
0.0954 0.2114 0.0118 0.107992 -0.315978 0.9426 1 
0.0945 0.2115 0.0123 0.175867 -0.308805 0.934725 1 
0.095 0.2118 0.012 0.165634 -0.33266 0.928387 1 
0.0954 0.2118 0.012 0.108671 -0.447385 0.887714 1 
0.0954 0.212 0.0123 0.108671 -0.447385 0.887714 1 
0.0957 0.212 0.0121 0.0446496 -0.445143 0.894346 1 
0.0957 0.2121 0.0124 0.117172 -0.439044 0.890793 1 
0.0892 0.2114 0.0139 -0.471566 0.432405 0.768539 1 
0.0922 0.2112 0.0156 0.315093 -0.722289 0.615642 1 
0.0933 0.2106 0.0159 0.253309 -0.602592 0.756781 1 
0.0931 0.2111 0.0159 0.331593 -0.848441 0.412545 1 
0.0933 0.2111 0.0159 0.340261 -0.849876 0.402409 1 
0.0972 0.2103 0.0129 -0.0911876 -0.46155 0.882415 1 
0.0904 0.2142 0.0129 -0.40962 -0.267538 0.872144 1 
0.0933 0.2114 0.0132 0.0178433 -0.998173 0.0577282 1 
0.0903 0.2147 0.0132 -0.479811 -0.206063 0.85283 1 
0.0904 0.2145 0.013 -0.464428 -0.204587 0.861656 1 
0.0879 0.2094 0.0127 -0.347089 0.350147 0.870015 1 
0.0871 0.2103 0.0118 -0.186752 0.360675 0.913804 1 
0.0874 0.21 0.012 -0.333445 0.404786 0.851447 1 
0.0879 0.2102 0.0118 -0.261264 0.377713 0.888298 1 
0.0871 0.2112 0.0114 -0.251358 0.385218 0.887934 1 
0.0868 0.2108 0.012 -0.242049 0.387575 0.889493 1 
0.0877 0.2097 0.0126 -0.362153 0.355989 0.861462 1 
0.0883 0.2102 0.0124 -0.247818 0.378405 0.891849 1 
0.0882 0.2106 0.0126 -0.300906 0.392552 0.869114 1 
0.0885 0.2108 0.0127 -0.268638 0.382697 0.883955 1 
0.0864 0.2124 0.0114 0.032324 0.21669 0.975705 1 
0.087 0.2115 0.0117 -0.120219 0.322835 0.938789 1 
0.0868 0.212 0.0115 -0.0629584 0.228379 0.971535 1 
0.0868 0.212 0.012 -0.0084204 0.258627 0.965941 1 
0.0922 0.2075 0.0124 0.404906 0.161676 0.899951 1 
0.0933 0.2079 0.0115 0.164362 0.355415 0.920144 1 
0.0909 0.2088 0.0118 0.255711 0.460892 0.849818 1 
0.0915 0.2085 0.0127 0.356535 0.365795 0.859696 1 
0.093 0.2082 0.0118 0.247067 0.346478 0.904937 1 
0.0928 0.2085 0.0121 0.29085 0.293773 0.910551 1 
0.0883 0.2088 0.0132 -0.209594 0.180593 0.960967 1 
0.0886 0.2093 0.0132 -0.250093 0.28725 0.92463 1 
0.0882 0.2097 0.0132 -0.345104 0.360442 0.866594 1 
0.0891 0.2099 0.0132 -0.292019 0.376749 0.879082 1 
0.0891 0.2099 0.0135 -0.28273 0.357527 0.890077 1 
0.0883 0.2105 0.0129 -0.290701 0.400285 0.86906 1 
0.0885 0.2105 0.0132 -0.397181 0.445421 0.802401 1 
0.0882 0.2106 0.0133 -0.400455 0.442269 0.802517 1 
0.0894 0.2102 0.0138 -0.302249 0.409647 0.860718 1 
0.0882 0.2106 0.0136 -0.418193 0.437569 0.79602 1 
0.0882 0.2106 0.0138 -0.445573 0.422889 0.789069 1 
0.0889 0.2111 0.0138 -0.415871 0.448235 0.791288 1 
0.0892 0.2112 0.0136 -0.525583 0.288834 0.800211 1 
0.0889 0.2111 0.0144 -0.157318 0.576832 0.801571 1 
0.0886 0.2109 0.015 -0.597588 0.402254 0.693599 1 
0.0894 0.2112 0.0144 -0.556058 0.407556 0.72436 1 
0.0892 0.2114 0.0147 0.753437 0.642594 0.139304 1 
0.0906 0.207 0.0132 0.0677873 -0.223082 0.97244 1 
0.091 0.2076 0.013 0.161614 -0.0601628 0.985018 1 
0.091 0.2078 0.0132 0.145079 0.147559 0.978355 1 
0.0912 0.2076 0.0139 0.112374 -0.289528 0.95055 1 
0.0912 0.2076 0.0142 0.110999 -0.314274 0.942821 1 
0.0918 0.2075 0.0135 0.255294 -0.112744 0.960268 1 
0.0913 0.2079 0.0135 0.146761 0.0473795 0.988037 1 
0.0927 0.2073 0.0132 0.492883 0.0800408 0.866406 1 
0.0924 0.207 0.0138 0.281647 -0.152278 0.947358 1 
0.0924 0.2079 0.0138 -0.138856 -0.774904 0.616638 1 
0.0933 0.207 0.0136 0.565649 0.0206441 0.824388 1 
0.0936 0.207 0.0136 0.573732 0.00408835 0.819033 1 
0.0939 0.207 0.0135 0.455845 0.562709 0.689611 1 
0.0942 0.2069 0.0135 0.554251 0.487272 0.674813 1 
0.093 0.2076 0.0135 0.490302 0.427989 0.75923 1 
0.0909 0.2082 0.0135 0.101414 0.101414 0.989662 1 
0.091 0.2084 0.0136 0.0579662 0.0221326 0.998073 1 
0.0904 0.2085 0.0135 -0.10541 0.0141271 0.994329 1 
0.0903 0.2088 0.0132 -0.0411772 0.182356 0.98237 1 
0.0903 0.2094 0.0133 -0.126596 0.330783 0.935177 1 
0.0906 0.2094 0.013 0.0602901 0.392556 0.91775 1 
0.0897 0.2085 0.0136 -0.201023 -0.00813389 0.979553 1 
0.0903 0.2085 0.0138 -0.111848 -0.0276851 0.99334 1 
0.0909 0.2088 0.0138 0.0916876 0.0183375 0.995619 1 
0.0897 0.2091 0.0139 -0.253575 0.135327 0.957803 1 
0.0903 0.2091 0.0136 -0.114752 0.171511 0.978476 1 
0.09 0.2094 0.0136 -0.289797 0.286885 0.91308 1 
0.0906 0.2091 0.0138 -0.00548071 0.126056 0.992008 1 
0.0906 0.2094 0.0141 -0.103935 0.103935 0.989138 1 
0.0915 0.2082 0.0138 0.240709 -0.0555481 0.969007 1 
0.0912 0.2088 0.0138 0.266584 0.00361879 0.963805 1 
0.0915 0.2087 0.0141 -0.0701777 -0.444459 0.893046 1 
0.0918 0.2085 0.0142 -0.762455 -0.639052 -0.101367 1 
0.0924 0.2082 0.0141 0.106579 -0.588375 0.801533 1 
0.0903 0.2102 0.013 -0.111597 0.450625 0.885711 1 
0.0901 0.2106 0.013 -0.221656 0.468947 0.854961 1 
0.0919 0.2091 0.0151 -0.255491 -0.559573 0.788418 1 
0.0913 0.2094 0.0148 -0.514081 -0.507383 0.691581 1 
0.091 0.2097 0.0147 -0.651187 -0.421356 0.631201 1 
0.091 0.21 0.015 -0.541136 -0.464544 0.700979 1 
0.0897 0.2102 0.0153 -0.466123 -0.446496 0.763787 1 
0.0903 0.21 0.0154 -0.430666 -0.456668 0.778448 1 
0.0903 0.2109 0.0154 -0.544855 -0.226894 0.80725 1 
0.0903 0.2108 0.0156 -0.432405 -0.471566 0.768539 1 
0.0913 0.2099 0.0151 -0.488001 -0.501325 0.714513 1 
0.0918 0.2102 0.0153 -0.446493 -0.436751 0.780956 1 
0.0915 0.2108 0.0153 -0.474187 -0.510791 0.717104 1 
0.0921 0.2106 0.0154 0.018134 -0.746285 0.665379 1 
0.0921 0.2031 0.0112 0.467974 -0.425579 0.774521 1 
0.0921 0.2031 0.0114 0.467974 -0.425579 0.774521 1 
0.0909 0.2046 0.0123 0.31071 -0.236254 0.920675 1 
0.0912 0.2046 0.0127 0.264258 -0.298915 0.916961 1 
0.0918 0.204 0.0115 0.467974 -0.425579 0.774521 1 
0.0918 0.2032 0.0118 0.467974 -0.425579 0.774521 1 
0.0919 0.2034 0.0118 0.467974 -0.425579 0.774521 1 
0.0916 0.2034 0.012 0.467974 -0.425579 0.774521 1 
0.0919 0.2034 0.012 0.467974 -0.425579 0.774521 1 
0.0918 0.204 0.0118 0.467974 -0.425579 0.774521 1 
0.0921 0.2037 0.0114 0.467974 -0.425579 0.774521 1 
0.0924 0.204 0.012 0.467974 -0.425579 0.774521 1 
0.0915 0.2037 0.0123 0.272951 -0.390577 0.879174 1 
0.0922 0.2038 0.012 0.467974 -0.425579 0.774521 1 
0.0921 0.204 0.0123 0.467974 -0.425579 0.774521 1 
0.0925 0.2038 0.0127 0.467974 -0.425579 0.774521 1 
0.0916 0.2043 0.0124 0.287506 -0.316994 0.903801 1 
0.0921 0.2046 0.0123 0.223259 -0.400683 0.888599 1 
0.0921 0.2043 0.0124 0.168578 -0.46469 0.869278 1 
0.0933 0.2043 0.0114 0.467974 -0.425579 0.774521 1 
0.0888 0.2046 0.0132 0.0263413 -0.304807 0.95205 1 
0.0889 0.2046 0.0132 0.0263413 -0.304807 0.95205 1 
0.0922 0.2037 0.0129 0.467974 -0.425579 0.774521 1 
0.0871 0.2079 0.0123 -0.222589 0.253005 0.941511 1 
0.0871 0.2075 0.0124 -0.146045 0.315293 0.937689 1 
0.0876 0.2079 0.0123 -0.219804 0.255747 0.941424 1 
0.0874 0.2076 0.0126 -0.193031 0.238927 0.951658 1 
0.0864 0.2088 0.0127 -0.356311 0.319922 0.877891 1 
0.0871 0.2082 0.0126 -0.285386 0.242791 0.92715 1 
0.087 0.2084 0.0127 -0.283725 0.269323 0.920307 1 
0.0871 0.2085 0.0127 -0.303143 0.265432 0.915232 1 
0.0876 0.2082 0.0123 -0.253388 0.242189 0.936557 1 
0.0873 0.2081 0.0126 -0.260984 0.249699 0.93249 1 
0.0865 0.2091 0.0121 -0.319621 0.325624 0.889838 1 
0.087 0.2093 0.0123 -0.351477 0.333218 0.874888 1 
0.0865 0.209 0.0124 -0.32918 0.320161 0.888334 1 
0.0867 0.2091 0.0126 -0.295688 0.331348 0.895978 1 
0.0931 0.2058 0.012 0.18469 -0.304114 0.934561 1 
0.0859 0.2079 0.0132 -0.142882 0.308898 0.940301 1 
0.0864 0.2073 0.0132 -0.134696 0.278728 0.950877 1 
0.0859 0.2066 0.0138 -0.0766126 0.305152 0.949217 1 
0.0861 0.2067 0.0138 -0.0928922 0.294377 0.951164 1 
0.0862 0.207 0.0136 -0.107266 0.303258 0.946852 1 
0.0868 0.2063 0.0135 -0.0748532 0.155647 0.984973 1 
0.0888 0.2049 0.0133 0.0227728 -0.23372 0.972037 1 
0.088 0.2058 0.013 -0.0482094 0.170497 0.984178 1 
0.088 0.2059 0.013 -0.0481172 0.167823 0.984642 1 
0.0888 0.2064 0.0133 -0.081383 -0.00317077 0.996678 1 
0.0891 0.2061 0.0138 -0.0684587 -0.0488991 0.996455 1 
0.0871 0.2064 0.0132 -0.0741356 0.193239 0.978347 1 
0.0865 0.2069 0.0135 -0.0912754 0.263542 0.96032 1 
0.0865 0.2072 0.0135 -0.138764 0.260348 0.955491 1 
0.0871 0.2069 0.0135 -0.119478 0.163821 0.979228 1 
0.0868 0.2072 0.0135 -0.113458 0.225641 0.967581 1 
0.0874 0.2067 0.013 -0.119478 0.163821 0.979228 1 
0.0874 0.207 0.0135 -0.119478 0.163821 0.979228 1 
0.0877 0.2069 0.0133 -0.147 0.137117 0.979587 1 
0.0868 0.2076 0.013 -0.146045 0.315293 0.937689 1 
0.0871 0.2076 0.013 -0.173528 0.280104 0.944156 1 
0.0877 0.2078 0.0133 -0.207435 0.165687 0.964115 1 
0.0876 0.207 0.0136 -0.147 0.137117 0.979587 1 
0.0882 0.2079 0.0133 -0.170509 0.170509 0.970491 1 
0.0889 0.2066 0.0138 -0.135061 0.0786878 0.987708 1 
0.0888 0.207 0.0139 -0.13218 0.0563201 0.989624 1 
0.0891 0.207 0.0138 -0.140523 0.0592286 0.988304 1 
0.0885 0.2079 0.0136 -0.187273 0.126943 0.974071 1 
0.0888 0.2076 0.0138 -0.139396 0.0737977 0.987483 1 
0.0889 0.2073 0.0136 -0.126225 0.0955538 0.987389 1 
0.0888 0.2076 0.0136 -0.133268 0.0884521 0.987125 1 
0.0859 0.2081 0.013 -0.113064 0.304607 0.945744 1 
0.0867 0.2082 0.0129 -0.259677 0.220795 0.940116 1 
0.0865 0.2081 0.0132 -0.23845 0.227423 0.944151 1 
0.0868 0.2085 0.013 -0.285386 0.242791 0.92715 1 
0.0871 0.2088 0.013 -0.332749 0.279509 0.90064 1 
0.0876 0.2082 0.013 -0.241997 0.2337 0.941712 1 
0.0879 0.2084 0.0132 -0.228192 0.180151 0.956804 1 
0.0877 0.2084 0.0132 -0.243455 0.218697 0.944935 1 
0.0871 0.2091 0.0129 -0.398064 0.297404 0.867811 1 
0.0868 0.209 0.0139 -0.433384 0.218926 0.874214 1 
0.0897 0.2061 0.0136 -0.00792442 -0.166413 0.986024 1 
0.0927 0.23 -0.0262 0.667619 0.199821 0.717187 0 
0.0939 0.2302 -0.0273 0.713678 0.101534 0.693077 0 
0.093 0.2299 -0.0264 0.704363 0.182613 0.685948 0 
0.0936 0.23 -0.0264 0.737953 0.172647 0.652394 0 
0.0936 0.2303 -0.0264 0.744573 0.162259 0.647521 0 
0.0938 0.2302 -0.027 0.73572 0.113985 0.667625 0 
0.0936 0.2302 -0.0267 0.750184 0.145827 0.644948 0 
0.0928 0.2293 -0.0262 0.672243 0.230349 0.703583 0 
0.093 0.2296 -0.0261 0.680257 0.220497 0.699022 0 
0.093 0.2293 -0.0258 0.6675 0.272416 0.692989 0 
0.093 0.2296 -0.0258 0.667168 0.265912 0.695829 0 
0.093 0.2293 -0.0257 0.652845 0.287123 0.700966 0 
0.0933 0.2299 -0.0263 0.720741 0.206148 0.661842 0 
0.0934 0.23 -0.0262 0.720741 0.206148 0.661842 0 
0.093 0.2297 -0.026 0.684258 0.234378 0.69055 0 
0.093 0.2297 -0.0257 0.667168 0.265912 0.695829 0 
0.0933 0.2299 -0.0257 0.682518 0.244319 0.688823 0 
0.0936 0.2299 -0.0257 0.70921 0.223879 0.668505 0 
0.093 0.23 -0.026 0.70472 0.213127 0.676718 0 
0.0933 0.2302 -0.026 0.73586 0.202942 0.646007 0 
0.0936 0.2302 -0.026 0.754005 0.216096 0.620305 0 
0.0939 0.2302 -0.0258 0.765959 0.22932 0.600599 0 
0.0939 0.2305 -0.0272 0.723377 0.107989 0.681956 0 
0.0938 0.2305 -0.027 0.743282 0.126611 0.656888 0 
0.0939 0.2308 -0.0269 0.734853 0.126699 0.666287 0 
0.0938 0.2308 -0.0272 0.554792 -0.678824 -0.481044 0 
0.0938 0.2311 -0.0272 0.585773 -0.672554 -0.452263 0 
0.0938 0.2311 -0.027 0.554792 -0.678824 -0.481044 0 
0.0936 0.2305 -0.0267 0.743479 0.142688 0.65336 0 
0.0938 0.2308 -0.0267 0.743282 0.126611 0.656888 0 
0.0939 0.2306 -0.0267 0.756175 0.139256 0.63938 0 
0.0939 0.2311 -0.0267 0.551205 -0.681886 -0.480838 0 
0.0942 0.2311 -0.0264 0.760636 0.152127 0.631102 0 
0.0939 0.2313 -0.0272 0.609871 -0.669695 -0.423752 0 
0.0941 0.2313 -0.0267 0.554792 -0.678824 -0.481044 0 
0.0941 0.2314 -0.0267 0.567933 -0.675154 -0.470765 0 
0.0934 0.2305 -0.0262 0.756781 0.165309 0.63242 0 
0.0936 0.2309 -0.0264 0.754569 0.142513 0.640559 0 
0.0936 0.2305 -0.0264 0.748323 0.152688 0.645523 0 
0.0939 0.2305 -0.0264 0.752761 0.149345 0.641129 0 
0.0939 0.2305 -0.0261 0.762022 0.181725 0.621529 0 
0.0942 0.2308 -0.0263 0.772805 0.152151 0.616135 0 
0.0942 0.2306 -0.026 0.758907 0.171857 0.628113 0 
0.0942 0.2305 -0.0257 0.779368 0.194459 0.595627 0 
0.0942 0.2314 -0.0263 0.551205 -0.681886 -0.480838 0 
0.0945 0.2314 -0.0266 0.567933 -0.675154 -0.470765 0 
0.0945 0.2313 -0.0264 0.539887 -0.686977 -0.4864 0 
0.0945 0.2311 -0.026 0.776657 0.168049 0.607094 0 
0.0945 0.2308 -0.0257 0.786452 0.200829 0.58409 0 
0.0945 0.2313 -0.0263 0.539887 -0.686977 -0.4864 0 
0.0894 0.2237 -0.0192 -0.471045 0.770948 0.428667 0 
0.0895 0.2242 -0.0195 -0.484227 0.753424 0.444832 0 
0.0891 0.2236 -0.019 -0.464244 0.776998 0.42515 0 
0.0894 0.2239 -0.0191 -0.471045 0.770948 0.428667 0 
0.0895 0.2239 -0.0192 -0.491702 0.762873 0.419825 0 
0.0895 0.2239 -0.019 -0.46104 0.777088 0.428458 0 
0.0891 0.2234 -0.0186 -0.481451 0.782966 0.393915 0 
0.0891 0.2236 -0.0186 -0.478935 0.780907 0.401006 0 
0.0891 0.2234 -0.0184 -0.46417 0.798244 0.383864 0 
0.0891 0.2236 -0.0184 -0.496827 0.781653 0.377071 0 
0.0894 0.2239 -0.0188 -0.483817 0.773781 0.408882 0 
0.0895 0.2239 -0.0186 -0.485137 0.777193 0.400765 0 
0.0894 0.2237 -0.0186 -0.478935 0.780907 0.401006 0 
0.0895 0.2239 -0.0184 -0.477722 0.782169 0.399991 0 
0.0891 0.2231 -0.018 -0.501148 0.79255 0.347441 0 
0.0891 0.2231 -0.0178 -0.506841 0.794637 0.334163 0 
0.0891 0.2231 -0.0177 -0.476943 0.812863 0.334335 0 
0.0891 0.2234 -0.0181 -0.475794 0.799397 0.366858 0 
0.0892 0.2236 -0.0181 -0.504532 0.785007 0.359459 0 
0.0894 0.2237 -0.0183 -0.48701 0.784717 0.38346 0 
0.0891 0.2234 -0.018 -0.491531 0.795736 0.353838 0 
0.0894 0.2234 -0.018 -0.485406 0.799397 0.354042 0 
0.0892 0.2233 -0.0178 -0.506297 0.793785 0.336999 0 
0.0895 0.2234 -0.0178 -0.498027 0.795883 0.344295 0 
0.0888 0.2222 -0.0168 -0.285024 0.890887 0.353669 0 
0.0885 0.2219 -0.016 -0.511876 0.816823 0.266051 0 
0.0888 0.2222 -0.0163 -0.0603939 0.913961 0.401284 0 
0.0888 0.2222 -0.016 -0.0436046 0.920982 0.387156 0 
0.0888 0.2224 -0.0166 -0.229414 0.901582 0.36677 0 
0.0888 0.2224 -0.0165 -0.118291 0.911536 0.393839 0 
0.0888 0.2224 -0.0162 -0.0547735 0.915119 0.399446 0 
0.0888 0.2227 -0.0174 -0.458591 0.831098 0.314596 0 
0.0891 0.2228 -0.0174 -0.470804 0.823514 0.316494 0 
0.0892 0.2231 -0.0174 -0.485485 0.814414 0.317859 0 
0.0889 0.2225 -0.0172 -0.451931 0.840189 0.299735 0 
0.0891 0.2228 -0.0172 -0.478273 0.823257 0.305781 0 
0.0889 0.2225 -0.0168 -0.292041 0.888104 0.354942 0 
0.0891 0.2228 -0.0169 -0.328106 0.871388 0.364732 0 
0.0894 0.223 -0.0172 -0.472494 0.824117 0.31238 0 
0.0891 0.2225 -0.0166 -0.0948946 0.909063 0.405709 0 
0.0891 0.2228 -0.0166 -0.204651 0.901335 0.381725 0 
0.0889 0.2225 -0.0163 -0.0861554 0.912153 0.400691 0 
0.0888 0.2225 -0.0162 -0.0661354 0.913748 0.400862 0 
0.0894 0.2236 -0.0166 -0.359074 0.86147 0.359074 0 
0.0874 0.2204 -0.013 -0.556866 0.830511 0.012314 0 
0.0876 0.2207 -0.013 -0.500453 0.864418 0.048253 0 
0.0877 0.2207 -0.0129 -0.500517 0.86453 0.0455016 0 
0.0885 0.2219 -0.0157 -0.481699 0.838741 0.253931 0 
0.0886 0.2222 -0.0159 -0.040867 0.921485 0.386259 0 
0.0888 0.2224 -0.0156 -0.487897 0.831749 0.264859 0 
0.0883 0.2218 -0.0153 -0.472501 0.849286 0.235491 0 
0.0885 0.2219 -0.0156 -0.487154 0.837535 0.247419 0 
0.0885 0.2219 -0.0153 -0.451164 0.858275 0.24457 0 
0.0886 0.2222 -0.0156 -0.480829 0.840299 0.2504 0 
0.0888 0.2224 -0.0154 -0.44528 0.855365 0.264719 0 
0.0886 0.2222 -0.0154 -0.454499 0.852377 0.258621 0 
0.0888 0.2224 -0.016 -0.0464846 0.917739 0.394455 0 
0.0883 0.2216 -0.0148 -0.475526 0.849263 0.229407 0 
0.0882 0.2213 -0.0144 -0.496237 0.847052 0.190399 0 
0.0882 0.2216 -0.0144 -0.474116 0.856998 0.201911 0 
0.0883 0.2218 -0.015 -0.459376 0.856593 0.234994 0 
0.0885 0.2219 -0.015 -0.441986 0.864362 0.239849 0 
0.0886 0.2222 -0.015 -0.453913 0.857729 0.241379 0 
0.0886 0.2222 -0.0148 -0.44062 0.867706 0.230085 0 
0.0885 0.2216 -0.0148 -0.471055 0.852746 0.225682 0 
0.0885 0.2219 -0.0148 -0.457638 0.859392 0.228064 0 
0.0885 0.2218 -0.0144 -0.470089 0.857575 0.208762 0 
0.0885 0.2219 -0.0145 -0.477807 0.851612 0.215541 0 
0.0888 0.2222 -0.0145 -0.458264 0.860936 0.220868 0 
0.0895 0.2222 -0.0144 -0.435909 0.870319 0.229189 0 
0.0886 0.2228 -0.0159 -0.120328 0.916983 0.380347 0 
0.0894 0.2228 -0.0154 -0.505545 0.81976 0.269105 0 
0.0894 0.2228 -0.015 -0.430028 0.864615 0.25984 0 
0.0894 0.2227 -0.0148 -0.406907 0.878379 0.250751 0 
0.0892 0.2225 -0.0144 -0.439473 0.868447 0.229486 0 
0.0879 0.221 -0.0138 -0.52749 0.841368 0.117704 0 
0.0879 0.2212 -0.0136 -0.528471 0.84121 0.114381 0 
0.0877 0.2212 -0.0133 -0.517392 0.851925 0.0807983 0 
0.0876 0.221 -0.0132 -0.502845 0.86142 0.0714348 0 
0.0877 0.2212 -0.013 -0.509457 0.8584 0.0600182 0 
0.0876 0.221 -0.0129 -0.501755 0.86313 0.0569861 0 
0.0882 0.2213 -0.0142 -0.482113 0.859546 0.16955 0 
0.0883 0.2215 -0.0142 -0.469435 0.863346 0.185108 0 
0.0882 0.2213 -0.0139 -0.481635 0.862259 0.156641 0 
0.0883 0.2215 -0.0139 -0.482352 0.859973 0.166684 0 
0.0882 0.2213 -0.0136 -0.499856 0.855439 0.135529 0 
0.0883 0.2215 -0.0138 -0.481635 0.862259 0.156641 0 
0.0886 0.2216 -0.0138 -0.448637 0.875209 0.180926 0 
0.0883 0.2218 -0.0142 -0.471792 0.858212 0.202197 0 
0.0886 0.2219 -0.0142 -0.470089 0.857575 0.208762 0 
0.0885 0.2216 -0.0139 -0.461484 0.868415 0.18135 0 
0.0892 0.2219 -0.0142 -0.471915 0.854875 0.215603 0 
0.0889 0.2221 -0.0144 -0.468049 0.856335 0.218222 0 
0.0889 0.2222 -0.0142 -0.471915 0.854875 0.215603 0 
0.0894 0.2224 -0.0142 -0.424407 0.877107 0.224861 0 
0.0895 0.2216 -0.0138 -0.361175 0.897778 0.252085 0 
0.0889 0.2222 -0.0138 -0.452022 0.869956 0.197111 0 
0.0894 0.2224 -0.0138 -0.429837 0.876035 0.218637 0 
0.0882 0.2219 -0.0132 -0.497566 0.857323 0.132007 0 
0.0888 0.2219 -0.0129 -0.472384 0.871094 0.134348 0 
0.0889 0.2221 -0.0136 -0.462668 0.867687 0.181815 0 
0.0889 0.2221 -0.0133 -0.438686 0.881745 0.173434 0 
0.0894 0.2224 -0.0136 -0.420252 0.883267 0.207914 0 
0.0894 0.2224 -0.0133 -0.434424 0.879156 0.195859 0 
0.0889 0.2221 -0.013 -0.435961 0.884958 0.163667 0 
0.0894 0.2249 -0.019 -0.490645 0.753197 0.438134 0 
0.0903 0.2234 -0.0198 -0.384536 0.777185 0.498112 0 
0.0898 0.2239 -0.0198 -0.444722 0.759802 0.474261 0 
0.0897 0.2239 -0.0195 -0.46307 0.767419 0.443434 0 
0.0912 0.2269 -0.0228 -0.713019 0.698673 0.0588205 0 
0.0918 0.2269 -0.0238 -0.672638 0.736285 0.0737732 0 
0.0915 0.2272 -0.0234 -0.692854 0.718675 0.0588137 0 
0.0915 0.2272 -0.0233 -0.693845 0.716925 0.0677978 0 
0.0913 0.2269 -0.0231 -0.708747 0.702996 0.0589424 0 
0.0915 0.2272 -0.023 -0.707432 0.704562 0.0559632 0 
0.0913 0.2269 -0.0228 -0.713019 0.698673 0.0588205 0 
0.0915 0.2272 -0.0228 -0.709927 0.701287 0.0648007 0 
0.0913 0.2269 -0.0226 -0.71396 0.696582 0.0709615 0 
0.0912 0.2269 -0.0225 -0.718218 0.692206 0.0708102 0 
0.0915 0.2272 -0.0225 -0.712229 0.697724 0.0768802 0 
0.0918 0.2273 -0.0249 -0.623947 0.745922 0.233003 0 
0.0919 0.2278 -0.0249 -0.626417 0.734256 0.261668 0 
0.0925 0.2284 -0.0252 0.635428 0.344667 0.690967 0 
0.0925 0.2287 -0.0252 0.634711 0.347541 0.690187 0 
0.0924 0.2284 -0.0249 -0.663287 0.707401 0.244203 0 
0.0925 0.2287 -0.0249 -0.669919 0.698426 0.251813 0 
0.0919 0.2275 -0.0248 -0.622596 0.742386 0.247462 0 
0.0919 0.2275 -0.024 -0.665318 0.736761 0.120561 0 
0.0921 0.2275 -0.0246 -0.632996 0.739276 0.229754 0 
0.0921 0.2278 -0.0248 -0.632226 0.730467 0.258278 0 
0.0921 0.2278 -0.0245 -0.63411 0.734812 0.240741 0 
0.0921 0.2275 -0.0243 -0.635819 0.746664 0.195518 0 
0.0921 0.2276 -0.0243 -0.633699 0.742689 0.216423 0 
0.0922 0.2279 -0.0243 -0.635466 0.735885 0.233789 0 
0.0922 0.2279 -0.024 -0.635724 0.743998 0.205721 0 
0.0924 0.2282 -0.0246 -0.654471 0.714398 0.247595 0 
0.0924 0.2284 -0.0248 -0.6587 0.709248 0.251159 0 
0.0924 0.2284 -0.0245 -0.658254 0.711924 0.244675 0 
0.0925 0.2285 -0.0248 -0.667486 0.702201 0.247743 0 
0.0925 0.2287 -0.0245 -0.66573 0.703682 0.248265 0 
0.0924 0.2281 -0.0243 -0.645943 0.724525 0.240461 0 
0.0927 0.2285 -0.0242 -0.655947 0.712849 0.248154 0 
0.0927 0.2288 -0.0255 0.626479 0.340088 0.70133 0 
0.0927 0.2288 -0.0251 0.623239 0.351697 0.698486 0 
0.0927 0.2291 -0.0251 0.576398 0.401332 0.711827 0 
0.0927 0.2288 -0.0249 -0.686901 0.686901 0.23735 0 
0.0918 0.2272 -0.024 -0.662058 0.741682 0.10764 0 
0.0918 0.2273 -0.0237 -0.67565 0.733521 0.0737861 0 
0.0918 0.2275 -0.0238 -0.674739 0.733031 0.0859818 0 
0.0916 0.2275 -0.0234 -0.688615 0.722974 0.0558337 0 
0.0918 0.2276 -0.0234 -0.684157 0.727186 0.0559374 0 
0.0927 0.2284 -0.0239 -0.671878 0.712222 0.20327 0 
0.0924 0.2284 -0.0238 -0.66974 0.716143 0.196437 0 
0.0921 0.2282 -0.0236 -0.695257 0.712821 0.092213 0 
0.0922 0.2281 -0.0233 -0.692544 0.71846 0.064791 0 
0.0924 0.2281 -0.0234 -0.696072 0.71351 0.0799247 0 
0.0927 0.2281 -0.0233 -0.697877 0.712385 0.0739952 0 
0.0916 0.2275 -0.0232 -0.69472 0.717545 0.0499286 0 
0.0916 0.2273 -0.023 -0.704446 0.707316 0.0588234 0 
0.0918 0.2275 -0.0228 -0.698512 0.712914 0.0619299 0 
0.0927 0.2278 -0.0227 -0.685786 0.725873 0.052973 0 
0.0924 0.2278 -0.0226 -0.685786 0.725873 0.052973 0 
0.0921 0.2281 -0.023 -0.690325 0.721768 0.0500235 0 
0.0925 0.2281 -0.0232 -0.693845 0.716925 0.0677978 0 
0.0925 0.2281 -0.0228 -0.684362 0.727224 0.052863 0 
0.0927 0.2281 -0.023 -0.691238 0.71998 0.0617947 0 
0.0922 0.2281 -0.0227 -0.687105 0.724401 0.0559438 0 
0.0928 0.2287 -0.0243 -0.662481 0.706752 0.248233 0 
0.0931 0.2287 -0.0243 -0.664384 0.70244 0.255288 0 
0.0928 0.229 -0.0255 0.626077 0.321936 0.710201 0 
0.0928 0.229 -0.0252 0.572072 0.403913 0.713854 0 
0.0931 0.2296 -0.0255 0.657969 0.286561 0.696391 0 
0.0931 0.2294 -0.0254 0.633524 0.319192 0.704815 0 
0.0931 0.2291 -0.0251 0.614921 0.34416 0.709525 0 
0.0931 0.229 -0.0249 0.611549 0.362338 0.703363 0 
0.0936 0.2291 -0.0249 0.623799 0.34366 0.701978 0 
0.093 0.2296 -0.0251 0.633643 0.325735 0.701707 0 
0.0934 0.2293 -0.0251 0.630575 0.337284 0.69901 0 
0.0938 0.2293 -0.0249 0.632756 0.348261 0.691617 0 
0.0936 0.2296 -0.0255 0.673971 0.280154 0.683576 0 
0.0939 0.2299 -0.0255 0.735885 0.233789 0.635466 0 
0.0938 0.2296 -0.0252 0.667673 0.29442 0.683761 0 
0.0942 0.2303 -0.0254 0.773103 0.235835 0.588807 0 
0.0942 0.2299 -0.0251 0.73194 0.257681 0.630765 0 
0.0931 0.2288 -0.0246 -0.680829 0.690306 0.244846 0 
0.0936 0.2291 -0.0246 0.612894 0.369708 0.698338 0 
0.0936 0.229 -0.0243 -0.679544 0.689048 0.251859 0 
0.0938 0.2293 -0.0246 0.630066 0.351855 0.692254 0 
0.0938 0.2291 -0.024 -0.667168 0.695829 0.265912 0 
0.0938 0.2293 -0.0243 -0.685497 0.679135 0.262429 0 
0.0931 0.2284 -0.0237 -0.673985 0.708229 0.210134 0 
0.093 0.2285 -0.024 -0.654471 0.714398 0.247595 0 
0.0934 0.2287 -0.024 -0.660178 0.707673 0.251723 0 
0.0934 0.2285 -0.0238 -0.650327 0.716784 0.251586 0 
0.0928 0.2284 -0.0236 -0.673534 0.713607 0.192658 0 
0.0931 0.2284 -0.0234 -0.693797 0.705836 0.142973 0 
0.0936 0.2285 -0.0234 -0.684318 0.705847 0.182997 0 
0.0931 0.2279 -0.0231 -0.692345 0.718362 0.0679336 0 
0.0934 0.2284 -0.0232 -0.695097 0.707055 0.13005 0 
0.0938 0.229 -0.0234 -0.692306 0.695389 0.192735 0 
0.0903 0.2254 -0.0209 -0.745037 0.629938 0.219312 0 
0.0903 0.2255 -0.0209 -0.745037 0.629938 0.219312 0 
0.0906 0.2254 -0.0212 -0.757562 0.625945 0.185182 0 
0.0903 0.2261 -0.0218 -0.747656 0.652526 0.123371 0 
0.0906 0.226 -0.0221 -0.744683 0.659155 0.104698 0 
0.0904 0.2263 -0.0222 -0.756345 0.648918 0.0827479 0 
0.0904 0.2263 -0.0216 -0.772139 0.629635 0.0857932 0 
0.0903 0.2264 -0.0219 -0.762476 0.639543 0.0980535 0 
0.0906 0.2266 -0.0221 -0.760793 0.646603 0.0556678 0 
0.0909 0.2266 -0.0222 -0.747488 0.661405 0.0616928 0 
0.0909 0.2266 -0.0221 -0.748771 0.659666 0.0646731 0 
0.0906 0.2266 -0.0219 -0.755099 0.650345 0.0829299 0 
0.0909 0.2267 -0.0218 -0.755099 0.650747 0.0797129 0 
0.0903 0.2257 -0.021 -0.783266 0.602859 0.151842 0 
0.0904 0.2257 -0.0215 -0.790623 0.602868 0.107079 0 
0.0904 0.2257 -0.0213 -0.796463 0.594047 0.112942 0 
0.0906 0.226 -0.0216 -0.774567 0.62578 0.0918978 0 
0.0906 0.2263 -0.0215 -0.770726 0.631386 0.0856362 0 
0.0906 0.226 -0.0214 -0.789683 0.607114 0.0883866 0 
0.0906 0.2263 -0.0213 -0.773184 0.627025 0.0950038 0 
0.0904 0.226 -0.021 -0.789877 0.600897 0.122542 0 
0.0906 0.2263 -0.021 -0.77392 0.623558 0.11056 0 
0.0909 0.2263 -0.0209 -0.771307 0.626779 0.110608 0 
0.0906 0.2266 -0.0216 -0.758352 0.643939 0.101211 0 
0.0906 0.2266 -0.0214 -0.763912 0.638298 0.0949413 0 
0.0909 0.2267 -0.0215 -0.751689 0.65166 0.1015 0 
0.0909 0.2266 -0.0213 -0.751689 0.65166 0.1015 0 
0.0906 0.2266 -0.021 -0.763375 0.636392 0.110741 0 
0.0912 0.2267 -0.0222 -0.733723 0.676063 0.0677504 0 
0.0915 0.2269 -0.0222 -0.717947 0.69184 0.0768711 0 
0.09 0.2248 -0.0204 -0.681532 0.665421 0.304514 0 
0.09 0.2243 -0.0201 -0.638083 0.687041 0.3476 0 
0.09 0.2245 -0.0202 -0.646704 0.682542 0.340456 0 
0.0903 0.2254 -0.0206 -0.739276 0.632996 0.229754 0 
0.0903 0.2255 -0.0206 -0.744597 0.629083 0.223223 0 
0.09 0.2249 -0.0202 -0.661745 0.674752 0.326808 0 
0.0901 0.2251 -0.0203 -0.684577 0.665248 0.297992 0 
0.0901 0.2254 -0.0204 -0.726913 0.641765 0.244407 0 
0.0903 0.2255 -0.0204 -0.724856 0.642737 0.247936 0 
0.0898 0.2246 -0.02 -0.644082 0.683216 0.344054 0 
0.0897 0.2245 -0.0198 -0.640733 0.686383 0.344007 0 
0.0898 0.2246 -0.0197 -0.640733 0.686383 0.344007 0 
0.0897 0.2242 -0.0192 -0.480199 0.762091 0.43431 0 
0.0897 0.2245 -0.0196 -0.471711 0.751122 0.461849 0 
0.0898 0.2248 -0.0195 -0.647419 0.683296 0.337571 0 
0.0897 0.2245 -0.0192 -0.490645 0.753197 0.438134 0 
0.091 0.2248 -0.0194 -0.448565 0.750895 0.484713 0 
0.0898 0.2249 -0.02 -0.646704 0.682542 0.340456 0 
0.09 0.2251 -0.02 -0.649308 0.681854 0.336859 0 
0.0898 0.2249 -0.0197 -0.638083 0.687041 0.3476 0 
0.0898 0.2252 -0.0198 -0.646704 0.682542 0.340456 0 
0.091 0.2251 -0.0197 -0.640733 0.686383 0.344007 0 
0.0912 0.2254 -0.02 -0.693319 0.648068 0.315145 0 
0.0906 0.2251 -0.0194 -0.639515 0.685311 0.34838 0 
0.0904 0.2252 -0.0192 -0.49656 0.744015 0.447069 0 
0.0913 0.2254 -0.02 -0.705781 0.641473 0.30064 0 
0.0903 0.2257 -0.0207 -0.78169 0.595791 0.184375 0 
0.0904 0.2257 -0.0204 -0.788276 0.587014 0.18449 0 
0.091 0.226 -0.0208 -0.769792 0.619148 0.155164 0 
0.0909 0.2258 -0.0206 -0.779111 0.602938 0.171617 0 
0.0912 0.2258 -0.0204 -0.777085 0.603724 0.177924 0 
0.0904 0.226 -0.0208 -0.800607 0.583745 0.135167 0 
0.0912 0.2257 -0.0202 0.549566 0.476068 0.68654 0 
0.0906 0.2258 -0.0198 -0.761366 0.605028 0.232944 0 
0.0913 0.2261 -0.0204 -0.760737 0.622978 0.182148 0 
0.0913 0.2257 -0.0202 -0.775048 0.600087 0.197983 0 
