0.0774205 0.201326 0.0105916 -0.0351511 0.617253 0.785979 2 
0.0777565 0.201517 0.0104472 -0.00967365 0.631551 0.775274 2 
0.0777745 0.201431 0.0106529 -0.00968787 0.643551 0.765342 2 
0.0776922 0.201161 0.0109364 -0.0323615 0.654266 0.755572 2 
0.0777163 0.201572 0.0109113 -0.0209263 0.645926 0.763113 2 
0.0779144 0.201786 0.0110323 -0.018138 0.668315 0.743657 2 
0.0780095 0.201664 0.0115076 -0.0267508 0.716641 0.696929 2 
0.0782639 0.201566 0.0113473 -0.0352547 0.768552 0.638815 2 
0.0779494 0.201633 0.0117431 -0.0587075 0.748879 0.660102 2 
0.0787934 0.201438 0.0109558 -0.0464384 0.80634 0.589627 2 
0.0790469 0.20115 0.0104732 -0.0555926 0.782573 0.620072 2 
0.0787129 0.20134 0.0112622 -0.0287857 0.853977 0.519514 2 
0.0752456 0.221536 -0.000568792 0.42043 0.0895998 0.90289 1 
0.0751839 0.221333 -0.000356197 0.42043 0.0895998 0.90289 1 
0.0754383 0.221235 -0.000516511 0.42043 0.0895998 0.90289 1 
0.0754949 0.221131 -0.00017602 0.417871 0.113202 0.901426 1 
0.0756893 0.221003 -0.000100829 0.432431 0.0931603 0.896842 1 
0.0749758 0.223884 -0.000245564 0.927083 0.142309 -0.346793 1 
0.075095 0.224172 0.000204675 0.727612 0.012521 -0.685875 1 
0.0750897 0.223657 0.000135966 0.937689 0.146045 -0.315293 1 
0.0752108 0.224117 0.000609115 0.772599 -0.00413155 -0.634881 1 
0.0753255 0.223871 0.000691205 0.800459 0.00964408 -0.599311 1 
0.0751642 0.223467 0.00068213 0.486415 -0.050984 0.872239 1 
0.075477 0.223436 0.000885218 0.853162 0.00673904 -0.521602 1 
0.0753846 0.223921 0.000755161 0.681775 0.00138291 -0.73156 1 
0.0754008 0.223663 0.000937931 0.816283 0.00960333 -0.577572 1 
0.0755783 0.22381 0.00112978 0.459859 0.0704289 -0.885194 1 
0.0754986 0.223694 0.00113668 0.571352 0.0235181 -0.820368 1 
0.0758319 0.223731 0.00126892 0.470564 0.0884941 -0.877917 1 
0.0755927 0.223381 0.00128965 0.508658 0.0286376 -0.860492 1 
0.0751991 0.222897 0.000149354 0.458306 0.0119558 0.888714 1 
0.0753775 0.223234 0.000663549 0.853162 0.00673904 -0.521602 1 
0.0753148 0.222841 0.000553794 0.448608 0.0307999 0.893198 1 
0.0758687 0.223541 0.00138084 0.489635 0.062418 -0.869691 1 
0.0753874 0.222271 0.000455275 0.424615 0.072362 0.902478 1 
0.0754976 0.221493 0.000169225 0.417871 0.113202 0.901426 1 
0.0756133 0.221438 0.000573672 0.417871 0.113202 0.901426 1 
0.0753902 0.222633 0.000800513 0.432832 0.0583441 0.899585 1 
0.0753158 0.223031 0.000876136 0.466669 -0.00396602 0.884423 1 
0.0756859 0.222878 0.00112027 0.917162 0.0142699 -0.398259 1 
0.0755031 0.222216 0.000859722 0.42043 0.0895998 0.90289 1 
0.0756806 0.222363 0.00105157 0.42043 0.0895998 0.90289 1 
0.0757747 0.222051 0.00120452 0.42043 0.0895998 0.90289 1 
0.0759933 0.222333 0.00125466 0.647903 0.0921396 0.75613 1 
0.0758052 0.221156 0.000925392 0.424199 0.10153 0.899859 1 
0.0758105 0.221671 0.000994101 0.417871 0.113202 0.901426 1 
0.0759065 0.22153 0.00116996 0.417871 0.113202 0.901426 1 
0.075988 0.221818 0.00118595 0.417871 0.113202 0.901426 1 
0.0759415 0.221168 0.00125897 0.427901 0.0724561 0.900917 1 
0.0761601 0.22145 0.0013091 0.417871 0.113202 0.901426 1 
0.0756492 0.221058 0.000363238 0.424199 0.10153 0.899859 1 
0.0758984 0.220653 0.000756003 0.456916 0.0531932 0.887918 1 
0.0761753 0.221003 0.00116952 0.434482 0.0726421 0.897746 1 
0.0758634 0.223026 0.00131211 0.554373 0.00681048 -0.832241 1 
0.076082 0.223308 0.00136225 0.444061 0.0816186 -0.892272 1 
0.0759629 0.223228 0.00153378 0.477607 0.0564319 -0.876759 1 
0.0758392 0.222615 0.00133719 0.718114 0.00694501 0.69589 1 
0.0758125 0.22004 0.000993647 0.562438 0.227764 0.79485 1 
0.0760141 0.220598 0.00116045 0.474092 0.0797145 0.87686 1 
0.0762292 0.220537 0.00116477 0.478616 0.0739552 0.874904 1 
0.0762838 0.220053 0.000860564 -0.629607 -0.126517 0.766543 1 
0.0762426 0.219918 0.0010023 0.152831 0.14289 0.977868 1 
0.0762596 0.219642 0.000885643 -0.887196 -0.245205 0.390842 1 
0.0764147 0.21955 0.00112545 -0.879694 -0.234485 0.41371 1 
0.076515 0.219734 0.00104768 -0.887196 -0.245205 0.390842 1 
0.0766092 0.219421 0.00120062 -0.867324 -0.223197 0.444897 1 
0.0768593 0.218999 0.00129396 -0.545446 -0.140426 0.826299 1 
0.0774304 0.226614 0.0017983 -0.810062 -0.388255 0.439383 1 
0.077625 0.226694 0.00249527 -0.811198 -0.388799 0.436799 1 
0.0778203 0.226547 0.00227102 -0.838014 -0.363192 0.407215 1 
0.0779772 0.226627 0.00253373 -0.835995 -0.363681 0.410913 1 
0.0782344 0.226891 0.00271869 -0.835365 -0.379139 0.398018 1 
0.0779439 0.224941 0.00120071 -0.447159 -0.0877602 0.890139 1 
0.0781707 0.226309 0.00228657 -0.847805 -0.388773 0.360669 1 
0.078289 0.226407 0.00241447 -0.847805 -0.388773 0.360669 1 
0.0783634 0.226008 0.00233886 -0.83024 -0.338713 0.44269 1 
0.0790282 0.225703 0.00195864 -0.799367 -0.410138 0.439089 1 
0.0775821 0.226387 0.00261408 -0.838014 -0.363192 0.407215 1 
0.0780525 0.226419 0.00278046 -0.84395 -0.361693 0.39614 1 
0.0782084 0.226308 0.00272084 -0.840195 -0.369058 0.397326 1 
0.0777486 0.225088 0.00142495 -0.451214 -0.0644591 0.890085 1 
0.0780999 0.225039 0.00176286 -0.440881 -0.041796 0.896592 1 
0.0783876 0.224408 0.00166868 -0.466666 -0.106383 0.878012 1 
0.078291 0.224776 0.00241403 -0.589199 -0.154421 0.793095 1 
0.0785984 0.22423 0.00254842 -0.626266 -0.172185 0.760357 1 
0.0785391 0.223973 0.00186268 -0.486966 -0.107104 0.866829 1 
0.0779315 0.225959 0.0023073 -0.854221 -0.379826 0.355021 1 
0.0778903 0.225824 0.00244904 -0.848598 -0.356567 0.390822 1 
0.0780678 0.225971 0.00264089 -0.830504 -0.341972 0.439679 1 
0.0780678 0.225971 0.00264089 -0.830504 -0.341972 0.439679 1 
0.0783017 0.225806 0.00255145 -0.813893 -0.344278 0.468028 1 
0.0780419 0.225389 0.00264304 -0.654485 -0.169342 0.736867 1 
0.0782399 0.225603 0.00276403 -0.808734 -0.365286 0.460994 1 
0.0784532 0.225371 0.00274546 -0.805045 -0.363311 0.468943 1 
0.0786484 0.225016 0.00189943 -0.668779 -0.24076 0.703398 1 
0.0789665 0.2255 0.00217123 -0.801573 -0.406409 0.438536 1 
0.0791592 0.2252 0.00222351 -0.794901 -0.358107 0.489787 1 
0.0786708 0.225463 0.00247325 -0.80341 -0.392885 0.447408 1 
0.0788635 0.225163 0.00252553 -0.802972 -0.367027 0.469603 1 
0.0786091 0.225261 0.00268584 -0.806551 -0.386439 0.447371 1 
0.0790768 0.22493 0.00250696 -0.796895 -0.322894 0.510586 1 
0.0781835 0.225916 0.00304533 -0.821529 -0.340325 0.45746 1 
0.0785151 0.225781 0.00315466 -0.810368 -0.372418 0.452336 1 
0.0783699 0.224911 0.00270656 -0.72353 -0.27192 0.63448 1 
0.0788018 0.22496 0.00273811 -0.800676 -0.332687 0.498234 1 
0.0789201 0.225058 0.00286602 -0.802239 -0.346095 0.486447 1 
0.0785841 0.224868 0.00301033 -0.803079 -0.332363 0.494569 1 
0.0790357 0.224795 0.00264867 -0.798189 -0.323418 0.508228 1 
0.078853 0.224341 0.00300989 -0.80058 -0.305964 0.515225 1 
0.0785071 0.225113 0.00336248 -0.804262 -0.386881 0.451093 1 
0.0788028 0.22515 0.00306045 -0.804262 -0.386881 0.451093 1 
0.0792165 0.225077 0.00226456 -0.789251 -0.340995 0.510692 1 
0.0793107 0.224765 0.00241751 -0.797218 -0.316659 0.513975 1 
0.0787535 0.224139 0.00278824 -0.788851 -0.289298 0.542236 1 
0.0793619 0.224145 0.00268928 -0.792643 -0.282074 0.54051 1 
0.0795546 0.223845 0.00274158 -0.791388 -0.28907 0.538649 1 
0.0794982 0.224158 0.00302288 -0.792643 -0.282074 0.54051 1 
0.0795957 0.223772 0.00197807 -0.777696 -0.272904 0.566314 1 
0.0788485 0.223808 0.00264175 -0.744371 -0.243927 0.62162 1 
0.0790556 0.223078 0.0028539 0.3777 0.198256 0.904454 1 
0.079076 0.222937 0.00216127 -0.728133 -0.278825 0.626162 1 
0.0791174 0.223281 0.00264132 -0.789163 -0.25887 0.556964 1 
0.0791515 0.222937 0.00302976 0.329256 0.147408 0.932664 1 
0.0793432 0.222447 0.0027597 0.49691 0.150979 0.854568 1 
0.0789632 0.223563 0.00272384 -0.78924 -0.265172 0.55388 1 
0.0791254 0.224157 0.00305527 -0.793993 -0.282554 0.538274 1 
0.0791031 0.223918 0.00310322 -0.792643 -0.282074 0.54051 1 
0.0792358 0.223587 0.003391 -0.795008 -0.268139 0.544118 1 
0.0799042 0.223625 0.00305658 -0.794516 -0.292218 0.53231 1 
0.0792133 0.22314 0.00281718 -0.823257 -0.305781 0.478273 1 
0.0792617 0.22417 0.00338884 -0.806019 -0.301271 0.50948 1 
0.0792411 0.224102 0.00345971 -0.796404 -0.288598 0.531462 1 
0.0794956 0.224004 0.00329941 -0.794533 -0.272187 0.5428 1 
0.079475 0.223937 0.00337027 -0.792006 -0.2724 0.546374 1 
0.0794338 0.223802 0.003512 -0.792643 -0.282074 0.54051 1 
0.0793721 0.2236 0.00372458 -0.792006 -0.2724 0.546374 1 
0.0798075 0.223992 0.00380193 -0.79385 -0.275096 0.542333 1 
0.0797295 0.223839 0.00320997 -0.796404 -0.288598 0.531462 1 
0.0802546 0.223386 0.00307214 0.316468 0.0581268 0.946821 1 
0.0799231 0.223729 0.0035846 -0.800739 -0.284742 0.527009 1 
0.080079 0.223619 0.00352498 -0.803248 -0.291947 0.519192 1 
0.0797654 0.223667 0.00362132 -0.797648 -0.281615 0.533339 1 
0.0799796 0.223625 0.00392508 -0.805614 -0.284242 0.519801 1 
0.0802727 0.223509 0.00389959 -0.82031 -0.285936 0.495311 1 
0.0794849 0.222974 0.003162 -0.741884 -0.274831 0.611618 1 
0.0794437 0.222839 0.00330372 -0.684922 -0.265387 0.678566 1 
0.0794652 0.223097 0.0035552 -0.860564 -0.289923 0.418777 1 
0.079855 0.222821 0.00340613 0.545129 0.0963684 0.832795 1 
0.0795952 0.222404 0.00349772 0.530524 0.0721512 0.844594 1 
0.0794241 0.222962 0.00369692 0.412448 0.0924214 0.906281 1 
0.0798049 0.223839 0.00407846 -0.78739 -0.26875 0.554788 1 
0.0796839 0.223379 0.00360533 -0.827733 -0.274876 0.489185 1 
0.0803005 0.224471 0.00454213 -0.795913 -0.316141 0.516311 1 
0.0800872 0.224704 0.0045607 -0.819893 -0.347305 0.455143 1 
0.0802388 0.224269 0.00475471 -0.773227 -0.290556 0.563646 1 
0.0804493 0.223674 0.0043909 -0.790822 -0.293191 0.537252 1 
0.0805057 0.223362 0.00410959 -0.811287 -0.304036 0.499375 1 
0.080254 0.223821 0.00461514 -0.783068 -0.286334 0.552103 1 
0.0804583 0.224741 0.00512719 -0.799003 -0.377798 0.467827 1 
0.0801206 0.224379 0.00524859 -0.799726 -0.357392 0.4824 1 
0.0804019 0.225053 0.00540847 -0.766744 -0.398837 0.503023 1 
0.0803608 0.224918 0.0055502 -0.73872 -0.451164 0.500743 1 
0.0807462 0.224318 0.00565477 -0.766813 -0.340626 0.544033 1 
0.080318 0.223552 0.00226067 -0.814443 -0.33816 0.471519 1 
0.0801379 0.223251 0.00234536 0.463957 0.162458 0.870834 1 
0.0808717 0.224043 0.00246593 -0.801454 -0.281847 0.527479 1 
0.0808889 0.223976 0.00297105 -0.802505 -0.29483 0.518711 1 
0.0793556 0.22143 0.00165311 0.641624 0.0920782 0.761472 1 
0.079205 0.222055 0.00178143 0.518269 0.129932 0.84529 1 
0.079336 0.221552 0.00204631 0.635161 0.079576 0.76827 1 
0.0795467 0.221166 0.00230427 0.593426 0.040684 0.80386 1 
0.0793019 0.222104 0.00227964 0.518077 0.139426 0.843894 1 
0.0794159 0.221877 0.00266118 0.597842 0.0974584 0.795668 1 
0.0796875 0.221712 0.00300599 0.622081 0.0351062 0.782165 1 
0.0808799 0.220898 0.00158962 0.867287 0.134654 0.479252 1 
0.0808387 0.220763 0.00173134 0.867287 0.134654 0.479252 1 
0.0809392 0.221155 0.00227534 0.350935 -0.0927759 0.931793 1 
0.0808182 0.220904 0.00242399 0.787262 0.0380252 0.615445 1 
0.0810521 0.220739 0.00233455 0.867287 0.134654 0.479252 1 
0.08125 0.220745 0.00183377 0.702617 0.0267529 0.711065 1 
0.0811677 0.220475 0.00211722 0.798658 0.0208346 0.601424 1 
0.0801944 0.223147 0.00268584 0.472439 0.156505 0.867357 1 
0.0804669 0.222963 0.00273122 0.484202 0.122128 0.866391 1 
0.080784 0.223258 0.00268067 0.480639 0.128459 0.867459 1 
0.080467 0.223172 0.00335301 0.545129 0.0963684 0.832795 1 
0.079907 0.222184 0.00337848 0.531547 0.0122351 0.846941 1 
0.0799429 0.221804 0.00316803 0.592307 0.00410374 0.805702 1 
0.0802816 0.222356 0.00336897 0.537872 -0.0149787 0.842893 1 
0.0802198 0.222154 0.00358156 0.563742 -0.0607542 0.823713 1 
0.0796114 0.222147 0.0036805 0.541234 0.00134971 0.840871 1 
0.0800155 0.219223 0.00242439 0.516782 0.266978 -0.813424 1 
0.0797969 0.218941 0.00237426 0.273352 0.27049 -0.9231 1 
0.0799932 0.218984 0.00247235 0.339796 0.280443 -0.897714 1 
0.0803828 0.2185 0.0017015 -0.311039 0.362626 -0.878497 1 
0.0804447 0.218911 0.0021107 0.419495 0.350364 -0.837418 1 
0.0795817 0.220804 0.00239328 0.626334 0.0556424 0.777567 1 
0.0795361 0.220344 0.00278863 0.755873 0.123256 0.643012 1 
0.0799107 0.220516 0.00277914 0.832502 0.124363 0.539883 1 
0.0796624 0.221111 0.00270871 0.551089 -0.0206143 0.834192 1 
0.080192 0.221191 0.00293904 0.50937 -0.062799 0.858253 1 
0.0803641 0.220823 0.00306217 0.694514 0.00415877 0.719467 1 
0.0802064 0.220762 0.0030989 0.694514 0.00415877 0.719467 1 
0.0799286 0.22043 0.00298481 0.821218 0.124872 0.556783 1 
0.079711 0.220338 0.00325703 0.762225 0.104274 0.638859 1 
0.0802783 0.220418 0.00392159 0.81561 0.0435179 0.576963 1 
0.0799823 0.219756 0.00235829 0.540551 0.346921 -0.766453 1 
0.0803936 0.219738 0.00246069 0.540551 0.346921 -0.766453 1 
0.0808936 0.220695 0.00267071 0.754371 0.0499111 0.654548 1 
0.0810495 0.220585 0.00261109 0.814861 0.0847916 0.573421 1 
0.080633 0.220296 0.00306173 -0.327785 -0.252031 0.910515 1 
0.080908 0.220266 0.00283059 0.846227 0.0631513 0.529067 1 
0.0806177 0.220744 0.00320132 0.681357 -0.0181882 0.731725 1 
0.0809887 0.220573 0.00314602 0.801142 0.00410842 0.59846 1 
0.0812834 0.22042 0.00252164 0.798658 0.0208346 0.601424 1 
0.0802735 0.219468 0.0023099 0.547621 0.329215 -0.769239 1 
0.080744 0.2195 0.00247625 0.547621 0.329215 -0.769239 1 
0.0803265 0.219021 0.00260457 0.339796 0.280443 -0.897714 1 
0.0802351 0.221706 0.003442 0.585898 -0.0349581 0.80963 1 
0.0806411 0.221173 0.0034757 0.556728 -0.0754644 0.82726 1 
0.0807592 0.221063 0.00298183 0.499636 -0.0685775 0.863517 1 
0.080754 0.220756 0.00353489 0.644337 -0.0645772 0.762011 1 
0.0814584 0.220622 0.00361182 -0.159642 -0.264281 0.951142 1 
0.0815765 0.220512 0.00311795 0.851185 0.0316272 0.523912 1 
0.0795979 0.20128 0.0103332 0.0995076 0.922831 0.372131 1 
0.0805569 0.201256 0.0108716 0.260788 0.757075 -0.599022 1 
0.0792048 0.20142 0.0110583 0.497468 0.265006 -0.826013 1 
0.079143 0.201218 0.0112708 0.18364 0.982879 0.0150146 1 
0.0795955 0.201335 0.0112315 0.35429 0.818204 -0.452792 1 
0.0799655 0.200973 0.0108539 0.305998 0.794327 -0.524795 1 
0.0803535 0.200526 0.0106819 0.28363 0.816415 -0.503012 1 
0.0804334 0.200851 0.0112968 0.257096 0.749205 -0.610405 1 
0.0807236 0.200373 0.0109261 0.281652 0.746298 -0.603085 1 
0.0802864 0.199809 0.0108258 0.274394 0.835585 -0.475927 1 
0.080066 0.201366 0.0113979 0.270748 0.755243 -0.596911 1 
0.079945 0.201114 0.0115465 0.28383 0.77855 -0.559732 1 
0.0803 0.201409 0.0119302 0.218438 0.769956 -0.599543 1 
0.0806333 0.201446 0.0120625 0.212802 0.750243 -0.625979 1 
0.0808323 0.201851 0.0125058 0.205415 0.755246 -0.622421 1 
0.0804157 0.201354 0.0123347 0.195134 0.772853 -0.603839 1 
0.0804445 0.202506 0.0132995 0.0988475 0.84665 -0.522889 1 
0.080652 0.201134 0.0113469 0.236322 0.749658 -0.618194 1 
0.080377 0.201164 0.0115781 0.246348 0.757874 -0.604102 1 
0.0801789 0.200949 0.0114571 0.270748 0.755243 -0.596911 1 
0.0809067 0.201452 0.0124302 0.205975 0.751113 -0.627218 1 
0.0820099 0.20211 0.0130943 0.14936 0.728697 -0.66835 1 
0.0825178 0.201724 0.0124514 0.172958 0.702546 -0.690301 1 
0.0826389 0.202184 0.0129245 0.139695 0.683455 -0.716501 1 
0.0831067 0.201853 0.0127457 0.053746 0.480958 -0.875095 1 
0.0825772 0.201981 0.0131371 0.139708 0.686521 -0.713562 1 
0.0834068 0.200413 0.0121666 0.0807211 0.514066 -0.853944 1 
0.0838181 0.200395 0.0122691 -0.0540488 0.365159 -0.929375 1 
0.083595 0.20159 0.0124959 0.00128555 0.399807 -0.916599 1 
0.0838647 0.201045 0.0121961 -0.0436813 0.395779 -0.917306 1 
0.083966 0.201419 0.0124406 -0.0436813 0.395779 -0.917306 1 
0.0835896 0.201075 0.0124272 0.0390094 0.439865 -0.897216 1 
0.0848808 0.200691 0.0121537 -0.0600573 0.388371 -0.919544 1 
0.0842859 0.200065 0.0120902 -0.0759569 0.355798 -0.931471 1 
0.0845467 0.200672 0.0123209 -0.0630476 0.395724 -0.916203 1 
0.0851119 0.200164 0.011719 -0.0403576 0.363219 -0.930829 1 
0.0846569 0.199893 0.0120349 -0.0555493 0.324253 -0.944338 1 
0.0858397 0.202678 0.0133373 -0.0642199 0.435876 -0.897713 1 
0.0832439 0.202056 0.0134016 -0.00388603 0.413214 -0.910626 1 
0.0842813 0.201542 0.0123672 -0.0630476 0.395724 -0.916203 1 
0.0844534 0.201175 0.0124903 -0.0630476 0.395724 -0.916203 1 
0.0848297 0.201518 0.0125037 -0.0630476 0.395724 -0.916203 1 
0.0858369 0.202108 0.0123702 -0.104386 0.416151 -0.903284 1 
0.0860707 0.201943 0.0122808 -0.104386 0.416151 -0.903284 1 
0.0857545 0.201838 0.0126537 -0.104386 0.416151 -0.903284 1 
0.085639 0.202102 0.012871 -0.0798954 0.391352 -0.916766 1 
0.0859884 0.201673 0.0125642 -0.104386 0.416151 -0.903284 1 
0.0859472 0.201538 0.012706 -0.104386 0.416151 -0.903284 1 
0.0851604 0.201194 0.0122907 -0.0600573 0.388371 -0.919544 1 
0.0852922 0.200673 0.0122561 -0.0432928 0.371269 -0.927516 1 
0.0856408 0.200262 0.0122488 -0.0511685 0.363427 -0.930216 1 
0.0806747 0.204226 0.00300932 -0.194734 -0.22428 0.95487 1 
0.0817465 0.203577 0.00298513 -0.098321 -0.294963 0.950437 1 
0.0821525 0.203044 0.00301884 -0.0728992 -0.348591 0.934436 1 
0.0815431 0.202848 0.00279544 -0.138114 -0.329559 0.933978 1 
0.082284 0.204118 0.00238585 -0.140099 -0.403314 0.904273 1 
0.082456 0.20375 0.002509 -0.104527 -0.4195 0.901717 1 
0.0823082 0.204737 0.00298256 -0.297528 -0.465764 0.833391 1 
0.0823648 0.204633 0.00332307 -0.241071 -0.352109 0.90438 1 
0.0827142 0.204204 0.00301628 -0.249553 -0.470018 0.846644 1 
0.080863 0.205612 0.00396037 -0.170257 -0.57104 0.803072 1 
0.0812492 0.204993 0.00376549 -0.144233 -0.421276 0.89539 1 
0.0814267 0.20514 0.00395736 -0.169168 -0.475142 0.863494 1 
0.0815692 0.203638 0.00341506 -0.132254 -0.247485 0.959823 1 
0.0818864 0.203933 0.00336452 -0.139613 -0.236167 0.961631 1 
0.0823147 0.203639 0.00335026 -0.135876 -0.336258 0.931916 1 
0.0825486 0.203474 0.00326081 -0.169772 -0.340947 0.924626 1 
0.0820691 0.204595 0.00362509 -0.197596 -0.304101 0.931922 1 
0.0822251 0.204485 0.00356547 -0.231029 -0.317127 0.919813 1 
0.0819456 0.20419 0.00405026 -0.196388 -0.130503 0.971803 1 
0.0820163 0.20324 0.00330705 -0.0906882 -0.306237 0.947626 1 
0.0822306 0.203198 0.00361082 -0.142272 -0.304869 0.941708 1 
0.0828623 0.203634 0.00378627 -0.24363 -0.370613 0.896264 1 
0.0828041 0.203775 0.00404465 -0.241244 -0.325029 0.914416 1 
0.0826446 0.203541 0.00405848 -0.235841 -0.307308 0.921923 1 
0.0829162 0.203376 0.00440329 -0.183968 -0.263006 0.947092 1 
0.0830452 0.204504 0.00466859 -0.483491 -0.503429 0.716098 1 
0.0831069 0.204498 0.00383423 -0.434849 -0.460908 0.773609 1 
0.0829654 0.204179 0.00405373 -0.342804 -0.447067 0.826206 1 
0.0831992 0.204014 0.0039643 -0.37683 -0.466627 0.800162 1 
0.0833355 0.204027 0.00429787 -0.430763 -0.379898 0.818609 1 
0.0823947 0.204172 0.00458691 -0.292302 -0.187018 0.937861 1 
0.0829628 0.204026 0.00433027 -0.291694 -0.183864 0.938674 1 
0.0830426 0.204351 0.00494512 -0.482045 -0.488671 0.727209 1 
0.0833948 0.204284 0.0049836 -0.546836 -0.473255 0.690652 1 
0.0835266 0.203763 0.00494903 -0.683833 -0.120676 0.719589 1 
0.0838018 0.203941 0.00533965 -0.652029 -0.381313 0.655331 1 
0.0823246 0.202677 0.003142 -0.0560774 -0.342985 0.937666 1 
0.0826175 0.202352 0.00249472 0.119154 -0.416339 0.901368 1 
0.0829857 0.201819 0.00209418 0.197354 -0.455546 0.868061 1 
0.0829239 0.201617 0.00230677 0.185875 -0.425904 0.88547 1 
0.083198 0.201397 0.00175325 0.333612 -0.469587 0.817429 1 
0.083268 0.200673 0.00193128 0.278015 -0.53247 0.79949 1 
0.0831802 0.201691 0.00216936 0.216638 -0.446723 0.868047 1 
0.0835692 0.201434 0.00231975 0.336078 -0.391833 0.856457 1 
0.0845982 0.199627 -0.000372186 0.101481 -0.678009 0.728014 1 
0.0845159 0.199357 -8.87364e-005 0.123633 -0.713497 0.689664 1 
0.0837946 0.199975 0.000572778 0.158 -0.588363 0.79301 1 
0.0843403 0.19959 0.000364095 0.123083 -0.615413 0.778535 1 
0.0843888 0.20062 0.000935756 -0.00138031 -0.683251 0.730182 1 
0.0847785 0.200344 0.000786692 -0.138255 -0.79534 0.590187 1 
0.0853816 0.199836 0.000619054 -0.21691 -0.866143 0.450274 1 
0.0847017 0.200798 0.00176062 -0.191719 -0.774544 0.602764 1 
0.0854033 0.200302 0.00149231 -0.234512 -0.829221 0.507342 1 
0.0858111 0.199941 0.00154892 -0.220053 -0.86674 0.447591 1 
0.0853362 0.199584 0.00163618 -0.236632 -0.844241 0.480897 1 
0.0863977 0.199273 -4.50537e-005 -0.268986 -0.825615 0.495991 1 
0.086343 0.199758 0.000259146 -0.262156 -0.850856 0.455323 1 
0.0867516 0.199378 1.63093e-005 -0.283182 -0.815127 0.505347 1 
0.0865957 0.199488 7.59363e-005 -0.282178 -0.827827 0.484848 1 
0.086249 0.200279 0.000727966 -0.211569 -0.880306 0.424618 1 
0.0861685 0.20018 0.0010343 -0.204556 -0.884448 0.419414 1 
0.0862357 0.199095 0.000867091 -0.274655 -0.851585 0.446507 1 
0.0864516 0.199016 0.000571966 -0.274655 -0.851585 0.446507 1 
0.0857116 0.199738 0.00132725 -0.21691 -0.866143 0.450274 1 
0.085948 0.199726 0.000961266 -0.22197 -0.856168 0.466589 1 
0.086773 0.199427 -0.000353992 -0.311505 -0.811178 0.494929 1 
0.0869863 0.199194 -0.000372574 -0.303734 -0.813631 0.495732 1 
0.0874584 0.199189 -0.00080508 -0.397032 -0.779478 0.484541 1 
0.0873385 0.199127 -0.000334106 -0.303734 -0.813631 0.495732 1 
0.0869855 0.199213 -7.31349e-005 -0.311505 -0.811178 0.494929 1 
0.0873349 0.198784 -0.000379913 -0.345023 -0.809293 0.4754 1 
0.0872869 0.198379 0.000913769 -0.35166 -0.809932 0.46941 1 
0.0877518 0.197479 -0.000232138 -0.851222 -0.524763 0.00674502 1 
0.0832528 0.203132 0.00271598 -0.107293 -0.499271 0.859777 1 
0.0833434 0.202476 0.00282313 0.0977589 -0.485961 0.868496 1 
0.0835405 0.2025 0.00262178 0.0691272 -0.534678 0.842224 1 
0.0829007 0.203407 0.00329929 -0.222025 -0.392588 0.892513 1 
0.0824429 0.202775 0.0032699 -0.0874564 -0.364626 0.927038 1 
0.08258 0.202769 0.00330404 -0.0734966 -0.370156 0.926058 1 
0.0827412 0.203174 0.00331311 -0.150341 -0.37515 0.914691 1 
0.0829545 0.202941 0.00329452 -0.164178 -0.395455 0.903693 1 
0.0831884 0.202776 0.00320508 -0.077455 -0.508387 0.857638 1 
0.082736 0.202867 0.00386619 -0.176628 -0.312924 0.93321 1 
0.0831041 0.202126 0.00284386 0.0517446 -0.383441 0.922115 1 
0.0830477 0.202438 0.00312515 0.011828 -0.42975 0.90287 1 
0.0833166 0.201911 0.00312472 -0.463007 -0.26919 0.844489 1 
0.0833193 0.202273 0.00346996 0.00641197 -0.380871 0.924606 1 
0.082736 0.202867 0.00386619 -0.176628 -0.312924 0.93321 1 
0.0830111 0.202837 0.00363503 -0.138298 -0.4263 0.893947 1 
0.0830702 0.202886 0.00369897 -0.114532 -0.442573 0.889388 1 
0.0832038 0.202537 0.00368731 -0.044316 -0.425702 0.903778 1 
0.0832477 0.203033 0.00389083 -0.142893 -0.460432 0.876119 1 
0.0835381 0.202764 0.00414188 0.171391 -0.608211 0.775052 1 
0.0834511 0.203763 0.00408053 -0.371899 -0.481375 0.793706 1 
0.0835668 0.203708 0.00448497 -0.626077 -0.321936 0.710201 1 
0.0836394 0.203138 0.00438645 -0.424773 -0.325192 0.844878 1 
0.0861686 0.200389 0.00165609 -0.196713 -0.896137 0.397797 1 
0.0852261 0.200571 0.00254402 -0.307703 -0.864935 0.396492 1 
0.0866775 0.200193 0.00133549 -0.240367 -0.882342 0.404593 1 
0.086717 0.200365 0.00179263 -0.256618 -0.880906 0.397683 1 
0.0869893 0.199973 0.00121625 -0.297873 -0.850403 0.43369 1 
0.086244 0.20018 0.00190283 -0.237305 -0.879074 0.413419 1 
0.0868729 0.200254 0.00173301 -0.256618 -0.880906 0.397683 1 
0.0871848 0.200034 0.00161376 -0.362626 -0.878497 0.311039 1 
0.0872413 0.19993 0.00195426 -0.362626 -0.878497 0.311039 1 
0.0875164 0.1999 0.00172309 -0.413206 -0.846683 0.335243 1 
0.0875137 0.199746 0.00199962 -0.352453 -0.88189 0.313124 1 
0.0817237 0.201971 0.00455275 -0.270638 -0.0461456 0.961575 1 
0.0835942 0.199073 0.0047351 -0.309154 -0.943523 -0.119111 1 
0.084035 0.19797 0.00423605 -0.314568 -0.946315 0.0743999 1 
0.0841748 0.198325 0.00461543 -0.32998 -0.877412 -0.348227 1 
0.0843308 0.198215 0.0045558 -0.320426 -0.876237 -0.35991 1 
0.0875154 0.197699 0.000755616 -0.525841 -0.771773 0.357572 1 
0.0845213 0.203359 0.00527702 -0.65749 -0.492697 0.570049 1 
0.085064 0.200185 0.00283439 -0.589068 -0.538431 -0.60257 1 
0.0846774 0.203457 0.00583917 -0.671588 -0.412902 0.615208 1 
0.0846782 0.203439 0.00553973 -0.661414 -0.424838 0.618097 1 
0.0797743 0.202514 0.00281095 -0.243791 -0.224508 0.943484 1 
0.0798683 0.204004 0.00298727 -0.120902 -0.338254 0.933256 1 
0.0798835 0.203557 0.00284768 -0.196453 -0.193816 0.961167 1 
0.0804328 0.203515 0.0026848 -0.163268 -0.271213 0.948571 1 
0.080483 0.204716 0.00327937 -0.151455 -0.272083 0.95028 1 
0.079889 0.20428 0.00353818 -0.143008 -0.27666 0.950267 1 
0.0798164 0.202839 0.00299158 -0.247912 -0.206822 0.946448 1 
0.0806211 0.202889 0.00299072 -0.152393 -0.279163 0.948074 1 
0.0807386 0.203006 0.00341806 -0.182732 -0.228081 0.956341 1 
0.0810702 0.202871 0.00352739 -0.162483 -0.259166 0.952067 1 
0.0806471 0.205691 0.0042555 -0.0462563 -0.570494 0.819998 1 
0.0805207 0.204716 0.00371363 -0.0952636 -0.410048 0.907075 1 
0.0807018 0.205207 0.00395128 -0.113731 -0.50819 0.853702 1 
0.0805988 0.204869 0.00430558 -0.0514205 -0.521154 0.851912 1 
0.0820643 0.199415 0.000101328 0.226453 -0.7512 0.620014 1 
0.0833437 0.199613 -0.000608571 0.14656 -0.537385 0.830504 1 
0.0819433 0.201175 0.000895098 0.296629 -0.488105 0.820832 1 
0.0820483 0.200089 0.00116212 0.317371 -0.597689 0.736236 1 
0.0832255 0.199723 -0.000114694 0.211266 -0.578283 0.788007 1 
0.0831853 0.199778 0.000349365 0.212882 -0.629323 0.747418 1 
0.0796283 0.201662 0.0026623 -0.2538 -0.445289 0.858664 1 
0.0801579 0.201742 0.00289262 -0.214495 -0.344055 0.914122 1 
0.0800827 0.202159 0.00326768 -0.233836 -0.217427 0.947653 1 
0.0809026 0.201761 0.00312727 -0.184851 -0.246918 0.951242 1 
0.0808408 0.201559 0.00333985 -0.190913 -0.270575 0.943579 1 
0.0806956 0.202699 0.00353689 -0.168395 -0.229388 0.958658 1 
0.0807898 0.202387 0.00368985 -0.212418 -0.104324 0.971594 1 
0.0805945 0.202533 0.0039141 -0.215342 -0.104523 0.970929 1 
0.0811904 0.201339 0.00365485 -0.169741 -0.214479 0.961866 1 
0.0805327 0.202331 0.00412669 -0.230578 -0.0894593 0.968933 1 
0.0804915 0.202196 0.00426841 -0.260551 -0.0800719 0.962134 1 
0.081333 0.202056 0.00437947 -0.220745 -0.0860532 0.971528 1 
0.0816672 0.202075 0.00421226 -0.403565 -0.109559 0.908368 1 
0.0812095 0.201651 0.00480465 0.0531461 -0.171249 0.983793 1 
0.0807338 0.201313 0.00519135 -0.371474 0.0568447 0.926702 1 
0.0816584 0.201425 0.00471953 -0.341187 0.0164886 0.939851 1 
0.081559 0.201431 0.00511964 0.937876 -0.195333 0.286765 1 
0.0803565 0.199511 0.000825472 -0.27824 -0.803281 0.526613 1 
0.0810644 0.199721 0.000948213 -0.113255 -0.783957 0.610398 1 
0.0811415 0.199684 0.00121784 -0.00137915 -0.668888 0.743362 1 
0.0810351 0.199003 0.00152634 -0.279624 -0.845051 0.45574 1 
0.0809733 0.1988 0.00173893 -0.294281 -0.85203 0.432948 1 
0.081526 0.198893 0.00100006 -0.066161 -0.843201 0.533511 1 
0.0813728 0.199365 0.00140493 -0.0589254 -0.722914 0.688421 1 
0.082171 0.198502 0.00039126 0.252968 -0.817878 0.5168 1 
0.0816362 0.198115 0.000714011 -0.0653381 -0.868858 0.490731 1 
0.0821686 0.198557 0.00128958 -0.69149 -0.722223 -0.0153664 1 
0.082379 0.197754 0.000303976 0.283928 -0.857924 0.428195 1 
0.0826129 0.197589 0.000214532 0.281655 -0.866281 0.412587 1 
0.0828673 0.197491 5.42253e-005 0.546434 -0.440137 0.712523 1 
0.083042 0.197277 -9.91672e-005 0.582602 -0.521808 0.62313 1 
0.0825206 0.198281 0.000706263 0.480838 -0.57131 0.665132 1 
0.0812385 0.199733 0.00171604 -0.0647427 -0.674763 0.735189 1 
0.0814141 0.199708 0.00188499 -0.14623 -0.694969 0.704014 1 
0.0810261 0.200155 0.00205695 -0.278842 -0.60708 0.744111 1 
0.0811874 0.20056 0.00206604 -0.124674 -0.550034 0.825784 1 
0.0815217 0.200787 0.00252061 -0.0946301 -0.399092 0.912015 1 
0.0818173 0.200825 0.00221857 0.0909623 -0.460409 0.883034 1 
0.0804599 0.200474 0.00233652 -0.363339 -0.555599 0.74786 1 
0.0808864 0.200008 0.00229935 -0.307402 -0.622851 0.719417 1 
0.0815316 0.199825 0.00231234 -0.123633 -0.713497 0.689664 1 
0.080753 0.200566 0.0029328 -0.313523 -0.441428 0.840741 1 
0.0812825 0.200438 0.00254133 -0.187985 -0.512823 0.83766 1 
0.0812261 0.20075 0.00282263 -0.24335 -0.315348 0.917244 1 
0.0814752 0.200137 0.00259361 -0.132482 -0.605846 0.784474 1 
0.0815909 0.200082 0.00299806 -0.224104 -0.557943 0.799048 1 
0.0816444 0.1992 0.00174973 -0.0434474 -0.814289 0.578832 1 
0.0817655 0.19966 0.00222289 0.0124333 -0.797111 0.603705 1 
0.0818784 0.199243 0.00228209 -0.501621 -0.782271 0.369361 1 
0.0819734 0.198912 0.0021356 -0.951608 0.176323 -0.251698 1 
0.0822843 0.198502 0.00169402 -0.428335 -0.889841 0.1572 1 
0.0820567 0.201383 0.00281964 -0.00371157 -0.315483 0.948924 1 
0.0821374 0.201689 0.00313507 -0.0705392 -0.226468 0.971461 1 
0.082221 0.198544 0.00312726 -0.692196 -0.666618 0.276559 1 
0.0819925 0.199224 0.00328539 -0.842288 -0.434378 0.319166 1 
0.0819567 0.199604 0.00349583 -0.886174 -0.274399 0.373363 1 
0.0820724 0.199549 0.00390028 -0.840934 -0.402458 0.361743 1 
0.0811155 0.200161 0.00462834 -0.784429 -0.477127 0.396258 1 
0.0814443 0.199665 0.00439242 -0.765892 -0.512221 0.388637 1 
0.0819767 0.200107 0.00496798 -0.723869 -0.357849 0.58988 1 
0.0818764 0.199923 0.00504575 -0.773679 -0.51092 0.374675 1 
0.0822265 0.199267 0.00381775 -0.823112 -0.459742 0.333352 1 
0.0827526 0.199004 0.00400226 -0.768473 -0.494368 0.406263 1 
0.0828736 0.199464 0.00447541 -0.81858 -0.474745 0.323331 1 
0.0832025 0.198968 0.00423949 -0.565033 -0.824976 -0.0123131 1 
0.0796306 0.19812 -0.00353307 -0.0446075 -0.989372 0.138398 1 
0.0795894 0.197985 -0.00339133 -0.0446075 -0.989372 0.138398 1 
0.079356 0.198775 -0.00143655 -0.0863949 -0.909203 0.40729 1 
0.0795075 0.19834 -0.00124254 -0.160206 -0.911615 0.37854 1 
0.0798674 0.198524 -0.00265548 -0.0446075 -0.989372 0.138398 1 
0.0793324 0.197929 -0.00295449 -0.0446075 -0.989372 0.138398 1 
0.0795286 0.197972 -0.0028564 -0.0446075 -0.989372 0.138398 1 
0.0792536 0.198003 -0.00262526 -0.0446075 -0.989372 0.138398 1 
0.0794875 0.197837 -0.00271469 -0.0446075 -0.989372 0.138398 1 
0.0798056 0.198322 -0.00244289 -0.0446075 -0.989372 0.138398 1 
0.0799444 0.198279 -0.00300762 -0.0446075 -0.989372 0.138398 1 
0.0802322 0.197857 -0.00248004 -0.0446075 -0.989372 0.138398 1 
0.0792914 0.198002 -0.00219098 -0.199387 -0.935587 0.291412 1 
0.0799579 0.197868 -0.00254832 -0.0446075 -0.989372 0.138398 1 
0.0799365 0.197819 -0.00217802 -0.0446075 -0.989372 0.138398 1 
0.0800477 0.197231 -0.00214172 -0.0446075 -0.989372 0.138398 1 
0.0797036 0.198175 -0.00176624 -0.148714 -0.924251 0.351632 1 
0.0802915 0.198114 -0.00179431 -0.246067 -0.919514 0.306505 1 
0.0800934 0.197899 -0.0019153 -0.320438 -0.908638 0.267763 1 
0.0812347 0.197913 -0.00298167 -0.0446075 -0.989372 0.138398 1 
0.0775336 0.199324 -0.000172712 -0.355737 -0.805593 0.473784 1 
0.0776116 0.199269 -0.000202529 -0.355737 -0.805593 0.473784 1 
0.0797136 0.197212 -0.00197451 -0.0446075 -0.989372 0.138398 1 
0.0783457 0.202488 0.00180674 -0.218329 -0.388303 0.895295 1 
0.0780885 0.202225 0.0016218 -0.121516 -0.398068 0.909272 1 
0.0787355 0.202213 0.00165768 -0.21497 -0.387532 0.896441 1 
0.0783403 0.201973 0.00173803 -0.204556 -0.419414 0.884448 1 
0.0782501 0.203046 0.00287444 -0.268878 -0.237908 0.93333 1 
0.0784614 0.202433 0.00221118 -0.26791 -0.347839 0.898461 1 
0.0784811 0.202519 0.00243975 -0.248819 -0.333214 0.909427 1 
0.0786182 0.202513 0.00247389 -0.267763 -0.320438 0.908638 1 
0.0789129 0.20236 0.00184952 -0.246786 -0.373873 0.894045 1 
0.0785582 0.202274 0.00208759 -0.249055 -0.364003 0.897482 1 
0.078629 0.203543 0.00261131 -0.240111 -0.265386 0.933765 1 
0.0790959 0.203231 0.00273187 -0.25778 -0.232699 0.937763 1 
0.078508 0.203292 0.00275996 -0.249514 -0.263611 0.9318 1 
0.0786819 0.203096 0.00290599 -0.219857 -0.281473 0.934043 1 
0.0818426 0.198355 -0.00153761 -0.227627 -0.882242 0.41211 1 
0.0772249 0.202542 0.00280226 -0.12186 -0.4048 0.906249 1 
0.0772598 0.201972 0.00226948 -0.135169 -0.431117 0.892114 1 
0.0763324 0.201499 0.00239605 -0.0759307 -0.448682 0.89046 1 
0.0765475 0.201438 0.00240038 -0.0936336 -0.445808 0.890218 1 
0.0768441 0.201665 0.0024207 -0.0990351 -0.431012 0.896895 1 
0.0769183 0.201058 0.0017233 -0.169356 -0.547033 0.819801 1 
0.0776905 0.199404 8.99881e-005 -0.321688 -0.782614 0.532946 1 
0.077661 0.200489 0.000691481 -0.137525 -0.554538 0.820716 1 
0.0777201 0.200538 0.000755422 -0.140766 -0.555657 0.819409 1 
0.0785778 0.200141 0.00104928 -0.271755 -0.627738 0.729448 1 
0.0785313 0.199491 0.00112229 -0.2872 -0.659438 0.694736 1 
0.0772731 0.201144 0.00148524 -0.146033 -0.523654 0.839322 1 
0.0770394 0.201518 0.00219645 -0.112266 -0.467539 0.876814 1 
0.0772169 0.201665 0.0023883 -0.151197 -0.43919 0.88558 1 
0.0775071 0.201188 0.00201757 -0.198157 -0.515813 0.833469 1 
0.0774507 0.2015 0.00229886 -0.153396 -0.480639 0.863398 1 
0.0777256 0.201261 0.00144592 -0.198157 -0.515813 0.833469 1 
0.0778002 0.201071 0.00199208 -0.198157 -0.515813 0.833469 1 
0.078016 0.200992 0.00169697 -0.235338 -0.512206 0.825991 1 
0.0777902 0.202034 0.00220036 -0.121516 -0.398068 0.909272 1 
0.0780241 0.201869 0.00211092 -0.161863 -0.40251 0.900992 1 
0.0785484 0.201434 0.00227254 -0.262156 -0.455323 0.850856 1 
0.0779355 0.200894 0.00200332 -0.235338 -0.512206 0.825991 1 
0.0789973 0.201208 0.00218742 -0.232545 -0.478768 0.846584 1 
0.0786711 0.199846 0.00150166 -0.262251 -0.554339 0.789894 1 
0.0788092 0.20003 0.00185814 -0.272904 -0.566314 0.777696 1 
0.0790637 0.199933 0.00169785 -0.279721 -0.561022 0.779109 1 
0.0791695 0.20084 0.00231057 -0.271586 -0.491959 0.827174 1 
0.0791847 0.200392 0.00217099 -0.269219 -0.552607 0.788763 1 
0.0791264 0.200325 0.0018076 -0.24447 -0.549669 0.798811 1 
0.0792259 0.200527 0.00202926 -0.254921 -0.54894 0.796041 1 
0.0773844 0.202775 0.00278843 -0.101664 -0.427544 0.89826 1 
0.0780878 0.202451 0.00254302 -0.264841 -0.384543 0.8843 1 
0.077811 0.20231 0.00275129 -0.245565 -0.394393 0.885524 1 
0.0783226 0.202476 0.00277591 -0.26791 -0.347839 0.898461 1 
0.0787339 0.202458 0.00287833 -0.280031 -0.288736 0.91554 1 
0.0787688 0.201888 0.00234555 -0.244842 -0.387295 0.88885 1 
0.0790798 0.201686 0.00252575 -0.266891 -0.431602 0.861678 1 
0.0789239 0.201796 0.00258537 -0.256245 -0.394107 0.88262 1 
0.078932 0.202673 0.00299932 -0.314412 -0.220515 0.923319 1 
0.0784331 0.202114 0.00373343 -0.387575 -0.242049 0.889493 1 
0.0790402 0.199295 0.00080169 -0.306438 -0.742832 0.595228 1 
0.10371 0.236239 -0.0130114 0.491349 -0.754278 0.435477 0 
0.10499 0.236419 -0.0140207 0.4754 -0.809293 0.345023 0 
0.103925 0.23616 -0.0133065 0.513461 -0.761226 0.396098 0 
0.104452 0.235878 -0.0134214 0.542618 -0.762904 0.351487 0 
0.10463 0.236026 -0.0132296 0.544033 -0.766813 0.340626 0 
0.10485 0.236271 -0.0137783 0.501672 -0.801082 0.326485 0 
0.104632 0.236179 -0.0135061 0.536791 -0.777145 0.328484 0 
0.103373 0.23584 -0.0134889 0.514538 -0.732927 0.44505 0 
0.103686 0.23581 -0.0132858 0.516705 -0.737914 0.434164 0 
0.103447 0.23546 -0.013265 0.538774 -0.702241 0.465381 0 
0.103625 0.235608 -0.0130732 0.534707 -0.707945 0.461414 0 
0.103426 0.235393 -0.0131942 0.532654 -0.692951 0.4859 0 
0.104139 0.235927 -0.0133251 0.547436 -0.743533 0.384022 0 
0.104255 0.235854 -0.0132201 0.547436 -0.743533 0.384022 0 
0.103725 0.235792 -0.013151 0.531373 -0.726707 0.435362 0 
0.103663 0.235589 -0.0129384 0.534707 -0.707945 0.461414 0 
0.104015 0.235522 -0.0128999 0.53553 -0.721224 0.439367 0 
0.104249 0.235357 -0.0129893 0.547506 -0.731652 0.406108 0 
0.103902 0.235939 -0.0129591 0.536615 -0.740101 0.405333 0 
0.104254 0.235872 -0.0129207 0.559893 -0.742716 0.367277 0 
0.104488 0.235707 -0.0130101 0.587774 -0.727798 0.353316 0 
0.104681 0.235406 -0.0129578 0.610045 -0.714159 0.343252 0 
0.105147 0.236499 -0.013758 0.485539 -0.807109 0.335897 0 
0.105028 0.236419 -0.0135865 0.518641 -0.78993 0.327143 0 
0.105262 0.236443 -0.0133536 0.509752 -0.79419 0.330779 0 
0.105246 0.236701 -0.0135363 0.131186 -0.315117 -0.939942 0 
0.105424 0.236848 -0.0133445 0.151725 -0.346601 -0.925661 0 
0.105383 0.236713 -0.0132028 0.131186 -0.315117 -0.939942 0 
0.10481 0.236326 -0.0133143 0.53031 -0.780245 0.331644 0 
0.105143 0.236364 -0.013182 0.518641 -0.78993 0.327143 0 
0.105103 0.23621 -0.0133398 0.538598 -0.781526 0.314848 0 
0.105399 0.236456 -0.01302 0.125544 -0.314536 -0.940907 0 
0.105571 0.236088 -0.0128969 0.552451 -0.770229 0.31866 0 
0.10562 0.236891 -0.0132464 0.166152 -0.379168 -0.910288 0 
0.105673 0.236444 -0.0129517 0.131186 -0.315117 -0.939942 0 
0.105732 0.236493 -0.0128878 0.140687 -0.323716 -0.935636 0 
0.104551 0.236099 -0.0129003 0.557619 -0.763312 0.326215 0 
0.104985 0.23632 -0.0128459 0.538846 -0.778688 0.321389 0 
0.104748 0.236124 -0.0131017 0.541175 -0.772419 0.332413 0 
0.104982 0.235959 -0.0131911 0.543239 -0.773996 0.325303 0 
0.10492 0.235756 -0.0129785 0.572674 -0.750122 0.330699 0 
0.105373 0.235873 -0.0130178 0.563484 -0.767807 0.304888 0 
0.105193 0.235573 -0.0129332 0.562573 -0.759232 0.327227 0 
0.105072 0.235321 -0.0127845 0.600362 -0.735565 0.313862 0 
0.105728 0.236168 -0.0126341 0.125544 -0.314536 -0.940907 0 
0.106023 0.236205 -0.0129362 0.140687 -0.323716 -0.935636 0 
0.105923 0.236021 -0.0128584 0.113349 -0.305375 -0.945462 0 
0.105722 0.235653 -0.0127028 0.579071 -0.755519 0.306378 0 
0.105483 0.235303 -0.0126821 0.612566 -0.728327 0.307087 0 
0.105902 0.235954 -0.0127875 0.113349 -0.305375 -0.945462 0 
0.0959694 0.230239 -0.0110962 0.00125813 0.348502 0.937307 0 
0.0964049 0.230632 -0.0110188 -0.0241365 0.336641 0.941324 0 
0.0956352 0.23022 -0.010929 0.0088693 0.350971 0.936344 0 
0.0960671 0.23027 -0.0108974 0.00125813 0.348502 0.937307 0 
0.0961657 0.230282 -0.0109981 -0.0192698 0.363557 0.931373 0 
0.0961245 0.230147 -0.0108563 0.0113961 0.345683 0.938282 0 
0.0954346 0.229852 -0.0107734 0.00640569 0.383061 0.923701 0 
0.0955529 0.22995 -0.0106455 0.00639399 0.374688 0.927129 0 
0.0953934 0.229717 -0.0106317 0.03282 0.389901 0.920272 0 
0.0955117 0.229815 -0.0105038 -0.00387086 0.40386 0.914813 0 
0.0960054 0.230067 -0.0106848 -0.00381292 0.369854 0.929082 0 
0.0960422 0.229877 -0.0105729 -0.00127335 0.378186 0.925729 0 
0.0958459 0.229834 -0.010671 0.00639399 0.374688 0.927129 0 
0.096001 0.229742 -0.0104312 0.006403 0.377777 0.925874 0 
0.0951336 0.2293 -0.0105401 0.00391987 0.42988 0.902878 0 
0.0950924 0.229165 -0.0103984 0.00657265 0.445626 0.895195 0 
0.0950719 0.229097 -0.0103275 0.0389612 0.436634 0.898795 0 
0.0953316 0.229515 -0.0104191 0.0275994 0.406106 0.913409 0 
0.0955279 0.229558 -0.010321 -0.00129867 0.41947 0.907768 0 
0.0957841 0.229632 -0.0104584 0.00386453 0.39547 0.918471 0 
0.095311 0.229447 -0.0103482 0.0144197 0.423416 0.905821 0 
0.0955449 0.229282 -0.0104377 0.0197521 0.420062 0.907281 0 
0.0952887 0.229208 -0.0103003 0.00393897 0.442477 0.896771 0 
0.0955817 0.229092 -0.0103258 0.0118146 0.43189 0.901849 0 
0.0941203 0.228213 -0.0101759 0.231692 0.35701 0.90491 0 
0.0935443 0.227691 -0.00971138 0.028582 0.502226 0.864264 0 
0.0940174 0.227876 -0.00982156 0.410517 0.210408 0.887245 0 
0.0939556 0.227673 -0.00960897 0.432537 0.215525 0.875478 0 
0.0941974 0.228177 -0.00990624 0.278089 0.322231 0.904894 0 
0.0941769 0.228109 -0.00983538 0.366823 0.246022 0.89717 0 
0.0941151 0.227907 -0.0096228 0.414037 0.210702 0.885538 0 
0.0945396 0.228864 -0.0102813 0.0701772 0.44996 0.890287 0 
0.0948326 0.228748 -0.0103068 0.0559844 0.449241 0.891655 0 
0.095088 0.22884 -0.0101447 0.0391041 0.451719 0.891303 0 
0.0944581 0.228575 -0.0102973 0.084986 0.458367 0.88469 0 
0.0947915 0.228613 -0.0101651 0.0505316 0.460247 0.886352 0 
0.0943757 0.228306 -0.0100138 0.225568 0.356544 0.90664 0 
0.0947297 0.22841 -0.00995246 0.183809 0.363343 0.913344 0 
0.0951436 0.228546 -0.0101266 0.0532595 0.454754 0.889023 0 
0.0944905 0.22806 -0.00993173 0.380303 0.224658 0.897162 0 
0.0946679 0.228208 -0.00973988 0.294833 0.297767 0.907969 0 
0.0942728 0.227968 -0.00965952 0.38984 0.225077 0.892953 0 
0.0941743 0.227956 -0.00955885 0.408619 0.216848 0.886571 0 
0.095375 0.228435 -0.0093177 0.157035 0.377733 0.912501 0 
0.0911819 0.225536 -0.00821685 0.0529943 0.706113 0.706113 0 
0.0915153 0.225573 -0.00808463 0.111061 0.667848 0.735965 0 
0.0915726 0.225451 -0.00804358 0.110842 0.669484 0.734511 0 
0.0934825 0.227489 -0.0094988 0.0687155 0.506251 0.859644 0 
0.0937791 0.227716 -0.00947848 0.436358 0.212967 0.874206 0 
0.0939916 0.227502 -0.00919762 0.056792 0.497276 0.865732 0 
0.0931851 0.22728 -0.00921966 0.0866363 0.518397 0.85074 0 
0.0934619 0.227421 -0.00942793 0.065799 0.513793 0.855388 0 
0.0934002 0.227219 -0.00921535 0.10442 0.504936 0.856817 0 
0.0937174 0.227514 -0.00926588 0.0715765 0.509456 0.857515 0 
0.0939504 0.227367 -0.00905591 0.103765 0.48471 0.868498 0 
0.0936762 0.227379 -0.00912417 0.0950215 0.494963 0.863703 0 
0.0940739 0.227772 -0.00948107 0.428151 0.211853 0.878524 0 
0.0929639 0.226844 -0.00899327 0.0839721 0.525181 0.846837 0 
0.0926261 0.226482 -0.00887187 0.0725713 0.562072 0.823898 0 
0.0928036 0.226629 -0.00868002 0.0965997 0.546437 0.831911 0 
0.0931234 0.227077 -0.00900708 0.101642 0.513935 0.851786 0 
0.0933384 0.227016 -0.00900276 0.116742 0.505882 0.854666 0 
0.0935939 0.227109 -0.00884072 0.104525 0.508304 0.854811 0 
0.0935527 0.226974 -0.00869899 0.123269 0.514831 0.848383 0 
0.0931198 0.226734 -0.0090529 0.0898371 0.526188 0.845609 0 
0.0932973 0.226881 -0.00886103 0.102084 0.521921 0.846863 0 
0.0931558 0.226562 -0.00864155 0.0992886 0.539612 0.836039 0 
0.0932355 0.226679 -0.00864845 0.0872395 0.536308 0.839501 0 
0.0936468 0.226661 -0.00854604 0.105025 0.525127 0.844519 0 
0.0941719 0.226208 -0.00868386 0.12968 0.511436 0.84948 0 
0.094134 0.228011 -0.00909478 0.369619 0.259772 0.892132 0 
0.0946547 0.227233 -0.00897897 0.034194 0.499233 0.865793 0 
0.0945724 0.226963 -0.00869553 0.122433 0.48541 0.865672 0 
0.0944721 0.226779 -0.00861775 0.150494 0.486549 0.860593 0 
0.0941155 0.226521 -0.00840258 0.123269 0.514831 0.848383 0 
0.0920913 0.226095 -0.0085491 0.0615753 0.625777 0.777568 0 
0.0921684 0.226058 -0.00827948 0.0644552 0.628796 0.774894 0 
0.0919508 0.225966 -0.00800727 0.0829039 0.647233 0.757771 0 
0.0917339 0.225855 -0.0080345 0.1015 0.65166 0.751689 0 
0.091889 0.225764 -0.00779468 0.09826 0.661422 0.74355 0 
0.0916721 0.225653 -0.00782191 0.107876 0.663508 0.740351 0 
0.092585 0.226347 -0.00873014 0.100299 0.574175 0.812566 0 
0.0927812 0.22639 -0.00863204 0.105915 0.558591 0.822653 0 
0.0925232 0.226145 -0.00851756 0.103383 0.583894 0.80522 0 
0.0927195 0.226188 -0.00841946 0.0970282 0.574928 0.81243 0 
0.0924614 0.225942 -0.00830497 0.0883391 0.603892 0.792156 0 
0.0926989 0.22612 -0.00834859 0.103383 0.583894 0.80522 0 
0.0929919 0.226004 -0.00837409 0.131077 0.552291 0.823282 0 
0.0929587 0.226538 -0.00844019 0.0965194 0.543102 0.834101 0 
0.0932517 0.226421 -0.00846568 0.0992886 0.539612 0.836039 0 
0.0929345 0.226127 -0.00841513 0.115246 0.558723 0.821308 0 
0.0937195 0.226091 -0.00864455 0.0930546 0.53399 0.840354 0 
0.0936451 0.226489 -0.00856894 0.0961847 0.529734 0.842693 0 
0.093663 0.226404 -0.00836325 0.0930546 0.53399 0.840354 0 
0.0941711 0.226226 -0.00838443 0.142165 0.514433 0.845664 0 
0.0936935 0.225508 -0.00864241 0.198299 0.469656 0.860291 0 
0.0935807 0.226134 -0.00807981 0.121096 0.544204 0.830167 0 
0.0940887 0.225956 -0.00810098 0.136338 0.52043 0.84295 0 
0.092734 0.225967 -0.00763781 0.0914213 0.605122 0.790866 0 
0.09314 0.225434 -0.00760411 0.119353 0.599711 0.791265 0 
0.0934803 0.225949 -0.00800205 0.115434 0.556711 0.822647 0 
0.0934186 0.225747 -0.00778947 0.14378 0.558817 0.816732 0 
0.0940476 0.225821 -0.00795927 0.152553 0.525791 0.836822 0 
0.0939858 0.225619 -0.00774668 0.140189 0.538621 0.830804 0 
0.0933569 0.225545 -0.00757688 0.150417 0.564436 0.811657 0 
0.0966381 0.230693 -0.010187 -0.0268213 0.343568 0.938745 0 
0.0966171 0.230001 -0.0119815 0.0562801 0.258889 0.964266 0 
0.096523 0.230522 -0.0115127 0.00367635 0.297785 0.954626 0 
0.0963833 0.230375 -0.0112703 0.00124578 0.332624 0.943059 0 
0.100007 0.233249 -0.0121374 -0.15605 0.695407 0.701468 0 
0.10068 0.233593 -0.0130249 -0.104851 0.683749 0.722145 0 
0.100541 0.233636 -0.0124601 -0.12711 0.695364 0.707327 0 
0.100521 0.233568 -0.0123893 -0.130036 0.689044 0.712958 0 
0.100146 0.233396 -0.0123798 -0.149495 0.696134 0.702174 0 
0.100459 0.233366 -0.0121767 -0.146233 0.697996 0.701011 0 
0.100085 0.233193 -0.0121672 -0.15605 0.695407 0.701468 0 
0.100418 0.233231 -0.012035 -0.152761 0.691204 0.706329 0 
0.100043 0.233058 -0.0120255 -0.156365 0.687701 0.708955 0 
0.0999448 0.233046 -0.0119248 -0.165942 0.68965 0.704874 0 
0.100356 0.233028 -0.0118224 -0.159313 0.684287 0.711598 0 
0.101143 0.234532 -0.0135486 -0.0936694 0.551929 0.828614 0 
0.101517 0.234722 -0.0132586 -0.105377 0.52977 0.84157 0 
0.102401 0.234889 -0.0132664 0.558114 -0.645793 0.521019 0 
0.102579 0.235036 -0.0130745 0.557132 -0.644658 0.523469 0 
0.102262 0.234741 -0.013024 -0.149833 0.547411 0.823342 0 
0.102517 0.234834 -0.0128619 -0.162585 0.541454 0.82486 0 
0.101319 0.234507 -0.0133796 -0.0992886 0.539612 0.836039 0 
0.101154 0.233967 -0.0128127 -0.10773 0.647854 0.754108 0 
0.101434 0.234262 -0.0132975 -0.105833 0.55526 0.824916 0 
0.101652 0.234545 -0.0132474 -0.114484 0.531844 0.839068 0 
0.101591 0.234342 -0.0130348 -0.108698 0.546387 0.83045 0 
0.101372 0.23406 -0.0130849 -0.0943458 0.584944 0.805568 0 
0.101431 0.234109 -0.013021 -0.100157 0.567555 0.817221 0 
0.101686 0.234201 -0.0128589 -0.109135 0.554405 0.82506 0 
0.101625 0.233999 -0.0126463 -0.0972569 0.576284 0.811442 0 
0.102082 0.234441 -0.0129393 -0.137191 0.544338 0.827571 0 
0.102241 0.234674 -0.0129531 -0.146451 0.542902 0.826928 0 
0.102179 0.234471 -0.0127405 -0.143673 0.54655 0.82501 0 
0.102378 0.234668 -0.012919 -0.156261 0.546168 0.822972 0 
0.102435 0.234564 -0.0125785 -0.153227 0.542989 0.825642 0 
0.101961 0.234189 -0.0127906 -0.124674 0.550034 0.825784 0 
0.102411 0.234153 -0.0125534 -0.140084 0.544116 0.827233 0 
0.102856 0.235178 -0.0132828 0.544365 -0.652226 0.527511 0 
0.102773 0.234908 -0.0129993 0.548352 -0.642838 0.534854 0 
0.102951 0.235055 -0.0128075 0.539527 -0.600414 0.590266 0 
0.102732 0.234773 -0.0128576 -0.176742 0.557418 0.811201 0 
0.100899 0.233875 -0.0129748 -0.101529 0.654789 0.748961 0 
0.100896 0.233722 -0.0126982 -0.107989 0.681956 0.723377 0 
0.101035 0.233888 -0.0126412 -0.110862 0.672563 0.731689 0 
0.100797 0.233728 -0.0122981 -0.120711 0.69595 0.707872 0 
0.101012 0.233667 -0.0122938 -0.114351 0.696503 0.708384 0 
0.10229 0.233901 -0.0124048 -0.144493 0.582442 0.799927 0 
0.102035 0.233999 -0.0122445 -0.13817 0.58685 0.797819 0 
0.101642 0.233931 -0.0121412 -0.13962 0.671075 0.728124 0 
0.101599 0.233624 -0.0120224 -0.130036 0.689044 0.712958 0 
0.101775 0.233582 -0.0121529 -0.136733 0.68066 0.719726 0 
0.101989 0.233349 -0.0121715 -0.136467 0.685335 0.715327 0 
0.100756 0.233593 -0.0121564 -0.127114 0.701371 0.701371 0 
0.100596 0.23336 -0.0121426 -0.143277 0.695272 0.704321 0 
0.100829 0.233213 -0.0119326 -0.136493 0.694464 0.706463 0 
0.101688 0.232797 -0.0119382 -0.117528 0.697729 0.706655 0 
0.101433 0.232895 -0.0117778 -0.117528 0.697729 0.706655 0 
0.101459 0.233477 -0.01178 -0.120715 0.701936 0.701936 0 
0.101812 0.233392 -0.012041 -0.130036 0.689044 0.712958 0 
0.10173 0.233122 -0.0117575 -0.114115 0.698028 0.70692 0 
0.101927 0.233147 -0.0119589 -0.123903 0.694154 0.709082 0 
0.101475 0.233219 -0.0115972 -0.120461 0.697482 0.706405 0 
0.102627 0.234263 -0.0125262 -0.149709 0.543994 0.825626 0 
0.102861 0.234098 -0.0126156 -0.155998 0.539308 0.827533 0 
0.103052 0.235221 -0.0131847 0.532177 -0.66648 0.522104 0 
0.10299 0.235018 -0.0129721 0.53845 -0.599215 0.592464 0 
0.103641 0.23535 -0.0128904 0.53914 -0.692704 0.47905 0 
0.103502 0.235184 -0.0129475 0.538831 -0.666405 0.515331 0 
0.103263 0.234835 -0.0129267 0.536892 -0.647973 0.540258 0 
0.103162 0.23465 -0.012849 0.545519 -0.633342 0.548896 0 
0.103611 0.234424 -0.0129341 0.544587 -0.649121 0.531099 0 
0.10348 0.235135 -0.0125772 0.543624 -0.661437 0.516695 0 
0.103615 0.234768 -0.0128883 0.547455 -0.655262 0.520504 0 
0.103885 0.234412 -0.0128658 0.557132 -0.644658 0.523469 0 
0.10403 0.235075 -0.0130395 0.552808 -0.693098 0.462622 0 
0.104442 0.235057 -0.0129371 0.580433 -0.718553 0.383119 0 
