0.0892154 0.201658 0.00666118 0.303434 -0.121641 0.945056 1 
0.0891051 0.201865 0.00706758 0.326955 -0.181018 0.927541 1 
0.0848747 0.203059 0.00856017 -0.185073 -0.149334 0.971312 1 
0.0853142 0.203405 0.00872517 -0.18881 -0.0293183 0.981576 1 
0.0850578 0.203875 0.00890905 -0.253315 0.0852871 0.963617 1 
0.0859747 0.203778 0.00891182 -0.199733 0.0796481 0.976608 1 
0.0859617 0.203662 0.00918841 -0.195829 0.0540633 0.979147 1 
0.085413 0.204658 0.00892726 -0.189822 0.102975 0.976404 1 
0.08559 0.204482 0.00918763 -0.274807 0.200236 0.940418 1 
0.0853315 0.204621 0.00934202 -0.278231 0.197946 0.939896 1 
0.0863264 0.203718 0.00955427 -0.197672 0.117092 0.97325 1 
0.0853185 0.204506 0.00961862 -0.297885 0.202786 0.932814 1 
0.0853099 0.204429 0.00980301 -0.326797 0.199474 0.923804 1 
0.0861294 0.204654 0.00993558 -0.290464 0.211884 0.933132 1 
0.086454 0.204728 0.00976473 -0.444306 0.102316 0.890013 1 
0.0861034 0.204423 0.0104888 -0.00595298 0.241691 0.970335 1 
0.0857306 0.204108 0.0109906 -0.473421 0.263697 0.840438 1 
0.0866094 0.20436 0.0104861 -0.433203 0.243016 0.867916 1 
0.0864681 0.204479 0.0108546 0.908249 0.279349 0.311525 1 
0.0865038 0.200796 0.00769217 -0.0464384 -0.589627 0.80634 1 
0.0870779 0.201276 0.00770254 0.0915886 -0.480488 0.872206 1 
0.087131 0.201373 0.00796266 0.141284 -0.291987 0.945929 1 
0.0872289 0.200869 0.0085161 -0.0238236 -0.651645 0.75815 1 
0.0872159 0.200754 0.0087927 -0.0324692 -0.67056 0.741145 1 
0.0877854 0.200755 0.00806081 0.166304 -0.54386 0.822532 1 
0.0874339 0.201255 0.00825279 0.111736 -0.382109 0.917337 1 
0.0885916 0.200425 0.00763553 0.455151 -0.413037 0.78882 1 
0.0881879 0.200023 0.00809944 0.180556 -0.581118 0.793537 1 
0.088466 0.200808 0.00844022 -0.39702 -0.871619 0.287497 1 
0.0890517 0.199828 0.00784209 0.509153 -0.46935 0.721439 1 
0.0893367 0.199738 0.00781777 0.510774 -0.484154 0.710425 1 
0.0896261 0.199686 0.00770125 0.577897 0.0879095 0.811361 1 
0.0898802 0.199509 0.00763906 0.648407 -0.00137666 0.761293 1 
0.0889564 0.200481 0.00800139 0.566171 -0.0666918 0.821586 1 
0.0871466 0.201637 0.00839881 0.0856841 -0.322963 0.942525 1 
0.087299 0.201743 0.00855863 0.0193896 -0.381328 0.924236 1 
0.0867642 0.202049 0.00855293 -0.138795 -0.339428 0.930336 1 
0.0867749 0.202457 0.00839803 -0.0248352 -0.20696 0.978034 1 
0.0869559 0.202942 0.00871742 -0.0585652 -0.0330095 0.997738 1 
0.087254 0.202967 0.0084165 0.139147 -0.0282819 0.989868 1 
0.0860948 0.202222 0.00870188 -0.235168 -0.324618 0.916144 1 
0.0866562 0.201964 0.00883763 -0.156393 -0.37337 0.914405 1 
0.0873189 0.202045 0.00890259 0.0492546 -0.395368 0.917201 1 
0.0862672 0.20263 0.00920566 -0.239719 -0.175437 0.954859 1 
0.0868503 0.202564 0.00888042 -0.097778 -0.191843 0.976543 1 
0.0866579 0.202917 0.00901833 -0.226573 -0.0130487 0.973907 1 
0.0871266 0.202397 0.0090405 -0.00849733 -0.270701 0.962626 1 
0.0872063 0.202543 0.00943068 -0.110111 -0.257789 0.959907 1 
0.0877036 0.201341 0.00862676 0.170536 -0.493814 0.852681 1 
0.087604 0.201955 0.00887827 0.213502 -0.449398 0.867443 1 
0.0878451 0.201662 0.00909268 -0.244167 -0.710446 0.660037 1 
0.088064 0.201358 0.00908483 -0.917934 -0.287667 -0.273212 1 
0.0885457 0.200954 0.00883041 -0.113897 -0.854951 0.50605 1 
0.0872161 0.203755 0.00874373 -0.00530504 0.0859416 0.996286 1 
0.0871497 0.204164 0.00891139 -0.102376 0.145735 0.984012 1 
0.0883054 0.201505 0.0101337 -0.449468 -0.714836 0.535713 1 
0.087841 0.202063 0.0100193 -0.674813 -0.554251 0.487272 1 
0.087653 0.202454 0.010065 -0.775427 -0.414537 0.476311 1 
0.0877327 0.2026 0.0104552 -0.688649 -0.511041 0.514392 1 
0.0865464 0.203051 0.0109129 -0.613818 -0.542798 0.573235 1 
0.0870503 0.202657 0.0108808 -0.584076 -0.567146 0.58069 1 
0.0873284 0.203442 0.0112215 -0.621803 -0.344358 0.703405 1 
0.0872888 0.203278 0.0113681 -0.589659 -0.576143 0.566005 1 
0.0879825 0.202384 0.0104852 -0.648679 -0.564435 0.510519 1 
0.0885415 0.202418 0.0107427 -0.593866 -0.546492 0.590482 1 
0.0884419 0.203032 0.0109942 -0.638903 -0.578216 0.507414 1 
0.0889458 0.202638 0.010962 -0.242294 -0.912592 0.329346 1 
0.0868106 0.197711 0.00424992 0.280383 -0.809821 0.51534 1 
0.0868019 0.197634 0.00443432 0.280383 -0.809821 0.51534 1 
0.0860863 0.198958 0.00592934 0.182338 -0.654272 0.733949 1 
0.086354 0.198714 0.00627381 0.117524 -0.694729 0.709605 1 
0.0867907 0.198471 0.0048916 0.280383 -0.809821 0.51534 1 
0.0865305 0.197658 0.0048653 0.280383 -0.809821 0.51534 1 
0.0866873 0.197802 0.00493292 0.280383 -0.809821 0.51534 1 
0.0863936 0.197815 0.00514163 0.280383 -0.809821 0.51534 1 
0.0866786 0.197725 0.00511731 0.280383 -0.809821 0.51534 1 
0.0867777 0.198356 0.0051682 0.280383 -0.809821 0.51534 1 
0.0869873 0.198157 0.0046615 0.280383 -0.809821 0.51534 1 
0.087339 0.198098 0.00530396 0.280383 -0.809821 0.51534 1 
0.0863783 0.197992 0.00553992 0.101177 -0.761024 0.640785 1 
0.0870872 0.197984 0.00524444 0.280383 -0.809821 0.51534 1 
0.087041 0.198073 0.00560487 0.280383 -0.809821 0.51534 1 
0.0873419 0.197624 0.00586551 0.280383 -0.809821 0.51534 1 
0.0866543 0.198447 0.00585119 0.13677 -0.710904 0.689862 1 
0.0872264 0.198596 0.00583205 0.0497889 -0.758215 0.650101 1 
0.0871294 0.198296 0.00581066 -0.020832 -0.790227 0.61246 1 
0.0883128 0.198319 0.00479139 0.280383 -0.809821 0.51534 1 
0.0840521 0.199244 0.00692937 -0.110782 -0.639579 0.760701 1 
0.0841471 0.199214 0.00692126 -0.110782 -0.639579 0.760701 1 
0.0870173 0.19755 0.00603638 0.280383 -0.809821 0.51534 1 
0.0834956 0.202982 0.00748689 -0.174277 -0.0733167 0.981963 1 
0.0833677 0.202594 0.00742763 -0.081975 -0.042627 0.995722 1 
0.0839706 0.202831 0.00744636 -0.171137 -0.0730023 0.982539 1 
0.0836749 0.202514 0.00762557 -0.150482 -0.09992 0.98355 1 
0.0830913 0.203824 0.0082532 -0.277207 0.0489189 0.959564 1 
0.0835753 0.203128 0.00787707 -0.236016 -0.0580772 0.970012 1 
0.0835377 0.203294 0.0080531 -0.225092 -0.0325 0.973795 1 
0.0836636 0.203351 0.00808286 -0.246711 -0.0303831 0.968613 1 
0.0840633 0.203093 0.00755994 -0.206891 -0.0722283 0.975694 1 
0.0837344 0.202981 0.007823 -0.211206 -0.0622632 0.975456 1 
0.0833049 0.204286 0.0078055 -0.242649 0.0377996 0.969377 1 
0.0838331 0.204233 0.00802508 -0.268409 0.0592263 0.961483 1 
0.0832611 0.204084 0.00804423 -0.251314 0.0355517 0.967252 1 
0.0834733 0.204034 0.00825027 -0.21669 0.032324 0.975705 1 
0.0885602 0.199457 0.00592875 0.0411977 -0.680473 0.731615 1 
0.0823165 0.202997 0.00841396 -0.0803033 -0.049502 0.995541 1 
0.0826061 0.202323 0.00814625 -0.0826675 -0.0826675 0.993143 1 
0.0818888 0.201632 0.00847492 -0.0202584 -0.0757023 0.996925 1 
0.0821097 0.201659 0.00849658 -0.0380958 -0.0816339 0.995934 1 
0.0823061 0.201968 0.00841767 -0.0488991 -0.0684587 0.996455 1 
0.0826642 0.201215 0.00801178 -0.0652123 -0.220245 0.973262 1 
0.0841405 0.199467 0.00713516 -0.0941255 -0.583578 0.806583 1 
0.0836715 0.200609 0.00726419 -0.0347335 -0.214389 0.976131 1 
0.0837024 0.200696 0.00730205 -0.0371934 -0.217161 0.975427 1 
0.0846039 0.200776 0.00770312 -0.122249 -0.361252 0.92442 1 
0.0847746 0.200232 0.0080262 -0.124619 -0.404661 0.905936 1 
0.0829931 0.201327 0.00774873 -0.0536559 -0.184815 0.981308 1 
0.0825645 0.201828 0.00826328 -0.0460945 -0.111301 0.992717 1 
0.0826572 0.20209 0.00837687 -0.093427 -0.0980406 0.990787 1 
0.0831346 0.201648 0.00821464 -0.106046 -0.198368 0.974374 1 
0.0829423 0.202 0.00835256 -0.0790031 -0.140319 0.986949 1 
0.0833795 0.201575 0.0076536 -0.106046 -0.198368 0.974374 1 
0.0834505 0.201644 0.00822818 -0.106046 -0.198368 0.974374 1 
0.0837133 0.201544 0.00798161 -0.140355 -0.212465 0.967036 1 
0.0830875 0.202541 0.00804301 -0.081975 -0.042627 0.995722 1 
0.0833725 0.202451 0.00801869 -0.118256 -0.0654426 0.990824 1 
0.0839914 0.202329 0.00832238 -0.187014 -0.163799 0.968605 1 
0.0836362 0.201546 0.00830417 -0.140355 -0.212465 0.967036 1 
0.0844973 0.202266 0.00831971 -0.150982 -0.173819 0.973135 1 
0.084739 0.200728 0.00823172 -0.145838 -0.271607 0.951294 1 
0.0847633 0.201069 0.00848348 -0.150446 -0.291405 0.944695 1 
0.0850526 0.201017 0.00836696 -0.158628 -0.286072 0.944987 1 
0.0847693 0.20206 0.00857198 -0.180692 -0.207071 0.961495 1 
0.084953 0.201631 0.00861847 -0.151842 -0.272778 0.950019 1 
0.084964 0.201416 0.00831237 -0.132902 -0.259224 0.95663 1 
0.0849617 0.201708 0.00843407 -0.142072 -0.261572 0.954671 1 
0.0823869 0.203249 0.00830529 -0.0533648 -0.0642556 0.996506 1 
0.0831822 0.203133 0.0081861 -0.218804 -0.0912726 0.971491 1 
0.0829483 0.202991 0.00844105 -0.196697 -0.0927818 0.976064 1 
0.0833656 0.203326 0.00838377 -0.236016 -0.0580772 0.970012 1 
0.0837433 0.203498 0.00847305 -0.268823 -0.00361646 0.963183 1 
0.084033 0.202824 0.00820533 -0.198248 -0.0849633 0.976463 1 
0.0843711 0.202831 0.00844114 -0.201515 -0.142472 0.969068 1 
0.0841811 0.202891 0.00845736 -0.2057 -0.0984867 0.973647 1 
0.0838403 0.203798 0.00849444 -0.324358 0.0448717 0.944869 1 
0.0834811 0.203416 0.00940289 -0.382655 -0.0141724 0.923783 1 
0.0853533 0.200128 0.00779317 -0.102084 -0.521921 0.846863 1 
0.0973131 0.23539 -0.0200958 0.666071 -0.301587 0.682199 0 
0.0985627 0.235626 -0.0211316 0.679627 -0.391902 0.620097 0 
0.0975759 0.235289 -0.0203424 0.694773 -0.315806 0.646187 0 
0.0981769 0.235196 -0.0203532 0.726629 -0.322047 0.606873 0 
0.0982696 0.235457 -0.0202396 0.730096 -0.331862 0.597351 0 
0.0984547 0.235541 -0.0208469 0.704675 -0.37944 0.599549 0 
0.0982517 0.235486 -0.0205541 0.729586 -0.346106 0.589843 0 
0.0971919 0.234749 -0.020369 0.678638 -0.273052 0.681831 0 
0.0974702 0.234912 -0.0201794 0.683576 -0.280154 0.673971 0 
0.0973646 0.234535 -0.0200164 0.688082 -0.230406 0.688082 0 
0.0974572 0.234797 -0.0199028 0.686901 -0.23735 0.686901 0 
0.0973602 0.234496 -0.0199242 0.677749 -0.216568 0.702677 0 
0.0978566 0.23516 -0.0202745 0.719401 -0.293208 0.629676 0 
0.0979782 0.235179 -0.0201526 0.719401 -0.293208 0.629676 0 
0.0974968 0.234961 -0.0200493 0.692701 -0.265933 0.670407 0 
0.0974838 0.234845 -0.0197727 0.686901 -0.23735 0.686901 0 
0.0978306 0.23493 -0.0197213 0.69403 -0.258871 0.671795 0 
0.0981156 0.234839 -0.0197457 0.713811 -0.276262 0.643547 0 
0.0975895 0.235223 -0.0199358 0.70567 -0.286429 0.648065 0 
0.0979363 0.235307 -0.0198844 0.73418 -0.292712 0.612617 0 
0.0982213 0.235216 -0.0199087 0.756778 -0.277644 0.591778 0 
0.0984977 0.235049 -0.0197486 0.772813 -0.262851 0.577642 0 
0.0986511 0.235849 -0.0209258 0.690301 -0.387161 0.611221 0 
0.0985474 0.235803 -0.0207333 0.71604 -0.365394 0.594789 0 
0.0987308 0.235996 -0.0205356 0.709167 -0.368505 0.601072 0 
0.0986488 0.236141 -0.0208041 0.338054 -0.574206 -0.745659 0 
0.0987415 0.236403 -0.0206905 0.36879 -0.588424 -0.719549 0 
0.0987328 0.236326 -0.0205061 0.338054 -0.574206 -0.745659 0 
0.0983444 0.235747 -0.0204405 0.722743 -0.350767 0.595488 0 
0.0986271 0.235949 -0.0203431 0.71604 -0.365394 0.594789 0 
0.0986603 0.235744 -0.0204269 0.733611 -0.352979 0.580707 0 
0.0988148 0.236181 -0.0202376 0.33456 -0.576994 -0.745082 0 
0.0990868 0.235975 -0.0199853 0.742828 -0.338238 0.577755 0 
0.0988983 0.236547 -0.0206229 0.39063 -0.6049 -0.693905 0 
0.0990666 0.236295 -0.0201781 0.338054 -0.574206 -0.745659 0 
0.0990975 0.236382 -0.0201402 0.349948 -0.577821 -0.737332 0 
0.0981327 0.235615 -0.0199633 0.74244 -0.328356 0.583923 0 
0.0984549 0.235981 -0.0200124 0.73306 -0.349463 0.583522 0 
0.0983314 0.235632 -0.0201639 0.729809 -0.339711 0.593275 0 
0.0986164 0.235542 -0.0201882 0.733316 -0.343081 0.586978 0 
0.0986034 0.235426 -0.0199116 0.75339 -0.31003 0.579901 0 
0.0989898 0.235674 -0.0200067 0.754039 -0.337461 0.563511 0 
0.098915 0.235385 -0.0198059 0.74688 -0.321013 0.582341 0 
0.0988711 0.235182 -0.0195671 0.77527 -0.294507 0.558768 0 
0.0991752 0.236198 -0.0197795 0.33456 -0.576994 -0.745082 0 
0.0994732 0.236223 -0.0200805 0.349948 -0.577821 -0.737332 0 
0.0994336 0.236059 -0.0199339 0.32066 -0.575254 -0.752503 0 
0.0993545 0.23573 -0.0196409 0.763525 -0.319877 0.56099 0 
0.0992488 0.235353 -0.0194778 0.784436 -0.286834 0.549897 0 
0.0994293 0.23602 -0.0198417 0.32066 -0.575254 -0.752503 0 
0.0919279 0.228194 -0.0157598 -0.227112 0.650011 0.725193 0 
0.0921904 0.228716 -0.0158552 -0.247148 0.63125 0.735147 0 
0.0916033 0.22812 -0.0155889 -0.220256 0.654519 0.723251 0 
0.0919854 0.22833 -0.0155919 -0.227112 0.650011 0.725193 0 
0.0920847 0.228339 -0.0156922 -0.251069 0.652148 0.71531 0 
0.0920761 0.228262 -0.0155078 -0.216299 0.65201 0.726703 0 
0.0915242 0.227792 -0.0152959 -0.233846 0.676427 0.6984 0 
0.091586 0.227967 -0.0152201 -0.230835 0.67052 0.705066 0 
0.0915155 0.227715 -0.0151115 -0.210195 0.689751 0.692865 0 
0.0915773 0.22789 -0.0150357 -0.247817 0.686627 0.68347 0 
0.0919724 0.228215 -0.0153153 -0.237731 0.662813 0.710044 0 
0.0920587 0.228108 -0.015139 -0.237792 0.669283 0.703928 0 
0.0919019 0.227963 -0.0152066 -0.230835 0.67052 0.705066 0 
0.0920501 0.228031 -0.0149546 -0.230349 0.672243 0.703583 0 
0.0914055 0.227299 -0.0148563 -0.247679 0.70833 0.661003 0 
0.0913968 0.227222 -0.0146719 -0.251016 0.718317 0.648854 0 
0.0913925 0.227184 -0.0145797 -0.216347 0.723752 0.655268 0 
0.0915025 0.2276 -0.0148349 -0.220497 0.699022 0.680257 0 
0.0916593 0.227744 -0.0147672 -0.251813 0.698426 0.669919 0 
0.0918889 0.227848 -0.01493 -0.237348 0.68375 0.690037 0 
0.0914982 0.227561 -0.0147427 -0.237266 0.705512 0.667801 0 
0.0917832 0.227471 -0.014767 -0.230324 0.706641 0.669037 0 
0.0915536 0.227367 -0.0146042 -0.251069 0.71531 0.652148 0 
0.0918696 0.227364 -0.0145907 -0.2412 0.71099 0.660542 0 
0.0907904 0.226143 -0.0140663 -0.00973889 0.727634 0.685896 0 
0.090378 0.225664 -0.013418 -0.246101 0.763384 0.597226 0 
0.0907687 0.22595 -0.0136053 0.206571 0.660095 0.722221 0 
0.0907557 0.225835 -0.0133287 0.22685 0.668034 0.70871 0 
0.0908435 0.22624 -0.0138062 0.0440592 0.714896 0.697841 0 
0.0908392 0.226202 -0.013714 0.15271 0.678881 0.718192 0 
0.0908262 0.226086 -0.0134374 0.212983 0.660713 0.719789 0 
0.0909709 0.22681 -0.0144302 -0.192239 0.742811 0.641309 0 
0.0912868 0.226807 -0.0144167 -0.205851 0.738278 0.642317 0 
0.0914745 0.227038 -0.0143112 -0.222999 0.734494 0.640928 0 
0.0909954 0.226528 -0.0143296 -0.181944 0.753767 0.631452 0 
0.0912781 0.22673 -0.0142323 -0.212958 0.744577 0.632657 0 
0.0909781 0.226374 -0.0139608 -0.0181927 0.72631 0.687126 0 
0.0912651 0.226614 -0.0139557 -0.0588137 0.718675 0.692854 0 
0.091625 0.226814 -0.0141809 -0.209161 0.742135 0.636779 0 
0.0911594 0.226237 -0.0137927 0.172802 0.665213 0.726382 0 
0.0912521 0.226499 -0.0136791 0.0679438 0.701123 0.709796 0 
0.0909564 0.226182 -0.0134999 0.182489 0.667081 0.722288 0 
0.0908571 0.226174 -0.0133995 0.202759 0.663998 0.719719 0 
0.0917843 0.227107 -0.0134005 -0.0892887 0.721628 0.686498 0 
0.0887394 0.223532 -0.0111308 -0.273672 0.886816 0.372373 0 
0.0890221 0.223734 -0.0110334 -0.210959 0.886617 0.411591 0 
0.0891128 0.223665 -0.0109494 -0.210408 0.887245 0.410517 0 
0.090365 0.225548 -0.0131414 -0.208325 0.779289 0.591025 0 
0.0905614 0.225857 -0.0132203 0.230807 0.6673 0.708123 0 
0.0908002 0.225856 -0.0128842 -0.218438 0.769956 0.599543 0 
0.0901267 0.225367 -0.0127943 -0.197152 0.793193 0.576173 0 
0.0903606 0.22551 -0.0130492 -0.214479 0.782308 0.584802 0 
0.0903477 0.225394 -0.0127726 -0.174476 0.790452 0.587149 0 
0.0905484 0.225741 -0.0129437 -0.208202 0.781913 0.587592 0 
0.0907915 0.225779 -0.0126998 -0.171303 0.777684 0.604866 0 
0.0905397 0.225664 -0.0127593 -0.181099 0.780704 0.598083 0 
0.0908175 0.22601 -0.013253 0.223349 0.663801 0.713781 0 
0.0900433 0.225 -0.012409 -0.200302 0.796622 0.570326 0 
0.0898382 0.224615 -0.0121457 -0.219556 0.815274 0.535839 0 
0.0899309 0.224877 -0.0120321 -0.193074 0.813341 0.548815 0 
0.0901137 0.225252 -0.0125177 -0.180875 0.794937 0.579103 0 
0.0903346 0.225279 -0.012496 -0.16444 0.795044 0.583837 0 
0.0905224 0.225511 -0.0123905 -0.177305 0.792567 0.583439 0 
0.0905137 0.225434 -0.0122061 -0.160902 0.801502 0.575939 0 
0.0902333 0.22494 -0.0124252 -0.193947 0.798695 0.569624 0 
0.090326 0.225202 -0.0123116 -0.180631 0.799938 0.572252 0 
0.0902777 0.224961 -0.0119807 -0.189975 0.810054 0.554727 0 
0.090313 0.225087 -0.012035 -0.199871 0.804061 0.559944 0 
0.0906907 0.225258 -0.0119457 -0.180066 0.803488 0.567435 0 
0.0913514 0.225009 -0.0119103 -0.154393 0.801946 0.577101 0 
0.0907468 0.22638 -0.0129931 0.15308 0.68962 0.707807 0 
0.0914851 0.225947 -0.012597 -0.239174 0.764418 0.598716 0 
0.0914678 0.225793 -0.0122282 -0.151842 0.783266 0.602859 0 
0.0914282 0.225629 -0.0120817 -0.125894 0.792389 0.596884 0 
0.0911591 0.225361 -0.0117724 -0.160515 0.802574 0.574553 0 
0.0894345 0.224213 -0.0116818 -0.24604 0.848149 0.469156 0 
0.0894876 0.22431 -0.0114216 -0.245753 0.850213 0.465557 0 
0.0892846 0.224255 -0.0111288 -0.232931 0.867103 0.440314 0 
0.0891235 0.224072 -0.0111042 -0.215525 0.875478 0.432537 0 
0.0892716 0.22414 -0.0108522 -0.221729 0.879477 0.421137 0 
0.0891105 0.223957 -0.0108277 -0.211545 0.883164 0.418652 0 
0.0898296 0.224538 -0.0119613 -0.198346 0.831235 0.519333 0 
0.0899864 0.224682 -0.0118937 -0.188729 0.822858 0.53599 0 
0.0898166 0.224423 -0.0116847 -0.19777 0.83788 0.508767 0 
0.0899734 0.224567 -0.0116171 -0.201252 0.830733 0.519019 0 
0.0898036 0.224307 -0.0114081 -0.216809 0.844495 0.489716 0 
0.089969 0.224528 -0.0115249 -0.19777 0.83788 0.508767 0 
0.090285 0.224525 -0.0115113 -0.162707 0.828462 0.535888 0 
0.0900791 0.224944 -0.0117801 -0.192751 0.811984 0.550935 0 
0.090395 0.224941 -0.0117665 -0.189975 0.810054 0.554727 0 
0.0901943 0.224594 -0.0115954 -0.178632 0.827112 0.532894 0 
0.090965 0.22476 -0.0118152 -0.193195 0.804726 0.561331 0 
0.0907505 0.225102 -0.0118995 -0.189938 0.803819 0.563737 0 
0.0907727 0.225112 -0.0116773 -0.193195 0.804726 0.561331 0 
0.0913095 0.225136 -0.0116421 -0.141289 0.807575 0.57259 0 
0.09114 0.224254 -0.0115843 -0.0761681 0.794735 0.602159 0 
0.0907554 0.224958 -0.0113085 -0.169356 0.819801 0.547033 0 
0.0912922 0.224982 -0.0112733 -0.147611 0.809627 0.568081 0 
0.0899716 0.224677 -0.0108121 -0.212824 0.846769 0.487533 0 
0.0905286 0.22438 -0.0105842 -0.186358 0.851285 0.490495 0 
0.0907158 0.224794 -0.0111619 -0.179077 0.82616 0.53422 0 
0.0907028 0.224679 -0.0108853 -0.152693 0.834622 0.529236 0 
0.0912835 0.224905 -0.0110889 -0.134504 0.817372 0.560188 0 
0.0912705 0.22479 -0.0108123 -0.1502 0.822382 0.548751 0 
0.0906898 0.224563 -0.0106087 -0.148779 0.841116 0.519989 0 
0.09229 0.229164 -0.015121 -0.251335 0.637031 0.728713 0 
0.0927163 0.227892 -0.0164995 -0.148284 0.603622 0.78336 0 
0.0923958 0.228479 -0.0162697 -0.208587 0.613401 0.761729 0 
0.0922877 0.228394 -0.015985 -0.222932 0.637617 0.737391 0 
0.0947828 0.231829 -0.0180132 -0.464113 0.801358 0.377393 0 
0.0953962 0.232033 -0.0189839 -0.415654 0.816975 0.399729 0 
0.0951866 0.232231 -0.0184772 -0.439325 0.81315 0.381813 0 
0.0951822 0.232193 -0.018385 -0.440522 0.808959 0.389262 0 
0.0948909 0.231914 -0.0182979 -0.460398 0.803691 0.376981 0 
0.0951692 0.232077 -0.0181084 -0.456682 0.806004 0.376562 0 
0.0948778 0.231799 -0.0180214 -0.464113 0.801358 0.377393 0 
0.0951606 0.232 -0.017924 -0.460459 0.80059 0.383449 0 
0.0948692 0.231722 -0.017837 -0.464785 0.796084 0.387589 0 
0.0947698 0.231714 -0.0177366 -0.471589 0.793492 0.384675 0 
0.0951475 0.231885 -0.0176474 -0.465392 0.793903 0.391315 0 
0.0955675 0.232805 -0.0198466 -0.373115 0.74786 0.549082 0 
0.095817 0.233211 -0.0196654 -0.378844 0.729807 0.569086 0 
0.0965854 0.23367 -0.0197634 0.680038 -0.156 0.716388 0 
0.0966781 0.233931 -0.0196499 0.680357 -0.153042 0.716723 0 
0.0964774 0.233584 -0.0194787 -0.421758 0.722778 0.547459 0 
0.0966651 0.233816 -0.0193733 -0.432146 0.71362 0.551358 0 
0.09572 0.232911 -0.0196868 -0.373806 0.739451 0.559893 0 
0.0956853 0.232603 -0.0189492 -0.41061 0.797066 0.442815 0 
0.0959013 0.232774 -0.0195186 -0.383772 0.746315 0.543814 0 
0.0960027 0.233113 -0.0195894 -0.386077 0.727797 0.566794 0 
0.0959897 0.232997 -0.0193128 -0.385197 0.73925 0.552388 0 
0.0958883 0.232659 -0.019242 -0.3815 0.76787 0.514619 0 
0.0959192 0.232746 -0.0192041 -0.382977 0.754545 0.532908 0 
0.0961069 0.232977 -0.0190987 -0.387493 0.743922 0.544453 0 
0.0960939 0.232862 -0.0188221 -0.383062 0.761234 0.523246 0 
0.0964026 0.233294 -0.0192779 -0.411053 0.724708 0.553023 0 
0.0964731 0.233546 -0.0193865 -0.417511 0.721155 0.55283 0 
0.0964601 0.23343 -0.0191099 -0.417274 0.724045 0.549219 0 
0.096599 0.233603 -0.0193568 -0.428192 0.719164 0.547226 0 
0.0966478 0.233662 -0.0190045 -0.424713 0.718873 0.55031 0 
0.0963587 0.233092 -0.0190391 -0.399626 0.735115 0.547636 0 
0.096763 0.233312 -0.0188198 -0.413791 0.723722 0.552271 0 
0.096912 0.234074 -0.0199048 0.66983 -0.162521 0.72451 0 
0.0968947 0.23392 -0.019536 0.669821 -0.149689 0.727278 0 
0.0969874 0.234182 -0.0194224 0.640973 -0.0982727 0.761247 0 
0.096886 0.233843 -0.0193516 -0.450266 0.716106 0.533341 0 
0.0954976 0.232372 -0.0190547 -0.405931 0.80384 0.434812 0 
0.0955155 0.232344 -0.0187402 -0.419371 0.814824 0.400237 0 
0.0955816 0.232557 -0.0187567 -0.418366 0.809483 0.411955 0 
0.0953743 0.232463 -0.0183717 -0.434474 0.816429 0.380364 0 
0.0955952 0.23249 -0.01835 -0.427649 0.818733 0.383135 0 
0.0967191 0.233109 -0.0185811 -0.426364 0.745725 0.511966 0 
0.0964297 0.233161 -0.0184646 -0.422289 0.750919 0.507733 0 
0.0960742 0.233 -0.0183316 -0.443953 0.795887 0.411666 0 
0.0961254 0.232767 -0.0181009 -0.439383 0.810062 0.388255 0 
0.0963197 0.232745 -0.0182093 -0.444851 0.801374 0.399884 0 
0.0966004 0.232616 -0.0181415 -0.444837 0.804561 0.393448 0 
0.0953656 0.232386 -0.0181873 -0.44067 0.816115 0.373854 0 
0.0952951 0.232134 -0.0180786 -0.453589 0.806203 0.379861 0 
0.0955383 0.232172 -0.0178347 -0.446765 0.808661 0.382713 0 
0.0964817 0.232124 -0.0177019 -0.430763 0.818609 0.379898 0 
0.0961923 0.232176 -0.0175853 -0.430763 0.818609 0.379898 0 
0.0960174 0.232682 -0.0178162 -0.434386 0.819446 0.373922 0 
0.0964061 0.232638 -0.0180331 -0.440522 0.808959 0.389262 0 
0.0963887 0.232484 -0.0176643 -0.427054 0.820768 0.379427 0 
0.0965874 0.232501 -0.0178649 -0.436205 0.813291 0.385075 0 
0.0960994 0.232536 -0.0175477 -0.431886 0.817556 0.380889 0 
0.0969241 0.233495 -0.0188444 -0.421999 0.71988 0.551081 0 
0.0972091 0.233404 -0.0188687 -0.425953 0.714341 0.55523 0 
0.0970688 0.234218 -0.0198372 0.663896 -0.182456 0.725226 0 
0.0970558 0.234103 -0.0195606 0.638298 -0.0949413 0.763912 0 
0.0975392 0.234651 -0.0196343 0.68406 -0.216593 0.696526 0 
0.0974731 0.234438 -0.0196179 0.670256 -0.182518 0.719336 0 
0.0973674 0.234061 -0.0194548 0.659186 -0.159114 0.734954 0 
0.0973279 0.233897 -0.0193083 0.661674 -0.139537 0.736694 0 
0.0978338 0.233833 -0.019311 0.668683 -0.15921 0.726302 0 
0.0974269 0.234527 -0.0192574 0.672678 -0.176214 0.718647 0 
0.0977143 0.234145 -0.0194034 0.674113 -0.165865 0.719764 0 
0.0980856 0.233948 -0.0192515 0.678881 -0.15271 0.718192 0 
0.0980143 0.2345 -0.0196749 0.697536 -0.220028 0.681932 0 
0.098392 0.234672 -0.0195856 0.742942 -0.261376 0.616214 0 
0.0981913 0.234325 -0.0194145 0.694928 -0.206768 0.68871 0 
0.0987963 0.234892 -0.0193663 0.782471 -0.252461 0.569212 0 
0.0986597 0.234428 -0.0192411 0.747723 -0.239836 0.619184 0 
0.097253 0.233607 -0.0191074 -0.44361 0.712767 0.543298 0 
0.0978208 0.233718 -0.0190344 0.665831 -0.130174 0.734659 0 
0.0977769 0.233515 -0.0187957 -0.443048 0.708545 0.549247 0 
0.0980726 0.233832 -0.0189749 0.677717 -0.14943 0.71998 0 
0.0979848 0.233427 -0.0184974 -0.4301 0.705763 0.56295 0 
0.0980596 0.233717 -0.0186983 -0.451735 0.698439 0.555084 0 
0.0970904 0.232912 -0.0184291 -0.430427 0.740466 0.516182 0 
0.0970393 0.233144 -0.0186597 -0.411053 0.724708 0.553023 0 
0.0974812 0.233198 -0.0186164 -0.418506 0.719565 0.554148 0 
0.0974107 0.232947 -0.0185078 -0.407556 0.72436 0.556058 0 
0.0968011 0.232963 -0.0183126 -0.429084 0.751308 0.50142 0 
0.0970774 0.232796 -0.0181525 -0.446277 0.76995 0.456085 0 
0.0975834 0.232733 -0.0181552 -0.439219 0.751772 0.491859 0 
0.09691 0.232244 -0.0180652 -0.439972 0.807948 0.391975 0 
0.0973538 0.232629 -0.0179924 -0.447475 0.776166 0.444221 0 
0.0979279 0.233109 -0.0179821 -0.450805 0.741434 0.497042 0 
0.0933819 0.23006 -0.0167565 -0.523166 0.690312 0.499766 0 
0.0934128 0.230148 -0.0167186 -0.523166 0.690312 0.499766 0 
0.09368 0.230085 -0.0170574 -0.535563 0.702406 0.468827 0 
0.0936372 0.231017 -0.0173212 -0.513845 0.746963 0.421911 0 
0.0939044 0.230955 -0.01766 -0.507897 0.759395 0.406644 0 
0.0938114 0.231316 -0.0176224 -0.52195 0.7626 0.382113 0 
0.0937854 0.231085 -0.0170692 -0.543165 0.748687 0.380052 0 
0.0937343 0.231318 -0.0172998 -0.531157 0.750157 0.393873 0 
0.0940897 0.231479 -0.0174328 -0.525841 0.771773 0.357572 0 
0.0943791 0.231427 -0.0175493 -0.509581 0.778123 0.367222 0 
0.0943748 0.231388 -0.0174571 -0.510255 0.775911 0.370947 0 
0.0940811 0.231402 -0.0172484 -0.519578 0.763893 0.382761 0 
0.0943927 0.23136 -0.0171427 -0.518287 0.765245 0.38181 0 
0.093479 0.230361 -0.0167351 -0.565722 0.701761 0.433001 0 
0.0935956 0.230523 -0.0172042 -0.571006 0.722396 0.389995 0 
0.093587 0.230446 -0.0170198 -0.577394 0.715574 0.393154 0 
0.0938827 0.230763 -0.017199 -0.547436 0.743533 0.384022 0 
0.093971 0.230986 -0.0169932 -0.540859 0.750013 0.380726 0 
0.093874 0.230686 -0.0170146 -0.567064 0.733751 0.374229 0 
0.0939624 0.230909 -0.0168088 -0.544453 0.743922 0.387493 0 
0.0936667 0.230592 -0.0166296 -0.569848 0.7152 0.404675 0 
0.0939494 0.230794 -0.0165322 -0.547636 0.735115 0.399626 0 
0.0942301 0.230665 -0.0164643 -0.54329 0.73697 0.402133 0 
0.0940681 0.231286 -0.0169718 -0.525756 0.751782 0.398002 0 
0.0940594 0.231209 -0.0167874 -0.531839 0.751121 0.391107 0 
0.0943797 0.231245 -0.0168661 -0.51774 0.756194 0.400146 0 
0.0943401 0.231081 -0.0167195 -0.51774 0.756194 0.400146 0 
0.0940421 0.231055 -0.0164186 -0.532971 0.74288 0.405058 0 
0.094695 0.231424 -0.0175358 -0.493131 0.784159 0.376719 0 
0.0950418 0.231508 -0.0174844 -0.472815 0.789101 0.39213 0 
0.0928899 0.229435 -0.0164983 -0.455931 0.669701 0.586197 0 
0.0927224 0.228883 -0.016411 -0.409523 0.658221 0.631693 0 
0.0927885 0.229096 -0.0164275 -0.417618 0.660535 0.623931 0 
0.0933689 0.229945 -0.0164799 -0.51685 0.687461 0.51016 0 
0.0933998 0.230032 -0.016442 -0.523494 0.6874 0.503424 0 
0.0929121 0.229445 -0.0162761 -0.434747 0.661282 0.611311 0 
0.0930732 0.229628 -0.0163006 -0.456824 0.671013 0.583998 0 
0.0931702 0.229928 -0.0162792 -0.503695 0.684422 0.527122 0 
0.0933912 0.229955 -0.0162576 -0.500303 0.684361 0.530422 0 
0.0926207 0.229167 -0.016189 -0.417664 0.65728 0.627328 0 
0.0924861 0.229033 -0.0160344 -0.410381 0.6596 0.629694 0 
0.0926077 0.229051 -0.0159124 -0.410381 0.6596 0.629694 0 
0.0923674 0.22854 -0.0155948 -0.240399 0.642635 0.727481 0 
0.0924775 0.228956 -0.01585 -0.236878 0.619647 0.748282 0 
0.0926608 0.229149 -0.0156523 -0.417618 0.660535 0.623931 0 
0.0924601 0.228802 -0.0154812 -0.251335 0.637031 0.728713 0 
0.0937966 0.228749 -0.0156574 -0.215597 0.60336 0.767772 0 
0.0927134 0.229429 -0.0160754 -0.417618 0.660535 0.623931 0 
0.0929652 0.229543 -0.0160159 -0.42123 0.660981 0.621023 0 
0.0927004 0.229313 -0.0157988 -0.409523 0.658221 0.631693 0 
0.0927974 0.229613 -0.0157775 -0.417618 0.660535 0.623931 0 
0.0939023 0.229126 -0.0158204 -0.410381 0.6596 0.629694 0 
0.094198 0.229443 -0.0159996 -0.471692 0.652983 0.592553 0 
0.0935092 0.229131 -0.0155114 -0.410417 0.656335 0.633073 0 
0.0933415 0.229202 -0.0152729 -0.261668 0.626417 0.734256 0 
0.094293 0.229413 -0.0160077 -0.485696 0.657119 0.576449 0 
0.093466 0.230245 -0.0164585 -0.566713 0.683733 0.459723 0 
0.093548 0.2301 -0.01619 -0.575638 0.679085 0.455505 0 
0.0942281 0.230335 -0.0164938 -0.546434 0.712523 0.440137 0 
0.0940626 0.230113 -0.016377 -0.561808 0.695175 0.448446 0 
0.0943389 0.229946 -0.016217 -0.559127 0.69265 0.455647 0 
0.093658 0.230515 -0.0164452 -0.587385 0.696589 0.411997 0 
0.0942994 0.229782 -0.0160704 0.640246 -0.015277 0.768018 0 
0.0937429 0.229896 -0.0156151 -0.546365 0.667406 0.506018 0 
0.0945266 0.230177 -0.0161115 -0.538774 0.702241 0.465381 0 
0.0943944 0.229752 -0.0160785 -0.55992 0.680261 0.473007 0 
0.0949043 0.230349 -0.0160222 -0.510854 0.735696 0.444724 0 
0.0960823 0.23176 -0.0173301 -0.439383 0.810062 0.388255 0 
0.0958986 0.232189 -0.0173766 -0.443045 0.810916 0.382266 0 
0.0959165 0.232161 -0.0170622 -0.439383 0.810062 0.388255 0 
0.0964687 0.232008 -0.0174253 -0.427567 0.821755 0.376704 0 
0.0964557 0.231893 -0.0171487 -0.426452 0.822783 0.375722 0 
0.096162 0.231906 -0.01694 -0.439927 0.811065 0.385536 0 
0.0961449 0.232193 -0.0157367 -0.414637 0.811663 0.411435 0 
0.0957542 0.231906 -0.0155494 -0.404501 0.774887 0.485726 0 
0.0960262 0.2317 -0.0152971 -0.413384 0.766312 0.491812 0 
0.09334 0.227627 -0.0156048 -0.182133 0.641292 0.745368 0 
0.092174 0.227758 -0.0149543 -0.226939 0.683946 0.693337 0 
0.0928101 0.22779 -0.0150194 -0.223349 0.663801 0.713781 0 
0.092731 0.227461 -0.0147264 -0.230903 0.686426 0.689567 0 
0.0926296 0.227123 -0.0146556 -0.213127 0.70472 0.676718 0 
0.0922227 0.227817 -0.014602 -0.240832 0.684719 0.687867 0 
0.0921479 0.227527 -0.0144011 -0.265173 0.709775 0.652612 0 
0.0924373 0.227475 -0.0145176 -0.233828 0.701483 0.673235 0 
0.0930908 0.227661 -0.0149515 -0.219887 0.66278 0.715802 0 
0.0929233 0.227109 -0.0148643 -0.193142 0.687585 0.699946 0 
0.0928794 0.226907 -0.0146255 -0.203329 0.703115 0.681385 0 
0.0926192 0.226093 -0.0146519 0.0952188 0.646023 0.757356 0 
0.0923273 0.227059 -0.0142624 -0.237651 0.716101 0.656294 0 
0.0926123 0.226969 -0.0142868 -0.233708 0.713672 0.660343 0 
0.0921349 0.227411 -0.0141245 -0.24057 0.718565 0.652526 0 
0.0920027 0.226985 -0.0140916 -0.219592 0.733532 0.643203 0 
0.0922877 0.226895 -0.0141159 -0.240399 0.727481 0.642635 0 
0.0919853 0.226831 -0.0137228 0.0559218 0.678231 0.732718 0 
0.0922704 0.226741 -0.0137471 0.0557948 0.673829 0.736777 0 
0.0919105 0.226542 -0.0135219 0.139594 0.667952 0.730995 0 
0.0921826 0.226336 -0.0132696 0.206529 0.656855 0.725181 0 
0.0923749 0.225984 -0.0134076 0.25797 0.644133 0.7201 0 
0.0922617 0.226664 -0.0135627 0.0800201 0.673624 0.73473 0 
0.0919593 0.226601 -0.0131696 0.199712 0.657965 0.726084 0 
0.0918845 0.226311 -0.0129687 0.233989 0.645433 0.727094 0 
0.0921256 0.226018 -0.0127543 0.271994 0.637834 0.720546 0 
0.0917658 0.225818 -0.0125291 -0.204946 0.768932 0.605592 0 
0.0920552 0.225766 -0.0126456 -0.212441 0.761378 0.612514 0 
0.0917788 0.225933 -0.0128057 0.258029 0.647448 0.7171 0 
0.0922666 0.22652 -0.0129717 0.230548 0.647731 0.726149 0 
0.0920378 0.225612 -0.0122769 -0.0266811 0.756901 0.652985 0 
0.0917219 0.225615 -0.0122904 -0.141901 0.781204 0.607935 0 
0.0917465 0.225334 -0.0121898 0.00414035 0.771485 0.636234 0 
0.0917398 0.225587 -0.0119759 -0.0885421 0.791073 0.60528 0 
0.0914092 0.224522 -0.0118936 -0.0614605 0.787552 0.613176 0 
0.0916032 0.225123 -0.0118508 -0.0237342 0.78323 0.621279 0 
0.0915772 0.224892 -0.0112976 -0.00412295 0.784735 0.619817 0 
0.0916211 0.225095 -0.0115363 -0.00967365 0.78633 0.617732 0 
0.0923588 0.228463 -0.0154104 -0.269372 0.658289 0.702918 0 
0.0926704 0.228422 -0.0153047 -0.244029 0.650218 0.719491 0 
0.0924558 0.228763 -0.015389 -0.257905 0.640808 0.723084 0 
0.0925528 0.229064 -0.0153676 -0.254725 0.631276 0.732534 0 
0.0923501 0.228386 -0.015226 -0.244675 0.658254 0.711924 0 
0.0923746 0.228105 -0.0151254 -0.237731 0.662813 0.710044 0 
0.0930042 0.22839 -0.0149767 -0.241064 0.650715 0.720041 0 
0.0934986 0.228724 -0.0153565 -0.25405 0.626446 0.736902 0 
0.0933972 0.228385 -0.0152857 -0.25443 0.643187 0.722202 0 
0.0932297 0.227833 -0.0151984 -0.205966 0.648869 0.732494 0 
0.0926657 0.229005 -0.0150612 -0.261311 0.635064 0.726919 0 
0.0929219 0.229158 -0.0150939 -0.406757 0.659113 0.632549 0 
0.0928427 0.22883 -0.0148009 -0.275801 0.652039 0.706243 0 
0.0932401 0.228863 -0.0152021 -0.258195 0.628855 0.733401 0 
0.0923593 0.228281 -0.0147271 -0.240784 0.671993 0.70032 0 
0.0926004 0.227988 -0.0145127 -0.234371 0.681091 0.693675 0 
0.0926487 0.228229 -0.0148437 -0.241236 0.663794 0.707942 0 
0.0932109 0.229728 -0.0150593 -0.254458 0.621131 0.741247 0 
0.0825431 0.216377 -0.000416659 0.0593184 0.87598 0.478685 0 
0.0854481 0.218019 -0.00577728 -0.947336 0.319143 0.0264901 0 
0.0856026 0.218455 -0.00558797 -0.947336 0.319143 0.0264901 0 
0.0855052 0.218777 -0.00545815 -0.947336 0.319143 0.0264901 0 
0.0858079 0.218218 -0.00600247 -0.949466 0.312274 0.0316067 0 
0.0852072 0.218752 -0.00515724 -0.956552 0.290802 -0.0210367 0 
0.0855231 0.218749 -0.00514369 -0.956552 0.290802 -0.0210367 0 
0.0856736 0.218524 -0.00501338 -0.960108 0.274854 -0.0514568 0 
0.0857995 0.218581 -0.00498363 -0.960229 0.274889 -0.0489528 0 
0.0856562 0.21837 -0.00464459 -0.943119 0.332049 -0.0164131 0 
0.0856871 0.218458 -0.00460672 -0.943119 0.332049 -0.0164131 0 
0.0857426 0.218263 -0.00446829 -0.922813 0.383079 0.0408092 0 
0.0854445 0.218238 -0.00416737 -0.897213 0.435553 0.0728212 0 
0.0849588 0.217982 -0.00397194 -0.836465 0.530692 0.136716 0 
0.0854402 0.2182 -0.00407517 -0.858678 0.499098 0.116504 0 
0.0850503 0.217109 -0.00335579 -0.753476 0.63071 0.185684 0 
0.0852288 0.217445 -0.00374916 -0.818059 0.5577 0.140535 0 
0.0853258 0.217746 -0.00372777 -0.823673 0.548623 0.14344 0 
0.0852704 0.21794 -0.0038662 -0.826299 0.545446 0.140426 0 
0.0854272 0.218084 -0.00379857 -0.833929 0.533891 0.139724 0 
0.0856085 0.217947 -0.0036304 -0.826299 0.545446 0.140426 0 
0.0856395 0.218034 -0.00359254 -0.826299 0.545446 0.140426 0 
0.0853128 0.21763 -0.00345117 -0.815722 0.561086 0.140642 0 
0.0852158 0.21733 -0.00347257 -0.767866 0.615208 0.178609 0 
0.0852998 0.217515 -0.00317457 -0.759014 0.624078 0.185537 0 
0.0854055 0.217892 -0.00333758 -0.818059 0.5577 0.140535 0 
0.0855825 0.217716 -0.0030772 -0.788966 0.592856 0.161414 0 
0.0856906 0.217802 -0.0033619 -0.821678 0.553194 0.137192 0 
0.084294 0.216071 -0.00219731 -0.47005 0.825338 0.312842 0 
0.0844084 0.216526 -0.00254472 -0.488485 0.806717 0.332552 0 
0.0850151 0.216983 -0.00330146 -0.74711 0.636199 0.192554 0 
0.0848473 0.217054 -0.00306298 -0.695302 0.679606 0.23386 0 
0.0847991 0.216812 -0.00273205 -0.641746 0.720974 0.261452 0 
0.0848918 0.217074 -0.00261845 -0.717645 0.668258 0.196002 0 
0.0850991 0.217168 -0.00300346 -0.723752 0.655268 0.216347 0 
0.0852028 0.217215 -0.00319597 -0.753476 0.63071 0.185684 0 
0.0852955 0.217476 -0.00308238 -0.754798 0.629254 0.185255 0 
0.084927 0.2172 -0.00267279 -0.72357 0.661858 0.195935 0 
0.0852184 0.217478 -0.00275981 -0.771755 0.614069 0.165268 0 
0.0849821 0.217628 -0.00238317 -0.766036 0.624567 0.152003 0 
0.0846954 0.216766 -0.00253955 -0.511352 0.794906 0.326564 0 
0.0848831 0.216997 -0.00243406 -0.713095 0.679502 0.172548 0 
0.0846824 0.21665 -0.00226295 -0.656849 0.730687 0.186133 0 
0.0847751 0.216912 -0.00214936 -0.702846 0.696825 0.142977 0 
0.0845854 0.21635 -0.00228434 -0.474745 0.81858 0.323331 0 
0.0846781 0.216612 -0.00217075 -0.680816 0.717046 0.149447 0 
0.0848571 0.216766 -0.00188086 -0.716376 0.689788 0.104871 0 
0.0849758 0.217259 -0.00232047 -0.754889 0.64083 0.139572 0 
0.0849715 0.21722 -0.00222827 -0.748683 0.650054 0.130011 0 
0.0852478 0.217053 -0.00206819 -0.760379 0.638837 0.117095 0 
0.0849735 0.217551 -0.00219877 -0.767767 0.628173 0.126229 0 
0.0848967 0.21693 -0.0020274 -0.72436 0.679921 0.114061 0 
0.0850471 0.216706 -0.00189707 -0.722319 0.68407 0.101507 0 
0.0854248 0.216877 -0.00180781 -0.747203 0.655829 0.107586 0 
0.0855507 0.216935 -0.00177805 -0.754968 0.645208 0.117176 0 
0.084268 0.215841 -0.00164412 -0.518031 0.822393 0.235189 0 
0.0833739 0.215765 -0.000741363 -0.0505833 0.88179 0.468921 0 
0.0838642 0.215438 -0.0011802 -0.181317 0.894979 0.4076 0 
0.0836231 0.215731 -0.00139461 -0.200087 0.892357 0.404555 0 
0.0839569 0.2157 -0.00106661 -0.538011 0.827137 0.162447 0 
0.0839439 0.215585 -0.000790007 -0.623206 0.780077 0.0556179 0 
0.0842169 0.216073 -0.00187474 -0.539975 0.810732 0.226143 0 
0.0843737 0.216218 -0.00180713 -0.623583 0.765513 0.158538 0 
0.0843607 0.216102 -0.00153054 -0.633787 0.762036 0.132722 0 
0.0842859 0.215812 -0.00132966 -0.619912 0.772276 0.13892 0 
0.0843477 0.215987 -0.00125394 -0.633415 0.763955 0.123123 0 
0.0837158 0.215993 -0.00128102 -0.422485 0.867685 0.261971 0 
0.0839965 0.215864 -0.00121314 -0.598724 0.792905 0.113272 0 
0.0843433 0.215948 -0.00116174 -0.638063 0.760024 0.123448 0 
0.0841735 0.215689 -0.000952758 -0.595485 0.793488 0.125599 0 
0.0843303 0.215833 -0.000885144 -0.628965 0.771978 0.0919369 0 
0.0839748 0.215672 -0.000752144 -0.623206 0.780077 0.0556179 0 
0.0843217 0.215756 -0.000700742 -0.635304 0.768443 0.0766996 0 
0.0846651 0.216496 -0.00189415 -0.70168 0.70168 0.123651 0 
0.0848528 0.216728 -0.00178867 -0.717809 0.68833 0.10465 0 
0.0846564 0.216419 -0.00170975 -0.700268 0.706165 0.104672 0 
0.0847823 0.216476 -0.00167999 -0.712229 0.694534 0.101747 0 
0.0846434 0.216304 -0.00143316 -0.689751 0.718916 0.0860366 0 
0.0847693 0.216361 -0.0014034 -0.698626 0.710294 0.086052 0 
0.0846304 0.216188 -0.00115656 -0.681224 0.727704 0.0798876 0 
0.0846217 0.216111 -0.000972159 -0.68308 0.726588 0.0739641 0 
0.0877113 0.223141 -0.00939016 -0.352718 0.879525 0.319414 0 
0.0873803 0.222698 -0.00915661 -0.348536 0.882656 0.315342 0 
0.0872723 0.222613 -0.00887191 -0.344688 0.886555 0.308563 0 
0.0865735 0.22321 -0.00941458 -0.331289 0.888934 0.316298 0 
0.0869203 0.223295 -0.00936317 -0.34555 0.882737 0.318389 0 
0.0870355 0.222944 -0.00917852 -0.34496 0.884242 0.314832 0 
0.0874243 0.222901 -0.00939535 -0.352118 0.881052 0.315849 0 
0.0874156 0.222824 -0.00921094 -0.349467 0.881987 0.316184 0 
0.087694 0.222987 -0.00902136 -0.349467 0.881987 0.316184 0 
0.0873076 0.222739 -0.00892624 -0.345286 0.885078 0.312114 0 
0.0874909 0.222932 -0.00872856 -0.348536 0.882656 0.315342 0 
0.0873587 0.222506 -0.00869562 -0.34139 0.885808 0.314319 0 
0.0871666 0.222236 -0.00870891 -0.320698 0.886812 0.332743 0 
0.0871782 0.221839 -0.00833174 -0.354496 0.856055 0.376169 0 
0.087158 0.222159 -0.00852451 -0.323849 0.877282 0.354258 0 
0.0872839 0.222216 -0.00849475 -0.325864 0.880591 0.344052 0 
0.0872709 0.2221 -0.00821815 -0.339827 0.865712 0.367505 0 
0.0873896 0.222593 -0.00865775 -0.344688 0.886555 0.308563 0 
0.0876723 0.222794 -0.00856037 -0.351515 0.88256 0.31229 0 
0.0873809 0.222516 -0.00847335 -0.329418 0.885969 0.32641 0 
0.0873722 0.222439 -0.00828896 -0.333218 0.874888 0.351477 0 
0.0874562 0.222624 -0.00799096 -0.333218 0.874888 0.351477 0 
0.0874693 0.222739 -0.00826757 -0.329418 0.885969 0.32641 0 
0.0883227 0.223014 -0.0103903 -0.34317 0.888646 0.304208 0 
0.0888107 0.222979 -0.0107074 -0.303002 0.894079 0.329869 0 
0.0889034 0.223241 -0.0105938 -0.278332 0.894532 0.349776 0 
0.0890998 0.22355 -0.0106728 -0.229069 0.891151 0.391634 0 
0.0888991 0.223202 -0.0105016 -0.307238 0.888742 0.34021 0 
0.0890911 0.223473 -0.0104884 -0.256321 0.893418 0.368924 0 
0.0883715 0.223073 -0.010038 -0.341118 0.88811 0.308058 0 
0.0877841 0.2231 -0.00962053 -0.350063 0.880462 0.319755 0 
0.0881 0.223097 -0.00960699 -0.349467 0.881987 0.316184 0 
0.0883764 0.22293 -0.00944691 -0.352718 0.879525 0.319414 0 
0.0886874 0.22307 -0.0100244 -0.34377 0.887196 0.307742 0 
0.0888861 0.223087 -0.010225 -0.313283 0.888886 0.334269 0 
0.0887492 0.223245 -0.00994871 -0.335162 0.888254 0.31412 0 
0.0885751 0.222947 -0.00964753 -0.344688 0.886555 0.308563 0 
0.0887318 0.223091 -0.00957991 -0.34317 0.888646 0.304208 0 
0.0877624 0.222908 -0.00915954 -0.349467 0.881987 0.316184 0 
0.0880913 0.22302 -0.00942259 -0.350063 0.880462 0.319755 0 
0.0880783 0.222905 -0.00914599 -0.349723 0.879606 0.322472 0 
0.0883634 0.222814 -0.00917032 -0.350063 0.880462 0.319755 0 
0.0880653 0.222789 -0.00886939 -0.349467 0.881987 0.316184 0 
0.0883171 0.222904 -0.00880989 -0.346473 0.882068 0.319239 0 
0.0881228 0.222925 -0.00870148 -0.349467 0.881987 0.316184 0 
0.08786 0.223026 -0.0084549 -0.348867 0.883493 0.312621 0 
0.0891925 0.223811 -0.0105592 -0.212559 0.892748 0.397265 0 
0.0891945 0.224142 -0.0105297 -0.216848 0.886571 0.408619 0 
0.0889086 0.223537 -0.00916833 -0.342875 0.890875 0.297957 0 
0.0893923 0.223464 -0.00939326 -0.308483 0.895644 0.320405 0 
0.0899479 0.224154 -0.0103806 -0.225163 0.875302 0.427958 0 
0.0905156 0.224265 -0.0103076 -0.179081 0.859886 0.478043 0 
0.0899349 0.224039 -0.010104 -0.242126 0.886805 0.39364 0 
0.0902817 0.224123 -0.0100526 -0.193024 0.87966 0.434673 0 
0.0904847 0.224178 -0.0103454 -0.175964 0.859119 0.480574 0 
0.0899219 0.223923 -0.00982742 -0.222281 0.893541 0.390096 0 
0.0899002 0.223731 -0.00936643 -0.266589 0.902867 0.337286 0 
0.0902687 0.224007 -0.00977602 -0.247912 0.889218 0.384487 0 
0.0904766 0.223919 -0.00947777 -0.249715 0.896906 0.364968 0 
0.0890368 0.223303 -0.00926027 -0.343482 0.889453 0.301484 0 
0.0889264 0.223509 -0.00885387 -0.345513 0.889958 0.29765 0 
0.089472 0.22361 -0.00900307 -0.340742 0.894263 0.290152 0 
0.0887041 0.22297 -0.00822176 -0.34555 0.882737 0.318389 0 
0.0869206 0.221173 -0.0076453 -0.512499 0.743206 0.430104 0 
0.0861784 0.221386 -0.00726599 -0.570996 0.710021 0.41211 0 
0.0867571 0.221282 -0.00749902 -0.512499 0.743206 0.430104 0 
0.0869861 0.221569 -0.00834503 -0.391276 0.825323 0.407117 0 
0.0871652 0.221723 -0.00805514 -0.387571 0.827346 0.406554 0 
0.0871609 0.221685 -0.00796295 -0.431638 0.803906 0.409174 0 
0.0872579 0.221985 -0.00794155 -0.385998 0.833441 0.395451 0 
0.0872535 0.221946 -0.00784936 -0.387571 0.827346 0.406554 0 
0.0868319 0.221572 -0.00769989 -0.466307 0.767362 0.440129 0 
0.0869515 0.221261 -0.00760744 -0.500184 0.752735 0.428026 0 
0.0871146 0.221774 -0.00760252 -0.450863 0.779652 0.434587 0 
0.0872073 0.222036 -0.00748892 -0.423597 0.797265 0.43004 0 
0.0870632 0.222629 -0.00768194 -0.270782 0.858241 0.436005 0 
0.0873592 0.222324 -0.00801236 -0.343977 0.862257 0.371742 0 
0.0873482 0.222539 -0.00770626 -0.220328 0.864825 0.451148 0 
0.0868411 0.221467 -0.00720104 -0.509115 0.739782 0.439915 0 
0.0869425 0.221806 -0.00727184 -0.489612 0.758162 0.430662 0 
0.085911 0.21951 -0.00589259 -0.934819 0.35485 0.0139905 0 
0.0856655 0.219764 -0.0060148 -0.930297 0.366788 0.00380749 0 
0.0861073 0.219818 -0.00597151 -0.923189 0.384343 0.00127689 0 
0.085818 0.21987 -0.00585498 -0.930297 0.366788 0.00380749 0 
0.0863837 0.219651 -0.00581142 -0.930297 0.366788 0.00380749 0 
0.0857669 0.220103 -0.0060856 -0.915752 0.401691 0.00645806 0 
0.0859237 0.220247 -0.00601798 -0.464853 0.70811 0.531499 0 
0.086213 0.220195 -0.0061345 0.198556 0.620294 0.758822 0 
0.085645 0.220706 -0.00605637 0.195139 0.619222 0.760582 0 
0.0859344 0.220654 -0.00617288 0.219072 0.604391 0.765976 0 
0.0863675 0.220632 -0.00594519 0.222137 0.607381 0.762721 0 
0.08639 0.22002 -0.00587412 -0.923713 0.383066 -0.00384347 0 
0.0861221 0.220886 -0.0060674 0.215084 0.601926 0.769041 0 
0.0858936 0.219356 -0.00552379 -0.947931 0.318455 0.00371738 0 
0.0860325 0.219528 -0.00577063 -0.934819 0.35485 0.0139905 0 
0.0860195 0.219413 -0.00549404 -0.942363 0.334305 0.0138768 0 
0.0856022 0.219077 -0.00543676 -0.952007 0.303886 0.0365671 0 
0.0858232 0.219104 -0.00541512 -0.952007 0.303886 0.0365671 0 
0.0855979 0.219039 -0.00534456 -0.950343 0.310086 0.0263635 0 
0.0859052 0.218959 -0.00514663 -0.947336 0.319143 0.0264901 0 
0.0860943 0.219703 -0.0056949 -0.934819 0.35485 0.0139905 0 
0.0860813 0.219587 -0.00541831 -0.941596 0.336554 0.0113445 0 
0.0859756 0.21921 -0.0052553 -0.947017 0.319062 0.0368637 0 
0.0862583 0.219412 -0.00515793 -0.948843 0.31545 0.0137152 0 
0.0860597 0.219395 -0.00495732 -0.953007 0.301806 0.0262985 0 
0.0857749 0.218863 -0.00508419 -0.956161 0.2924 -0.0160388 0 
0.0859008 0.21892 -0.00505443 -0.956161 0.2924 -0.0160388 0 
0.0858985 0.219212 -0.00493274 -0.947336 0.319143 0.0264901 0 
0.0858899 0.219135 -0.00474834 -0.956552 0.290802 -0.0210367 0 
0.0857928 0.218835 -0.00476973 -0.960636 0.271402 -0.0593297 0 
0.0857798 0.218719 -0.00449313 -0.957599 0.283873 -0.0492047 0 
0.0857402 0.218555 -0.00434659 -0.926728 0.37408 0.0351922 0 
0.0856429 0.218877 -0.00421679 -0.949264 0.31392 -0.0187602 0 
0.0855372 0.2185 -0.00405378 -0.909757 0.411076 0.0579549 0 
0.0855329 0.218462 -0.00396158 -0.897213 0.435553 0.0728212 0 
0.0855199 0.218346 -0.00368498 -0.851714 0.509287 0.123332 0 
0.0991783 0.235102 -0.0193692 0.779162 -0.293574 0.553824 0 
0.081683 0.215293 0.000934333 0.3988 0.690039 0.603991 0 
0.0820848 0.215365 0.000440903 0.372492 0.717088 0.589096 0 
0.0825595 0.215837 0.000551559 0.357521 0.729735 0.582808 0 
0.0807685 0.215098 0.000809863 0.458206 0.507831 0.72949 0 
0.0814226 0.215102 0.00105921 0.394855 0.596412 0.698843 0 
0.0821517 0.214774 0.000956491 0.180251 0.847625 0.499041 0 
0.0823394 0.215005 0.00106198 0.180251 0.847625 0.499041 0 
0.0824278 0.215229 0.00126777 0.180251 0.847625 0.499041 0 
0.081845 0.214672 0.00144181 0.190209 0.798878 0.570627 0 
0.0820371 0.214942 0.00145509 0.19305 0.807163 0.55787 0 
0.082258 0.214969 0.00147674 0.186727 0.80915 0.557144 0 
0.0825387 0.21484 0.00154462 0.195171 0.824559 0.531046 0 
0.082245 0.214853 0.00175334 0.159262 0.832034 0.531371 0 
0.082275 0.215745 0.00125913 0.387452 0.704008 0.595192 0 
0.0825205 0.21549 0.00138135 0.180251 0.847625 0.499041 0 
0.0814355 0.21222 0.00452076 0.404097 0.575633 0.710881 0 
0.0817217 0.213264 0.00399388 0.81808 0.409837 0.403459 0 
0.0822966 0.21294 0.00453629 0.383249 0.536549 0.751821 0 
0.0821447 0.212652 0.00505973 0.442235 0.585753 0.679206 0 
0.082082 0.213281 0.00445195 0.391107 0.531839 0.751121 0 
0.0829765 0.215732 -0.000340149 0.0228663 0.878333 0.477501 0 
0.0835466 0.215551 -0.000388786 -0.0393307 0.882906 0.4679 0 
0.0832509 0.215234 -0.000209562 0.0622997 0.876349 0.477631 0 
0.0835336 0.215436 -0.000112183 -0.0200658 0.886907 0.461513 0 
0.0835841 0.215385 -0.000564821 -0.0617236 0.887449 0.456755 0 
0.0839309 0.215469 -0.000513412 -0.584938 0.808045 0.0700782 0 
0.0830704 0.214567 0.000154309 0.115647 0.875205 0.469726 0 
0.0827414 0.214455 0.000417359 0.150494 0.860593 0.486549 0 
0.0830617 0.21449 0.000338703 0.128459 0.867459 0.480639 0 
0.0831674 0.214867 0.0001757 0.106485 0.873175 0.475632 0 
0.0829312 0.215017 0.000552341 0.128459 0.867459 0.480639 0 
0.0830239 0.215279 0.000665933 0.125269 0.865363 0.485237 0 
0.0828318 0.215009 0.000652649 0.140686 0.865873 0.480074 0 
0.0829245 0.21527 0.00076624 0.128459 0.867459 0.480639 0 
0.0833089 0.215188 0.000641614 0.119426 0.864761 0.487777 0 
0.0835939 0.215098 0.000617288 0.106485 0.873175 0.475632 0 
0.0831426 0.215771 0.000226326 0.0681258 0.871733 0.485223 0 
0.0840236 0.215731 -0.000399828 -0.593107 0.800911 0.0822557 0 
0.0838625 0.215548 -0.000375248 -0.584938 0.808045 0.0700782 0 
0.0840106 0.215616 -0.000123233 -0.592636 0.802139 0.0731826 0 
0.0843086 0.215641 -0.000424147 -0.614396 0.784981 0.0795101 0 
0.0842956 0.215525 -0.000147551 -0.607985 0.791096 0.067236 0 
0.0837213 0.215667 -6.71297e-006 -0.596202 0.802739 0.0123922 0 
0.0837126 0.21559 0.000177681 -0.580674 0.814042 0.0123548 0 
0.0837435 0.215678 0.000215545 -0.600593 0.79941 -0.0151874 0 
0.0836046 0.215505 0.000462383 -0.476205 0.875149 0.0856888 0 
0.0832578 0.215421 0.000410989 0.0919148 0.869655 0.485027 0 
0.0831035 0.215425 0.00105612 0.138098 0.859118 0.492793 0 
0.0835916 0.21539 0.000738978 -0.257984 0.931845 0.255165 0 
0.0831099 0.215794 0.000993416 0.128459 0.867459 0.480639 0 
0.0840773 0.215646 0.00054355 -0.624527 0.781002 0.00137259 0 
0.0839098 0.215095 0.000630833 -0.362772 0.914753 0.177829 0 
0.0827198 0.214263 0.000878356 0.180062 0.849715 0.495543 0 
0.082861 0.214143 0.000509821 0.16358 0.859166 0.484846 0 
0.0827614 0.214757 0.000761323 0.150494 0.860593 0.486549 0 
0.0827218 0.214593 0.000907853 0.164112 0.853085 0.495292 0 
0.0831062 0.214511 0.000783227 0.150494 0.860593 0.486549 0 
0.0826597 0.215041 0.00098332 0.154227 0.853391 0.497934 0 
0.0832916 0.215034 0.00101041 0.138098 0.859118 0.492793 0 
0.0827044 0.214439 0.00127665 0.184331 0.837733 0.514029 0 
0.0833955 0.214459 0.000666708 0.131442 0.865207 0.48388 0 
